# .PCD v0.7 - Point Cloud Data file format
VERSION 0.7
FIELDS x y z rgb
SIZE 4 4 4 4
TYPE F F F F
COUNT 1 1 1 1
WIDTH 1001
HEIGHT 1
VIEWPOINT 0 0 0 1 0 0 0
POINTS 1001
DATA ascii
0.036427256 -0.01804341 0.359 1.1999907e-39
0.037662074 -0.01804341 0.359 1.2903885e-39
0.038896892 -0.01804341 0.359 1.2903885e-39
0.040243503 -0.018093672 0.36000001 8.3120821e-40
0.041481759 -0.018093672 0.36000001 8.3120821e-40
0.042720042 -0.018093672 0.36000001 9.2208242e-41
0.043958299 -0.018093672 0.36000001 6.5459023e-39
0.045322098 -0.01814393 0.361 1.6503709e-38
0.046563797 -0.01814393 0.361 1.5766144e-38
0.015994206 -0.019986236 0.37200001 1.3847547e-39
0.017227303 -0.019932508 0.37099999 1.2003635e-39
0.018453548 -0.019878782 0.37 1.2003635e-39
0.019619575 -0.01977133 0.368 1.0159722e-39
0.02088535 -0.01977133 0.368 1.2003635e-39
0.022090932 -0.019717604 0.36700001 1.2925591e-39
0.023289632 -0.019663876 0.366 1.2925591e-39
0.024548529 -0.019663876 0.366 1.3847547e-39
0.025595888 -0.019502698 0.36300001 1.4762441e-39
0.02684449 -0.019502698 0.36300001 1.5684397e-39
0.027938284 -0.019395245 0.361 1.3840485e-39
0.029179981 -0.019395245 0.361 1.2918529e-39
0.03033741 -0.019341519 0.36000001 1.0163197e-39
0.031575669 -0.019341519 0.36000001 1.0163197e-39
0.032813929 -0.019341519 0.36000001 1.0159722e-39
0.033957593 -0.019287791 0.359 1.0159722e-39
0.035192437 -0.019287791 0.359 1.0159722e-39
0.036427256 -0.019287791 0.359 1.0159722e-39
0.037662074 -0.019287791 0.359 9.2412411e-40
0.038896892 -0.019287791 0.359 8.3192848e-40
0.04013171 -0.019287791 0.359 9.2340384e-40
0.041366529 -0.019287791 0.359 1.0155995e-39
0.042720042 -0.019341519 0.36000001 9.2927108e-41
0.043958299 -0.019341519 0.36000001 5.9934474e-39
0.045322098 -0.019395245 0.361 1.6503709e-38
0.046563797 -0.019395245 0.361 1.5673948e-38
0.015994206 -0.021275662 0.37200001 1.2925591e-39
0.017227303 -0.021218468 0.37099999 1.2925591e-39
0.018453548 -0.021161275 0.37 1.0159722e-39
0.019619575 -0.02104689 0.368 1.2003635e-39
0.02088535 -0.02104689 0.368 1.2925591e-39
0.022090932 -0.020989697 0.36700001 1.2925591e-39
0.023289632 -0.020932505 0.366 1.3847547e-39
0.024481459 -0.020875312 0.36500001 1.3847547e-39
0.025595888 -0.020760927 0.36300001 1.3847547e-39
0.026770538 -0.020703733 0.36199999 1.3847547e-39
0.027938284 -0.02064654 0.361 1.2925591e-39
0.029179981 -0.02064654 0.361 1.2003635e-39
0.03033741 -0.02058935 0.36000001 1.0159722e-39
0.031575669 -0.02058935 0.36000001 9.2377659e-40
0.032722775 -0.020532155 0.359 1.0159722e-39
0.033957593 -0.020532155 0.359 9.2377659e-40
0.035192437 -0.020532155 0.359 9.2412411e-40
0.036427256 -0.020532155 0.359 9.2412411e-40
0.037662074 -0.020532155 0.359 9.2377659e-40
0.038896892 -0.020532155 0.359 7.3938533e-40
0.04013171 -0.020532155 0.359 9.2340384e-40
0.041366529 -0.020532155 0.359 1.0155995e-39
0.042601373 -0.020532155 0.359 9.2921502e-41
0.043958299 -0.02058935 0.36000001 6.3622243e-39
0.045196559 -0.02058935 0.36000001 1.6687381e-38
0.046563797 -0.02064654 0.361 1.5673229e-38
0.015994206 -0.022565104 0.37200001 1.4772979e-39
0.017227303 -0.022504443 0.37099999 1.4772979e-39
0.018453548 -0.022443786 0.37 1.2925591e-39
0.019619575 -0.022322468 0.368 1.2925591e-39
0.02088535 -0.022322468 0.368 1.2925591e-39
0.022090932 -0.02226181 0.36700001 1.3847547e-39
0.023289632 -0.022201149 0.366 1.4769504e-39
0.024481459 -0.022140492 0.36500001 1.4769504e-39
0.025595888 -0.022019174 0.36300001 1.3847547e-39
0.026770538 -0.021958513 0.36199999 1.3847547e-39
0.027938284 -0.021897854 0.361 1.2925591e-39
0.029179981 -0.021897854 0.361 1.2003635e-39
0.03033741 -0.021837197 0.36000001 1.0159722e-39
0.031487957 -0.021776536 0.359 9.2377659e-40
0.032722775 -0.021776536 0.359 1.0159722e-39
0.033957593 -0.021776536 0.359 9.2377659e-40
0.035192437 -0.021776536 0.359 1.2903885e-39
0.036427256 -0.021776536 0.359 1.2903885e-39
0.037662074 -0.021776536 0.359 1.1982055e-39
0.038896892 -0.021776536 0.359 1.1060098e-39
0.04013171 -0.021776536 0.359 9.2340384e-40
0.041366529 -0.021776536 0.359 1.1077951e-39
0.042601373 -0.021776536 0.359 9.2921502e-41
0.043958299 -0.021837197 0.36000001 6.45442e-39
0.045196559 -0.021837197 0.36000001 1.650299e-38
0.046692781 -0.021958513 0.36199999 1.5581033e-38
0.013579602 -0.024111046 0.37599999 1.9379285e-39
0.014754226 -0.023918672 0.373 1.6613416e-39
0.015994206 -0.023854546 0.37200001 1.569146e-39
0.017227303 -0.023790421 0.37099999 1.569146e-39
0.018453548 -0.023726296 0.37 1.2925591e-39
0.019619575 -0.023598045 0.368 1.3847547e-39
0.020828595 -0.023533922 0.36700001 1.4769504e-39
0.022090932 -0.023533922 0.36700001 1.4769504e-39
0.023289632 -0.023469795 0.366 1.4769504e-39
0.024481459 -0.023405671 0.36500001 1.3847547e-39
0.025595888 -0.023277421 0.36300001 1.2925591e-39
0.026770538 -0.023213293 0.36199999 1.2925591e-39
0.027938284 -0.02314917 0.361 1.2003635e-39
0.029099153 -0.023085045 0.36000001 1.2003635e-39
0.03033741 -0.023085045 0.36000001 9.2377659e-40
0.031487957 -0.023020918 0.359 1.0159722e-39
0.032722775 -0.023020918 0.359 1.0159722e-39
0.033957593 -0.023020918 0.359 9.2377659e-40
0.035192437 -0.023020918 0.359 1.3818779e-39
0.036427256 -0.023020918 0.359 1.3818779e-39
0.037662074 -0.023020918 0.359 7.3938533e-40
0.038896892 -0.023020918 0.359 8.3158096e-40
0.04013171 -0.023020918 0.359 8.3158096e-40
0.041366529 -0.023020918 0.359 9.2377659e-40
0.042720042 -0.023085045 0.36000001 9.2921502e-41
0.043958299 -0.023085045 0.36000001 6.3622243e-39
0.045322098 -0.02314917 0.361 1.6134929e-38
0.046692781 -0.023213293 0.36199999 1.5489559e-38
0.013543487 -0.025346745 0.375 2.0301241e-39
0.014754226 -0.025211561 0.373 1.7535373e-39
0.015994206 -0.025143972 0.37200001 1.569146e-39
0.017180869 -0.025008788 0.37 1.569146e-39
0.018453548 -0.025008788 0.37 1.569146e-39
0.019672887 -0.024941195 0.36899999 1.4769504e-39
0.020828595 -0.024806015 0.36700001 1.3847547e-39
0.022030737 -0.024738422 0.366 1.3847547e-39
0.023289632 -0.024738422 0.366 1.2925591e-39
0.024414385 -0.024603238 0.36399999 1.2925591e-39
0.025595888 -0.024535649 0.36300001 1.2925591e-39
0.026770538 -0.024468055 0.36199999 1.2925591e-39
0.027938284 -0.024400465 0.361 1.0159722e-39
0.029099153 -0.024332875 0.36000001 1.2003635e-39
0.03033741 -0.024332875 0.36000001 1.0159722e-39
0.031487957 -0.024265282 0.359 1.0159722e-39
0.032722775 -0.024265282 0.359 1.3818779e-39
0.033957593 -0.024265282 0.359 1.3818779e-39
0.035192437 -0.024265282 0.359 1.3818779e-39
0.036427256 -0.024265282 0.359 1.2896822e-39
0.037662074 -0.024265282 0.359 1.1982055e-39
0.038896892 -0.024265282 0.359 1.1060098e-39
0.04013171 -0.024265282 0.359 8.3158096e-40
0.041366529 -0.024265282 0.359 8.3158096e-40
0.042720042 -0.024332875 0.36000001 1.8476681e-40
0.043958299 -0.024332875 0.36000001 5.2555265e-39
0.045322098 -0.024400465 0.361 1.6042733e-38
0.046692781 -0.024468055 0.36199999 1.5212973e-38
0.013543487 -0.026646586 0.375 1.8457329e-39
0.014793783 -0.02657553 0.37400001 1.4769504e-39
0.015994206 -0.026433414 0.37200001 1.4769504e-39
0.017180869 -0.0262913 0.37 1.4769504e-39
0.018453548 -0.0262913 0.37 1.4769504e-39
0.019672887 -0.02622024 0.36899999 1.3847547e-39
0.020828595 -0.026078127 0.36700001 1.3847547e-39
0.022030737 -0.026007067 0.366 1.2925591e-39
0.023289632 -0.026007067 0.366 1.2925591e-39
0.024414385 -0.025864951 0.36399999 1.2925591e-39
0.025595888 -0.025793895 0.36300001 1.7506604e-39
0.026696585 -0.025651779 0.361 1.6584648e-39
0.027938284 -0.025651779 0.361 1.0159722e-39
0.029099153 -0.025580723 0.36000001 9.2377659e-40
0.03033741 -0.025580723 0.36000001 1.0159722e-39
0.031487957 -0.025509665 0.359 1.0159722e-39
0.032722775 -0.025509665 0.359 9.2412411e-40
0.033957593 -0.025509665 0.359 1.0163197e-39
0.035192437 -0.025509665 0.359 1.0159722e-39
0.036427256 -0.025509665 0.359 1.0159722e-39
0.037662074 -0.025509665 0.359 8.3158096e-40
0.038896892 -0.025509665 0.359 8.3158096e-40
0.04013171 -0.025509665 0.359 7.3938533e-40
0.041366529 -0.025509665 0.359 8.3158096e-40
0.042720042 -0.025580723 0.36000001 2.7695263e-40
0.043958299 -0.025580723 0.36000001 4.6101472e-39
0.045322098 -0.025651779 0.361 1.59491e-38
0.046692781 -0.025722837 0.36199999 1.5395926e-38
0.011109966 -0.028319029 0.38 2.5811273e-39
0.012417016 -0.028319029 0.38 2.5811273e-39
0.013543487 -0.027946409 0.375 1.8460804e-39
0.014793783 -0.027871886 0.37400001 1.5694935e-39
0.015994206 -0.027722839 0.37200001 1.4772979e-39
0.017180869 -0.02757379 0.37 1.3851023e-39
0.018453548 -0.02757379 0.37 1.5669754e-39
0.019672887 -0.027499266 0.36899999 1.7513666e-39
0.020828595 -0.027350221 0.36700001 1.7506604e-39
0.022030737 -0.027275695 0.366 1.7506604e-39
0.023289632 -0.027275695 0.366 1.2925591e-39
0.024414385 -0.027126648 0.36399999 1.2003635e-39
0.025525376 -0.026977599 0.36199999 1.2925591e-39
0.026696585 -0.026903076 0.361 1.2003635e-39
0.027860895 -0.026828554 0.36000001 1.2003635e-39
0.029099153 -0.026828554 0.36000001 1.0159722e-39
0.03033741 -0.026828554 0.36000001 1.0159722e-39
0.031487957 -0.026754027 0.359 1.0159722e-39
0.032722775 -0.026754027 0.359 1.3825841e-39
0.033957593 -0.026754027 0.359 1.3825841e-39
0.035094406 -0.026679505 0.35800001 1.0159722e-39
0.036325786 -0.026679505 0.35800001 9.2377659e-40
0.037557166 -0.026679505 0.35800001 1.2904011e-39
0.038788546 -0.026679505 0.35800001 1.1060098e-39
0.04013171 -0.026754027 0.359 7.3938533e-40
0.041366529 -0.026754027 0.359 9.2377659e-40
0.042601373 -0.026754027 0.359 7.3721471e-40
0.043958299 -0.026828554 0.36000001 3.5030836e-39
0.045322098 -0.026903076 0.361 1.5304449e-38
0.046692781 -0.026977599 0.36199999 1.5212254e-38
0.048070349 -0.027052123 0.36300001 1.5120058e-38
0.011109966 -0.029636201 0.38 2.8573639e-39
0.012417016 -0.029636201 0.38 2.580777e-39
0.013724066 -0.029636201 0.38 1.5694935e-39
0.014793783 -0.029168263 0.37400001 1.2929066e-39
0.015951211 -0.028934291 0.37099999 1.842856e-39
0.017180869 -0.028856302 0.37 2.0272473e-39
0.018453548 -0.028856302 0.37 1.200711e-39
0.019619575 -0.02870032 0.368 1.200711e-39
0.020828595 -0.028622331 0.36700001 1.2925591e-39
0.022030737 -0.02854434 0.366 1.2925591e-39
0.023289632 -0.02854434 0.366 1.2925591e-39
0.024414385 -0.028388359 0.36399999 1.2003635e-39
0.025525376 -0.028232379 0.36199999 1.2925591e-39
0.026696585 -0.02815439 0.361 1.0159722e-39
0.027860895 -0.028076401 0.36000001 1.2003635e-39
0.029099153 -0.028076401 0.36000001 1.0159722e-39
0.03033741 -0.028076401 0.36000001 1.3825841e-39
0.031487957 -0.02799841 0.359 1.3825841e-39
0.032722775 -0.02799841 0.359 9.2412411e-40
0.033863004 -0.027920421 0.35800001 9.2412411e-40
0.035094406 -0.027920421 0.35800001 1.2904011e-39
0.036325786 -0.027920421 0.35800001 1.1982055e-39
0.037557166 -0.027920421 0.35800001 8.3158096e-40
0.038788546 -0.027920421 0.35800001 8.3158096e-40
0.040019926 -0.027920421 0.35800001 1.0155995e-39
0.041366529 -0.02799841 0.359 9.2340384e-40
0.042601373 -0.02799841 0.359 6.4681695e-40
0.043958299 -0.028076401 0.36000001 2.121947e-39
0.045322098 -0.02815439 0.361 1.4936373e-38
0.046563797 -0.02815439 0.361 1.521296e-38
0.048070349 -0.028310372 0.36300001 1.5027862e-38
0.011139203 -0.03103481 0.38100001 2.6726167e-39
0.012417016 -0.030953355 0.38 2.2116385e-39
0.013579602 -0.03062753 0.37599999 1.569146e-39
0.014872894 -0.03062753 0.37599999 1.3847547e-39
0.015951211 -0.030220248 0.37099999 1.3847547e-39
0.017180869 -0.030138792 0.37 1.3847547e-39
0.018453548 -0.030138792 0.37 1.5669754e-39
0.019619575 -0.02997588 0.368 1.3825841e-39
0.020828595 -0.029894425 0.36700001 1.1996572e-39
0.022030737 -0.029812967 0.366 1.1996572e-39
0.023289632 -0.029812967 0.366 1.6584648e-39
0.024280239 -0.029487142 0.36199999 1.4740735e-39
0.025525376 -0.029487142 0.36199999 1.1996572e-39
0.026696585 -0.029405687 0.361 9.2307033e-40
0.027860895 -0.029324232 0.36000001 1.0159722e-39
0.029099153 -0.029324232 0.36000001 9.2377659e-40
0.03033741 -0.029324232 0.36000001 9.2412411e-40
0.031487957 -0.029242773 0.359 9.2412411e-40
0.032722775 -0.029242773 0.359 1.3818779e-39
0.033863004 -0.029161319 0.35800001 1.3818779e-39
0.035094406 -0.029161319 0.35800001 1.1981929e-39
0.036325786 -0.029161319 0.35800001 1.2903885e-39
0.037557166 -0.029161319 0.35800001 8.3120821e-40
0.038788546 -0.029161319 0.35800001 1.0155995e-39
0.040019926 -0.029161319 0.35800001 9.2412411e-40
0.041366529 -0.029242773 0.359 8.3192848e-40
0.042720042 -0.029324232 0.36000001 6.4718689e-40
0.043958299 -0.029324232 0.36000001 1.2925563e-39
0.045322098 -0.029405687 0.361 1.4935654e-38
0.046563797 -0.029405687 0.361 1.5304437e-38
0.047937918 -0.029487142 0.36199999 1.4936017e-38
0.011109966 -0.032270528 0.38 1.7506604e-39
0.012384339 -0.032185607 0.37900001 1.6584648e-39
0.013579602 -0.031930838 0.37599999 1.5669754e-39
0.014872894 -0.031930838 0.37599999 1.659171e-39
0.016166186 -0.031930838 0.37599999 1.2925591e-39
0.017413042 -0.031845916 0.375 1.2925591e-39
0.018702921 -0.031845916 0.375 1.659171e-39
0.019619575 -0.031251457 0.368 1.4747798e-39
0.020828595 -0.031166537 0.36700001 1.0159722e-39
0.022090932 -0.031166537 0.36700001 1.2003635e-39
0.023289632 -0.031081613 0.366 1.7506604e-39
0.024280239 -0.030741923 0.36199999 1.5662691e-39
0.025525376 -0.030741923 0.36199999 1.3825841e-39
0.026696585 -0.030657001 0.361 1.2903885e-39
0.027938284 -0.030657001 0.361 9.2412411e-40
0.029099153 -0.030572079 0.36000001 9.2412411e-40
0.03033741 -0.030572079 0.36000001 9.2412411e-40
0.031487957 -0.030487156 0.359 8.3192848e-40
0.032722775 -0.030487156 0.359 1.2903885e-39
0.033957593 -0.030487156 0.359 1.2903885e-39
0.035094406 -0.030402234 0.35800001 1.2903885e-39
0.036325786 -0.030402234 0.35800001 1.2903885e-39
0.037557166 -0.030402234 0.35800001 1.1059972e-39
0.038896892 -0.030487156 0.359 1.3825841e-39
0.04013171 -0.030487156 0.359 1.2903885e-39
0.041366529 -0.030487156 0.359 1.1981929e-39
0.042720042 -0.030572079 0.36000001 9.2306753e-40
0.043958299 -0.030572079 0.36000001 1.8550249e-40
0.045322098 -0.030657001 0.361 1.2908432e-38
0.046692781 -0.030741923 0.36199999 1.5213323e-38
0.047937918 -0.030741923 0.36199999 1.4843468e-38
0.011109966 -0.033587683 0.38 1.7535373e-39
0.012384339 -0.033499293 0.37900001 1.1081678e-39
0.013687951 -0.033499293 0.37900001 9.2412411e-40
0.014952005 -0.033410903 0.37799999 7.3973285e-40
0.016209181 -0.033322517 0.377 7.3938533e-40
0.017413042 -0.033145741 0.375 6.471897e-40
0.018653046 -0.033057351 0.37400001 1.1059972e-39
0.019939458 -0.033057351 0.37400001 1.0138016e-39
0.020828595 -0.032438632 0.36700001 9.2161578e-40
0.022090932 -0.032438632 0.36700001 1.1982027e-39
0.023353267 -0.032438632 0.36700001 3.691512e-39
0.024280239 -0.031996686 0.36199999 1.526014e-42
0.025525376 -0.031996686 0.36199999 1.2907388e-39
0.026696585 -0.031908296 0.361 1.2907388e-39
0.027938284 -0.031908296 0.361 1.2903885e-39
0.029099153 -0.03181991 0.36000001 1.1981929e-39
0.03033741 -0.03181991 0.36000001 1.1981929e-39
0.031575669 -0.03181991 0.36000001 1.2903885e-39
0.032722775 -0.03173152 0.359 1.2903885e-39
0.033957593 -0.03173152 0.359 1.2903885e-39
0.035094406 -0.03164313 0.35800001 1.1981929e-39
0.036325786 -0.03164313 0.35800001 8.2941034e-40
0.037557166 -0.03164313 0.35800001 0
0.038896892 -0.03173152 0.359 0
0.04013171 -0.03173152 0.359 0
0.041481759 -0.03181991 0.36000001 0
0.042720042 -0.03181991 0.36000001 5.6051939e-45
0.043958299 -0.03181991 0.36000001 4.6134389e-40
0.045322098 -0.031908296 0.361 1.0973781e-38
0.0098544843 -0.035088565 0.382 1.19709e-39
0.011109966 -0.034904856 0.38 1.7535373e-39
0.012384339 -0.034813002 0.37900001 1.2925591e-39
0.013687951 -0.034813002 0.37900001 1.4740735e-39
0.014952005 -0.034721144 0.37799999 1.3818779e-39
0.016209181 -0.034629293 0.377 9.2340384e-40
0.017413042 -0.03444558 0.375 8.3120821e-40
0.018653046 -0.034353726 0.37400001 6.4681695e-40
0.019939458 -0.034353726 0.37400001 3.7023006e-40
0.021225872 -0.034353726 0.37400001 1.8439406e-40
0.022572476 -0.03444558 0.375 8.2976347e-40
0.023925962 -0.034537435 0.37599999 1.1250102e-38
0.025219254 -0.034537435 0.37599999 7.1466222e-44
0.026512546 -0.034537435 0.37599999 8.2941034e-40
0.026918441 -0.033435173 0.36399999 1.1059972e-39
0.028247852 -0.033527032 0.36500001 1.1059972e-39
0.029503308 -0.033527032 0.36500001 9.2160597e-40
0.030674491 -0.033435173 0.36399999 9.2160597e-40
0.031926509 -0.033435173 0.36399999 9.2160597e-40
0.032813929 -0.033067759 0.36000001 9.219563e-40
0.033957593 -0.032975901 0.359 9.219563e-40
0.035094406 -0.032884046 0.35800001 7.2166871e-43
0.036325786 -0.032884046 0.35800001 7.5611235e-39
0.037662074 -0.032975901 0.359 8.9455068e-39
0.038896892 -0.032975901 0.359 8.3001374e-39
0.04013171 -0.032975901 0.359 9.3131655e-39
0.041366529 -0.032975901 0.359 9.3131655e-39
0.042720042 -0.033067759 0.36000001 8.67068e-39
0.043958299 -0.033067759 0.36000001 1.1067766e-38
0.045322098 -0.03315961 0.361 1.4934954e-38
0.0098544843 -0.036412671 0.382 2.115445e-39
0.011109966 -0.036222029 0.38 1.7535373e-39
0.012384339 -0.036126707 0.37900001 1.4769504e-39
0.013687951 -0.036126707 0.37900001 1.2925591e-39
0.014952005 -0.036031384 0.37799999 1.2003635e-39
0.016209181 -0.035936065 0.377 1.0159722e-39
0.017413042 -0.035745423 0.375 7.3938533e-40
0.018702921 -0.035745423 0.375 6.4681695e-40
0.019939458 -0.035650104 0.37400001 4.6242569e-40
0.021225872 -0.035650104 0.37400001 9.219563e-41
0.022572476 -0.035745423 0.375 2.5814776e-39
0.023925962 -0.035840742 0.37599999 1.5765161e-38
0.025219254 -0.035840742 0.37599999 6.1657132e-44
0.026512546 -0.035840742 0.37599999 4.6242569e-40
0.026918441 -0.034696888 0.36399999 6.4681695e-40
0.028170459 -0.034696888 0.36399999 6.4681695e-40
0.029503308 -0.034792211 0.36500001 5.5462132e-40
0.030674491 -0.034696888 0.36399999 8.2976067e-40
0.031926509 -0.034696888 0.36399999 7.3756504e-40
0.033178523 -0.034696888 0.36399999 4.6242569e-40
0.033957593 -0.034220282 0.359 4.6242569e-40
0.035094406 -0.034124963 0.35800001 5.6051939e-45
0.036325786 -0.034124963 0.35800001 1.2538971e-38
0.037662074 -0.034220282 0.359 1.5673257e-38
0.038896892 -0.034220282 0.359 1.539667e-38
0.04013171 -0.034220282 0.359 1.5581033e-38
0.041366529 -0.034220282 0.359 1.5488838e-38
0.011109966 -0.03753918 0.38 1.5694935e-39
0.012384339 -0.037440397 0.37900001 1.2929066e-39
0.013687951 -0.037440397 0.37900001 1.2925591e-39
0.014952005 -0.037341606 0.37799999 1.2003635e-39
0.016209181 -0.037242822 0.377 9.2412411e-40
0.017459478 -0.037144031 0.37599999 8.3192848e-40
0.018702921 -0.037045244 0.375 8.3120821e-40
0.019939458 -0.036946461 0.37400001 4.6242569e-40
0.021225872 -0.036946461 0.37400001 0
0.022512285 -0.036946461 0.37400001 3.4112383e-39
0.02386233 -0.037045244 0.375 1.7241007e-38
0.025219254 -0.037144031 0.37599999 6.0255834e-44
0.026512546 -0.037144031 0.37599999 4.6242569e-40
0.026918441 -0.035958584 0.36399999 6.4681695e-40
0.028170459 -0.035958584 0.36399999 9.2160597e-40
0.029503308 -0.036057372 0.36500001 9.2160597e-40
0.030758765 -0.036057372 0.36500001 8.2976067e-40
0.031926509 -0.035958584 0.36399999 7.3756504e-40
0.033178523 -0.035958584 0.36399999 4.6242569e-40
0.034335952 -0.035859797 0.36300001 5.5462132e-40
0.035584554 -0.035859797 0.36300001 1.2611686e-44
0.03683313 -0.035859797 0.36300001 1.2446423e-38
0.038081709 -0.035859797 0.36300001 1.5213336e-38
0.039330285 -0.035859797 0.36300001 1.4567966e-38
0.011139203 -0.038958605 0.38100001 1.5694935e-39
0.012417016 -0.038856354 0.38 1.3851023e-39
0.013687951 -0.038754102 0.37900001 1.3851023e-39
0.014952005 -0.038651846 0.37799999 1.200711e-39
0.016209181 -0.038549595 0.377 9.2412411e-40
0.017459478 -0.038447339 0.37599999 8.3192848e-40
0.018702921 -0.038345087 0.375 8.3120821e-40
0.019939458 -0.038242836 0.37400001 4.6242569e-40
0.021225872 -0.038242836 0.37400001 0
0.022512285 -0.038242836 0.37400001 3.5956296e-39
0.02386233 -0.038345087 0.375 1.8809412e-38
0.025219254 -0.038447339 0.37599999 5.8854536e-44
0.026512546 -0.038447339 0.37599999 3.7023006e-40
0.026918441 -0.037220296 0.36399999 8.3120821e-40
0.028170459 -0.037220296 0.36399999 9.2340384e-40
0.029422475 -0.037220296 0.36399999 8.3120821e-40
0.030758765 -0.037322551 0.36500001 1.1059972e-39
0.031926509 -0.037220296 0.36399999 9.2160597e-40
0.033087377 -0.037118044 0.36300001 7.3721471e-40
0.034335952 -0.037118044 0.36300001 7.3721471e-40
0.035584554 -0.037118044 0.36300001 3.5873241e-43
0.03683313 -0.037118044 0.36300001 1.3276887e-38
0.038081709 -0.037118044 0.36300001 1.4752345e-38
0.039438631 -0.037220296 0.36399999 1.4567953e-38
0.0085629122 -0.040490668 0.38299999 2.2966049e-39
0.0098544843 -0.040384948 0.382 3.5873381e-39
0.011139203 -0.040279228 0.38100001 1.659171e-39
0.012449693 -0.040279228 0.38100001 1.8435623e-39
0.013687951 -0.040067792 0.37900001 1.2925591e-39
0.014952005 -0.039962068 0.37799999 1.0159722e-39
0.016209181 -0.039856352 0.377 1.3825841e-39
0.017459478 -0.039750628 0.37599999 1.1981929e-39
0.018752795 -0.039750628 0.37599999 9.2160597e-40
0.019992772 -0.039644912 0.375 7.3721471e-40
0.021282624 -0.039644912 0.375 2.8025969e-45
0.022572476 -0.039644912 0.375 5.6242964e-39
0.023925962 -0.039750628 0.37599999 2.0741906e-38
0.025219254 -0.039750628 0.37599999 4.6242849e-44
0.026512546 -0.039750628 0.37599999 4.6277602e-40
0.026918441 -0.038481992 0.36399999 8.3155853e-40
0.028170459 -0.038481992 0.36399999 1.1981929e-39
0.029422475 -0.038481992 0.36399999 1.2903885e-39
0.030758765 -0.038587712 0.36500001 7.3938533e-40
0.031926509 -0.038481992 0.36399999 7.3938533e-40
0.033087377 -0.038376272 0.36300001 7.3938533e-40
0.034335952 -0.038376272 0.36300001 9.4015917e-41
0.035584554 -0.038376272 0.36300001 3.2748345e-42
0.03683313 -0.038376272 0.36300001 1.4017011e-38
0.038186617 -0.038481992 0.36399999 1.4106598e-38
0.039438631 -0.038481992 0.36399999 1.4383185e-38
0.0085629122 -0.041818239 0.38299999 8.2868167e-40
0.0098544843 -0.041709054 0.382 2.2116161e-39
0.011168439 -0.041709054 0.382 1.3851023e-39
0.012449693 -0.041599866 0.38100001 1.3851023e-39
0.013687951 -0.041381497 0.37900001 1.7506604e-39
0.014952005 -0.041272309 0.37799999 1.7506604e-39
0.016209181 -0.041163124 0.377 1.0163197e-39
0.017459478 -0.041053936 0.37599999 7.3973285e-40
0.018752795 -0.041053936 0.37599999 8.3120821e-40
0.020046087 -0.041053936 0.37599999 4.6242569e-40
0.021339377 -0.041053936 0.37599999 2.8025969e-45
0.02263267 -0.041053936 0.37599999 5.4399051e-39
0.023925962 -0.041053936 0.37599999 2.1296507e-38
0.025219254 -0.041053936 0.37599999 3.5032462e-44
0.026512546 -0.041053936 0.37599999 4.6171663e-40
0.026992396 -0.039852891 0.36500001 7.3830352e-40
0.028247852 -0.039852891 0.36500001 7.3938533e-40
0.029503308 -0.039852891 0.36500001 8.3158096e-40
0.030758765 -0.039852891 0.36500001 1.1982055e-39
0.031926509 -0.039743703 0.36399999 1.2904011e-39
0.033087377 -0.039634518 0.36300001 9.2412411e-40
0.034335952 -0.039634518 0.36300001 1.0874076e-42
0.035584554 -0.039634518 0.36300001 3.050076e-39
0.03683313 -0.039634518 0.36300001 2.0198427e-38
0.038186617 -0.039743703 0.36399999 1.6688819e-38
0.039438631 -0.039743703 0.36399999 1.2908798e-38
0.0085629122 -0.043145791 0.38299999 1.659171e-39
0.0098544843 -0.043033142 0.382 1.659171e-39
0.011168439 -0.043033142 0.382 1.5669754e-39
0.012449693 -0.042920485 0.38100001 1.8435623e-39
0.013687951 -0.042695183 0.37900001 1.7506604e-39
0.014912451 -0.042469881 0.377 1.7506604e-39
0.016209181 -0.042469881 0.377 9.2412411e-40
0.017505914 -0.042469881 0.377 7.3973285e-40
0.018752795 -0.042357225 0.37599999 6.4681695e-40
0.020046087 -0.042357225 0.37599999 3.7023006e-40
0.021339377 -0.042357225 0.37599999 2.8025969e-45
0.02263267 -0.042357225 0.37599999 4.8867313e-39
0.023989595 -0.042469881 0.377 2.2218808e-38
0.025286328 -0.042469881 0.377 9.1857917e-41
0.026583059 -0.042469881 0.377 3.706e-40
0.027140297 -0.041343357 0.36700001 8.3157815e-40
0.028247852 -0.041118052 0.36500001 9.2377659e-40
0.029503308 -0.041118052 0.36500001 1.0159722e-39
0.030758765 -0.041118052 0.36500001 9.2412411e-40
0.031838797 -0.040892746 0.36300001 9.2412411e-40
0.033087377 -0.040892746 0.36300001 1.3818779e-39
0.034335952 -0.040892746 0.36300001 1.9618179e-44
0.035584554 -0.040892746 0.36300001 9.1255975e-39
0.03683313 -0.040892746 0.36300001 2.2770538e-38
0.038081709 -0.040892746 0.36300001 2.2219131e-38
0.039546981 -0.041118052 0.36500001 1.9453262e-38
0.0085629122 -0.044473361 0.38299999 1.4772979e-39
0.0098544843 -0.044357248 0.382 1.2929066e-39
0.011168439 -0.044357248 0.382 1.3847547e-39
0.012482368 -0.044357248 0.382 1.4769504e-39
0.013651834 -0.043892771 0.37799999 1.3847547e-39
0.014912451 -0.043776654 0.377 1.2003635e-39
0.016209181 -0.043776654 0.377 1.2904011e-39
0.017505914 -0.043776654 0.377 1.0138142e-39
0.018752795 -0.043660533 0.37599999 8.2941034e-40
0.020046087 -0.043660533 0.37599999 6.4501908e-40
0.021339377 -0.043660533 0.37599999 0
0.02263267 -0.043660533 0.37599999 6.730281e-39
0.023989595 -0.043776654 0.377 2.2588661e-38
0.025286328 -0.043776654 0.377 9.2927108e-41
0.026583059 -0.043776654 0.377 2.7658689e-40
0.027140297 -0.04261547 0.36700001 1.2907388e-39
0.028402634 -0.04261547 0.36700001 9.2377659e-40
0.029584136 -0.042499349 0.366 9.2377659e-40
0.030758765 -0.042383231 0.36500001 9.2412411e-40
0.031838797 -0.042150993 0.36300001 8.3192848e-40
0.033087377 -0.042150993 0.36300001 1.3825841e-39
0.034335952 -0.042150993 0.36300001 1.8404094e-40
0.035584554 -0.042150993 0.36300001 6.4464816e-39
0.03683313 -0.042150993 0.36300001 2.3502673e-38
0.038081709 -0.042150993 0.36300001 2.1850349e-38
0.0085852696 -0.045920499 0.384 1.4772979e-39
0.0098544843 -0.045681331 0.382 1.2929066e-39
0.011168439 -0.045681331 0.382 1.4762441e-39
0.012482368 -0.045681331 0.382 1.5684397e-39
0.013651834 -0.045202993 0.37799999 1.2925591e-39
0.014912451 -0.045083411 0.377 1.0159722e-39
0.016209181 -0.045083411 0.377 9.2377659e-40
0.017505914 -0.045083411 0.377 6.471897e-40
0.018802671 -0.045083411 0.377 6.4681695e-40
0.020099401 -0.045083411 0.377 3.7023006e-40
0.021396132 -0.045083411 0.377 3.5873241e-43
0.022692865 -0.045083411 0.377 8.8514965e-39
0.023989595 -0.045083411 0.377 2.3325494e-38
0.025286328 -0.045083411 0.377 1.2907388e-39
0.026583059 -0.045083411 0.377 7.2166871e-43
0.027140297 -0.043887563 0.36700001 1.199625e-39
0.028325241 -0.043767978 0.366 9.2412411e-40
0.029584136 -0.043767978 0.366 9.2412411e-40
0.030758765 -0.043648392 0.36500001 8.3158096e-40
0.031926509 -0.043528806 0.36399999 1.0159722e-39
0.033087377 -0.043409225 0.36300001 1.0163197e-39
0.034335952 -0.043409225 0.36300001 8.3192848e-40
0.035584554 -0.043409225 0.36300001 3.5873241e-43
0.03683313 -0.043409225 0.36300001 1.4198843e-38
0.038081709 -0.043409225 0.36300001 2.2677942e-38
0.0085852696 -0.047251537 0.384 1.4769504e-39
0.0098544843 -0.047005437 0.382 1.3847547e-39
0.011168439 -0.047005437 0.382 1.5684369e-39
0.012449693 -0.046882384 0.38100001 1.6606326e-39
0.013651834 -0.046513233 0.37799999 1.3847547e-39
0.014952005 -0.046513233 0.37799999 1.0159722e-39
0.016209181 -0.046390183 0.377 9.2412411e-40
0.017505914 -0.046390183 0.377 7.3973285e-40
0.018802671 -0.046390183 0.377 6.4681695e-40
0.020099401 -0.046390183 0.377 4.6242569e-40
0.021396132 -0.046390183 0.377 2.8025969e-45
0.022692865 -0.046390183 0.377 9.5887084e-39
0.023925962 -0.046267129 0.37599999 2.3234018e-38
0.025219254 -0.046267129 0.37599999 5.0714785e-39
0.027140297 -0.045159675 0.36700001 1.2911018e-39
0.028325241 -0.045036621 0.366 1.0159722e-39
0.029584136 -0.045036621 0.366 1.2003635e-39
0.030758765 -0.044913571 0.36500001 1.0159722e-39
0.031926509 -0.044790518 0.36399999 1.0159722e-39
0.033087377 -0.044667471 0.36300001 9.2412411e-40
0.034335952 -0.044667471 0.36300001 8.3192848e-40
0.035584554 -0.044667471 0.36300001 4.6028731e-40
0.03683313 -0.044667471 0.36300001 9.1863522e-41
0.038081709 -0.044667471 0.36300001 2.12957e-38
0.039546981 -0.044913571 0.36500001 2.2217656e-38
0.0085852696 -0.048582572 0.384 7.3938533e-40
0.0098802811 -0.048456058 0.38299999 1.2003635e-39
0.011168439 -0.048329543 0.382 1.5684369e-39
0.012449693 -0.048203025 0.38100001 1.7528282e-39
0.013651834 -0.047823474 0.37799999 1.2925591e-39
0.014952005 -0.047823474 0.37799999 8.3158096e-40
0.016209181 -0.047696959 0.377 9.2412411e-40
0.017505914 -0.047696959 0.377 6.4753722e-40
0.018802671 -0.047696959 0.377 8.3120821e-40
0.020099401 -0.047696959 0.377 4.6242569e-40
0.021396132 -0.047696959 0.377 0
0.022692865 -0.047696959 0.377 1.1524454e-38
0.023925962 -0.047570437 0.37599999 2.3326213e-38
0.025219254 -0.047570437 0.37599999 7.929543e-39
0.026512546 -0.047570437 0.37599999 2.8025969e-45
0.027066344 -0.046305265 0.366 1.1989061e-39
0.028325241 -0.046305265 0.366 1.0159722e-39
0.029503308 -0.046178751 0.36500001 1.0159722e-39
0.030758765 -0.046178751 0.36500001 9.2412411e-40
0.032014221 -0.046178751 0.36500001 9.2412411e-40
0.033087377 -0.045925718 0.36300001 9.2412411e-40
0.034335952 -0.045925718 0.36300001 9.2412411e-40
0.035584554 -0.045925718 0.36300001 8.308719e-40
0.03683313 -0.045925718 0.36300001 2.9427268e-44
0.038186617 -0.046052232 0.36399999 1.7609291e-38
0.039546981 -0.046178751 0.36500001 2.2495659e-38
0.0085629122 -0.04978361 0.38299999 1.0761972e-42
0.0098544843 -0.049653631 0.382 7.1746481e-43
0.011168439 -0.049653631 0.382 9.2483036e-40
0.012449693 -0.049523644 0.38100001 1.5701998e-39
0.013651834 -0.049133696 0.37799999 1.2925591e-39
0.014952005 -0.049133696 0.37799999 8.3158096e-40
0.016209181 -0.049003713 0.377 1.2903885e-39
0.017505914 -0.049003713 0.377 1.1981929e-39
0.018802671 -0.049003713 0.377 8.3120821e-40
0.020099401 -0.049003713 0.377 5.5462132e-40
0.021396132 -0.049003713 0.377 3.5873241e-43
0.022692865 -0.049003713 0.377 1.2447126e-38
0.023989595 -0.049003713 0.377 2.341769e-38
0.025286328 -0.049003713 0.377 1.2169823e-38
0.026653569 -0.049133696 0.37799999 1.8402972e-40
0.026992396 -0.047443911 0.36500001 1.4747671e-39
0.028247852 -0.047443911 0.36500001 1.2003635e-39
0.029503308 -0.047443911 0.36500001 1.0159722e-39
0.030758765 -0.047443911 0.36500001 9.2412411e-40
0.032014221 -0.047443911 0.36500001 9.2412411e-40
0.033087377 -0.047183946 0.36300001 9.2412411e-40
0.034335952 -0.047183946 0.36300001 9.2412411e-40
0.035584554 -0.047183946 0.36300001 1.4740735e-39
0.036934599 -0.047313925 0.36399999 1.9618179e-44
0.038291525 -0.047443911 0.36500001 1.6043431e-38
0.039546981 -0.047443911 0.36500001 2.240493e-38
0.0085629122 -0.051111184 0.38299999 1.521154e-38
0.0098544843 -0.050977737 0.382 9.6798027e-39
0.011139203 -0.050844282 0.38100001 2.7981128e-40
0.012417016 -0.050710835 0.38 1.4349296e-42
0.013651834 -0.050443936 0.37799999 2.7694142e-40
0.014952005 -0.050443936 0.37799999 9.2230943e-40
0.016209181 -0.050310489 0.377 1.0155995e-39
0.017505914 -0.050310489 0.377 9.2340384e-40
0.018802671 -0.050310489 0.377 9.2160597e-40
0.020099401 -0.050310489 0.377 9.2160597e-40
0.021396132 -0.050310489 0.377 2.8025969e-45
0.022692865 -0.050310489 0.377 1.3184338e-38
0.023989595 -0.050310489 0.377 2.3326213e-38
0.025353398 -0.050443936 0.37799999 1.410665e-38
0.028247852 -0.048709091 0.36500001 1.200711e-39
0.029503308 -0.048709091 0.36500001 1.0163197e-39
0.030758765 -0.048709091 0.36500001 1.0159722e-39
0.032014221 -0.048709091 0.36500001 8.3158096e-40
0.033178523 -0.04857564 0.36399999 1.2903885e-39
0.034430541 -0.04857564 0.36399999 1.3825841e-39
0.035682581 -0.04857564 0.36399999 1.7506604e-39
0.036934599 -0.04857564 0.36399999 1.9618179e-44
0.038291525 -0.048709091 0.36500001 1.5766497e-38
0.039546981 -0.048709091 0.36500001 2.2404582e-38
0.0085405549 -0.05230182 0.382 1.7057624e-38
0.0098544843 -0.05230182 0.382 1.7610797e-38
0.011109966 -0.052027989 0.38 1.6872516e-38
0.012417016 -0.052027989 0.38 1.0971996e-38
0.013687951 -0.051891077 0.37900001 5.1524736e-39
0.014952005 -0.051754158 0.37799999 2.2958874e-39
0.016252175 -0.051754158 0.37799999 3.5873241e-43
0.017552346 -0.051754158 0.37799999 3.5873241e-43
0.018852543 -0.051754158 0.37799999 7.2166871e-43
0.020152714 -0.051754158 0.37799999 3.61535e-43
0.021452885 -0.051754158 0.37799999 1.1070258e-42
0.022753056 -0.051754158 0.37799999 1.5582529e-38
0.024053227 -0.051754158 0.37799999 2.341769e-38
0.025353398 -0.051754158 0.37799999 1.2722997e-38
0.027140297 -0.050248086 0.36700001 1.751717e-39
0.028247852 -0.049974252 0.36500001 1.2925591e-39
0.029503308 -0.049974252 0.36500001 1.0159722e-39
0.030758765 -0.049974252 0.36500001 1.3818779e-39
0.032014221 -0.049974252 0.36500001 1.2896822e-39
0.033178523 -0.049837336 0.36399999 1.3825841e-39
0.034430541 -0.049837336 0.36399999 1.2903885e-39
0.035682581 -0.049837336 0.36399999 1.842856e-39
0.036934599 -0.049837336 0.36399999 1.9618179e-44
0.038291525 -0.049974252 0.36500001 1.5581749e-38
0.039655328 -0.050111167 0.366 2.2035444e-38
0.0085405549 -0.053625926 0.382 1.6688838e-38
0.0098286876 -0.053485543 0.38100001 1.7887382e-38
0.011109966 -0.053345162 0.38 1.7149113e-38
0.012384339 -0.053204782 0.37900001 1.6042765e-38
0.013687951 -0.053204782 0.37900001 1.5488856e-38
0.014952005 -0.053064398 0.37799999 1.4198117e-38
0.016252175 -0.053064398 0.37799999 1.2079057e-38
0.017552346 -0.053064398 0.37799999 8.8522098e-39
0.018852543 -0.053064398 0.37799999 7.743714e-39
0.020152714 -0.053064398 0.37799999 4.8856495e-39
0.021452885 -0.053064398 0.37799999 5.1658546e-39
0.022753056 -0.053064398 0.37799999 1.622933e-38
0.024053227 -0.053064398 0.37799999 2.3325494e-38
0.027140297 -0.051520199 0.36700001 1.8439098e-39
0.028402634 -0.051520199 0.36700001 1.2925591e-39
0.029503308 -0.051239431 0.36500001 1.0159722e-39
0.030758765 -0.051239431 0.36500001 1.0163197e-39
0.032014221 -0.051239431 0.36500001 9.2412411e-40
0.033178523 -0.051099047 0.36399999 1.0159722e-39
0.034430541 -0.051099047 0.36399999 9.2377659e-40
0.035682581 -0.051099047 0.36399999 1.6584648e-39
0.037036069 -0.051239431 0.36500001 1.9618179e-44
0.038291525 -0.051239431 0.36500001 1.5028944e-38
0.039655328 -0.051379811 0.366 2.2035812e-38
0.041026011 -0.051520199 0.36700001 2.1389371e-38
0.0032848364 -0.054950014 0.382 2.1757427e-38
0.0045987661 -0.054950014 0.382 1.8991558e-38
0.0059281737 -0.055093858 0.38299999 1.8900101e-38
0.0072455429 -0.055093858 0.38299999 1.7424971e-38
0.0085405549 -0.054950014 0.382 1.6226784e-38
0.0098286876 -0.054806162 0.38100001 1.7240936e-38
0.011109966 -0.054662317 0.38 1.6688488e-38
0.012384339 -0.054518469 0.37900001 1.5028967e-38
0.013687951 -0.054518469 0.37900001 1.4015884e-38
0.014952005 -0.05437462 0.37799999 1.3831493e-38
0.016252175 -0.05437462 0.37799999 1.3278322e-38
0.017552346 -0.05437462 0.37799999 1.2725148e-38
0.018852543 -0.05437462 0.37799999 1.1433337e-38
0.020152714 -0.05437462 0.37799999 9.958207e-39
0.021452885 -0.05437462 0.37799999 7.8366285e-39
0.022813251 -0.054518469 0.37900001 1.7885952e-38
0.024116861 -0.054518469 0.37900001 2.2864869e-38
0.028402634 -0.052792292 0.36700001 1.2925591e-39
0.029584136 -0.05264844 0.366 1.2003635e-39
0.030843033 -0.05264844 0.366 1.3825841e-39
0.032014221 -0.052504592 0.36500001 1.3825841e-39
0.033178523 -0.052360743 0.36399999 1.0159722e-39
0.034430541 -0.052360743 0.36399999 1.0159722e-39
0.035682581 -0.052360743 0.36399999 1.842856e-39
0.037036069 -0.052504592 0.36500001 1.9618179e-44
0.038291525 -0.052504592 0.36500001 1.5305897e-38
0.039655328 -0.05264844 0.366 2.1390808e-38
0.041026011 -0.052792292 0.36700001 2.0743638e-38
0.0032848364 -0.05627412 0.382 2.2126923e-38
0.0045987661 -0.05627412 0.382 5.9004923e-39
0.0059281737 -0.056421433 0.38299999 7.9374562e-39
0.007226625 -0.05627412 0.382 1.4575542e-38
0.0085405549 -0.05627412 0.382 1.714839e-38
0.0098286876 -0.056126803 0.38100001 1.7240586e-38
0.011109966 -0.05597949 0.38 1.622751e-38
0.012384339 -0.055832177 0.37900001 1.4383597e-38
0.013651834 -0.055684861 0.37799999 1.4106284e-38
0.014952005 -0.055684861 0.37799999 1.4014089e-38
0.016252175 -0.055684861 0.37799999 1.2909536e-38
0.017552346 -0.055684861 0.37799999 1.2356363e-38
0.018852543 -0.055684861 0.37799999 1.1617356e-38
0.020152714 -0.055684861 0.37799999 1.0142226e-38
0.021452885 -0.055684861 0.37799999 8.4837832e-39
0.022813251 -0.055832177 0.37900001 1.9362868e-38
0.024116861 -0.055832177 0.37900001 2.2127304e-38
0.028402634 -0.054064404 0.36700001 1.7506604e-39
0.029584136 -0.053917084 0.366 1.6584648e-39
0.030843033 -0.053917084 0.366 1.200711e-39
0.032014221 -0.053769771 0.36500001 1.0163197e-39
0.033269677 -0.053769771 0.36500001 1.4747798e-39
0.034430541 -0.053622454 0.36399999 1.3825841e-39
0.035682581 -0.053622454 0.36399999 1.473726e-39
0.037036069 -0.053769771 0.36500001 3.0828566e-44
0.038291525 -0.053769771 0.36500001 1.6319327e-38
0.039655328 -0.053917084 0.366 2.1021304e-38
0.040914223 -0.053917084 0.366 2.0559603e-38
0.0032934353 -0.057748985 0.38299999 2.1296446e-38
0.0046108044 -0.057748985 0.38299999 1.5665844e-39
0.0059281737 -0.057748985 0.38299999 0
0.007226625 -0.057598207 0.382 1.8438846e-40
0.0085405549 -0.057598207 0.382 2.3128445e-39
0.0098286876 -0.057447422 0.38100001 1.3284124e-38
0.011109966 -0.057296645 0.38 1.7237358e-38
0.012351663 -0.056995079 0.37799999 1.5393446e-38
0.013651834 -0.056995079 0.37799999 1.4106284e-38
0.014952005 -0.056995079 0.37799999 1.3921893e-38
0.016252175 -0.056995079 0.37799999 1.2908089e-38
0.017552346 -0.056995079 0.37799999 1.2262719e-38
0.018852543 -0.056995079 0.37799999 1.1341848e-38
0.020152714 -0.056995079 0.37799999 1.0512087e-38
0.02150964 -0.057145864 0.37900001 9.8667148e-39
0.022813251 -0.057145864 0.37900001 1.9639452e-38
0.029584136 -0.055185713 0.366 1.659171e-39
0.030843033 -0.055185713 0.366 1.2003635e-39
0.032014221 -0.055034935 0.36500001 9.2377659e-40
0.033269677 -0.055034935 0.36500001 1.2903885e-39
0.034525134 -0.055034935 0.36500001 1.3825841e-39
0.035780612 -0.055034935 0.36500001 9.2237108e-40
0.037036069 -0.055034935 0.36500001 4.9045446e-44
0.038291525 -0.055034935 0.36500001 1.6780298e-38
0.039655328 -0.055185713 0.366 2.1482275e-38
0.040914223 -0.055185713 0.366 2.0283739e-38
0.0046108044 -0.059076555 0.38299999 1.8546465e-40
0.0059281737 -0.059076555 0.38299999 1.1059972e-39
0.007226625 -0.058922309 0.382 1.8435623e-39
0.0085405549 -0.058922309 0.382 6.4428761e-40
0.0098286876 -0.05876806 0.38100001 2.7550649e-40
0.011109966 -0.058613814 0.38 1.5673846e-39
0.012351663 -0.058305319 0.37799999 5.7161879e-39
0.013651834 -0.058305319 0.37799999 9.2206448e-39
0.014952005 -0.058305319 0.37799999 1.1802122e-38
0.016252175 -0.058305319 0.37799999 1.2355293e-38
0.017552346 -0.058305319 0.37799999 1.2078707e-38
0.018852543 -0.058305319 0.37799999 1.1708114e-38
0.020206029 -0.058459572 0.37900001 1.0601766e-38
0.02150964 -0.058459572 0.37900001 7.9284332e-39
0.022813251 -0.058459572 0.37900001 2.1481191e-38
0.030843033 -0.056454357 0.366 2.7696244e-40
0.032014221 -0.056300111 0.36500001 3.6915807e-40
0.033269677 -0.056300111 0.36500001 3.6842939e-40
0.034525134 -0.056300111 0.36500001 2.7623376e-40
0.035780612 -0.056300111 0.36500001 4.0637655e-44
0.037036069 -0.056300111 0.36500001 5.5321442e-40
0.038291525 -0.056300111 0.36500001 1.6595198e-38
0.039655328 -0.056454357 0.366 2.1389371e-38
0.040914223 -0.056454357 0.366 2.046777e-38
0.042403575 -0.056762852 0.368 2.0375575e-38
0.0046108044 -0.060404126 0.38299999 6.4607706e-40
0.0059281737 -0.060404126 0.38299999 1.4349296e-42
0.007226625 -0.060246415 0.382 2.7801902e-40
0.0085405549 -0.060246415 0.382 1.3851023e-39
0.0098544843 -0.060246415 0.382 1.3851023e-39
0.011109966 -0.059930988 0.38 1.1059972e-39
0.012351663 -0.05961556 0.37799999 2.7623656e-40
0.013651834 -0.05961556 0.37799999 2.8025969e-45
0.014952005 -0.05961556 0.37799999 2.8025969e-45
0.016252175 -0.05961556 0.37799999 7.2166871e-43
0.017552346 -0.05961556 0.37799999 1.8449944e-39
0.018902419 -0.059773277 0.37900001 1.7549414e-39
0.020206029 -0.059773277 0.37900001 2.8698593e-42
0.02150964 -0.059773277 0.37900001 1.105972e-39
0.022933638 -0.060088698 0.38100001 2.1757793e-38
0.032014221 -0.05756529 0.36500001 3.782169e-39
0.033269677 -0.05756529 0.36500001 3.4140927e-39
0.034525134 -0.05756529 0.36500001 5.9955704e-39
0.035780612 -0.05756529 0.36500001 7.4761305e-39
0.037036069 -0.05756529 0.36500001 1.1348347e-38
0.038291525 -0.05756529 0.36500001 1.8806817e-38
0.039655328 -0.057723004 0.366 2.1203903e-38
0.040914223 -0.057723004 0.366 2.0283376e-38
0.042403575 -0.058038428 0.368 2.0283376e-38
0.0046108044 -0.061731681 0.38299999 2.0651446e-38
0.0059281737 -0.061731681 0.38299999 1.290445e-38
0.007226625 -0.061570503 0.382 1.3800436e-39
0.0085405549 -0.061570503 0.382 2.7947076e-40
0.0098544843 -0.061570503 0.382 1.478014e-39
0.011109966 -0.061248142 0.38 1.659171e-39
0.012351663 -0.060925782 0.37799999 1.2903885e-39
0.013651834 -0.060925782 0.37799999 1.1059972e-39
0.014952005 -0.060925782 0.37799999 1.1059972e-39
0.016252175 -0.060925782 0.37799999 9.2160597e-40
0.017552346 -0.060925782 0.37799999 8.2941034e-40
0.018902419 -0.061086968 0.37900001 1.1042092e-39
0.020206029 -0.061086968 0.37900001 1.8368781e-40
0.021566393 -0.061248142 0.38 1.2118948e-39
0.022933638 -0.061409321 0.38100001 1.8821253e-38
0.032014221 -0.058830455 0.36500001 1.6412257e-38
0.033269677 -0.058830455 0.36500001 1.6319327e-38
0.034525134 -0.058830455 0.36500001 1.5858349e-38
0.035780612 -0.058830455 0.36500001 1.5949478e-38
0.037036069 -0.058830455 0.36500001 1.5211913e-38
0.038291525 -0.058830455 0.36500001 1.7702255e-38
0.039655328 -0.05899163 0.366 2.0836906e-38
0.041026011 -0.059152812 0.36700001 1.9914594e-38
0.042403575 -0.05931399 0.368 2.0191181e-38
0.043669373 -0.05931399 0.368 2.0006064e-38
0.0085405549 -0.062894605 0.382 4.5953621e-40
0.0098544843 -0.062894605 0.382 2.303446e-39
0.011109966 -0.062565319 0.38 1.0163197e-39
0.012384339 -0.062400673 0.37900001 7.3973285e-40
0.013651834 -0.062236022 0.37799999 1.1059972e-39
0.014952005 -0.062236022 0.37799999 9.2160597e-40
0.016252175 -0.062236022 0.37799999 9.2161578e-40
0.017598784 -0.062400673 0.37900001 8.2942015e-40
0.018902419 -0.062400673 0.37900001 1.0916115e-42
0.020259343 -0.062565319 0.38 1.8450042e-39
0.021566393 -0.062565319 0.38 1.0151268e-38
0.030927304 -0.060424924 0.36700001 1.5397749e-38
0.032014221 -0.060095631 0.36500001 1.5489945e-38
0.033269677 -0.060095631 0.36500001 1.5120424e-38
0.034525134 -0.060095631 0.36500001 1.5120424e-38
0.035780612 -0.060095631 0.36500001 1.5212269e-38
0.037036069 -0.060095631 0.36500001 1.5581052e-38
0.038291525 -0.060095631 0.36500001 1.7241276e-38
0.039655328 -0.060260277 0.366 2.0283732e-38
0.041026011 -0.060424924 0.36700001 1.9730205e-38
0.042403575 -0.060589567 0.368 2.0098988e-38
0.043669373 -0.060589567 0.368 1.9913512e-38
0.0098544843 -0.064218692 0.382 2.3056068e-39
0.011139203 -0.064050578 0.38100001 1.751717e-39
0.012384339 -0.063714363 0.37900001 1.2907388e-39
0.013651834 -0.063546248 0.37799999 1.1063476e-39
0.014952005 -0.063546248 0.37799999 1.2907388e-39
0.016252175 -0.063546248 0.37799999 1.5669754e-39
0.017552346 -0.063546248 0.37799999 1.1059972e-39
0.018902419 -0.063714363 0.37900001 9.2447443e-40
0.020206029 -0.063714363 0.37900001 1.7243101e-38
0.021566393 -0.06388247 0.38 2.2861998e-38
0.029745799 -0.061865129 0.368 1.5399544e-38
0.030927304 -0.061697017 0.36700001 1.5766885e-38
0.032101929 -0.061528903 0.366 1.5490298e-38
0.033269677 -0.061360795 0.36500001 1.6042027e-38
0.034525134 -0.061360795 0.36500001 1.5396658e-38
0.035780612 -0.061360795 0.36500001 1.5765806e-38
0.037036069 -0.061360795 0.36500001 1.6042393e-38
0.038291525 -0.061360795 0.36500001 1.7701546e-38
0.039655328 -0.061528903 0.366 2.0006436e-38
0.041026011 -0.061697017 0.36700001 1.9914234e-38
0.042403575 -0.061865129 0.368 1.9914234e-38
0.043669373 -0.061865129 0.368 1.9822035e-38
0.014991561 -0.065028064 0.37900001 8.3155853e-40
0.016252175 -0.064856485 0.37799999 4.1506012e-39
0.017552346 -0.064856485 0.37799999 4.4271881e-39
0.018902419 -0.065028064 0.37900001 3.9701574e-39
0.020206029 -0.065028064 0.37900001 5.7218744e-39
0.029745799 -0.063140705 0.368 1.6230043e-38
0.031011574 -0.063140705 0.368 1.6595213e-38
0.032101929 -0.062797546 0.366 1.5581061e-38
0.033269677 -0.062625974 0.36500001 1.5396655e-38
0.034525134 -0.062625974 0.36500001 1.5949829e-38
0.035780612 -0.062625974 0.36500001 1.613386e-38
0.037036069 -0.062625974 0.36500001 1.6502642e-38
0.038291525 -0.062625974 0.36500001 1.6134573e-38
0.039655328 -0.062797546 0.366 2.0098985e-38
0.041026011 -0.062969133 0.36700001 2.0006426e-38
0.042403575 -0.063140705 0.368 1.9914231e-38
0.028634807 -0.064766355 0.37 3.7832957e-39
0.029745799 -0.064416267 0.368 9.1306422e-39
0.031011574 -0.064416267 0.368 1.2542571e-38
0.032101929 -0.064066179 0.366 1.2542571e-38
0.033269677 -0.063891135 0.36500001 1.3826808e-38
0.034525134 -0.063891135 0.36500001 1.18907e-38
0.035780612 -0.063891135 0.36500001 8.5698369e-39
0.037036069 -0.063891135 0.36500001 3.6834686e-39
0.038291525 -0.063891135 0.36500001 6.4464214e-40
0.039655328 -0.064066179 0.366 2.0374503e-38
0.041026011 -0.064241223 0.36700001 2.0559247e-38
0.042403575 -0.064416267 0.368 2.0467051e-38
0.028634807 -0.066048868 0.37 1.1063476e-39
0.029826628 -0.065870352 0.36899999 1.8439126e-40
0.031095842 -0.065870352 0.36899999 5.6051939e-45
0.032101929 -0.065334819 0.366 5.6051939e-45
0.033269677 -0.065156311 0.36500001 0
0.034525134 -0.065156311 0.36500001 0
0.035780612 -0.065156311 0.36500001 1.8439406e-40
0.037036069 -0.065156311 0.36500001 6.4537221e-40
0.038291525 -0.065156311 0.36500001 1.7488205e-39
0.039655328 -0.065334819 0.366 1.7053295e-38
0.040914223 -0.065334819 0.366 1.7423157e-38
0.042173117 -0.065334819 0.366 1.7607548e-38
0.028634807 -0.067331359 0.37 1.1985432e-39
0.029826628 -0.067149378 0.36899999 1.4751301e-39
0.031095842 -0.067149378 0.36899999 1.3818779e-39
0.032101929 -0.066603445 0.366 1.4740735e-39
0.033269677 -0.066421472 0.36500001 1.4747798e-39
0.034525134 -0.066421472 0.36500001 1.2903885e-39
0.035780612 -0.066421472 0.36500001 1.2903885e-39
0.037036069 -0.066421472 0.36500001 1.659171e-39
0.038291525 -0.066421472 0.36500001 8.2976067e-40
0.039655328 -0.066603445 0.366 2.3048907e-39
0.040914223 -0.066603445 0.366 1.0163197e-39
0.032101929 -0.067872092 0.366 7.3938533e-40
0.033360824 -0.067872092 0.366 1.1063476e-39
0.034525134 -0.067686655 0.36500001 1.2907388e-39
0.035780612 -0.067686655 0.36500001 1.1982055e-39
0.037036069 -0.067686655 0.36500001 1.0138142e-39
0.038396429 -0.067872092 0.366 1.7556953e-39
0.039655328 -0.067872092 0.366 6.2732811e-39
0.040914223 -0.067872092 0.366 7.2834548e-39
0.042173117 -0.067872092 0.366 7.8366285e-39
0.045301467 -0.068799309 0.37099999 4.7026806e-39
0.046577562 -0.068799309 0.37099999 5.0750042e-39
0.047853652 -0.068799309 0.37099999 1.8351175e-38
0.049262177 -0.068984754 0.37200001 2.0283379e-38
0.032014221 -0.06895183 0.36500001 1.0138114e-39
0.033269677 -0.06895183 0.36500001 6.4681695e-40
0.034525134 -0.06895183 0.36500001 9.2340384e-40
0.035780612 -0.06895183 0.36500001 3.69521e-40
0.037036069 -0.06895183 0.36500001 8.3049915e-40
0.038291525 -0.06895183 0.36500001 5.8072457e-39
0.039655328 -0.06914074 0.366 8.8497015e-39
0.040914223 -0.06914074 0.366 8.4820008e-39
0.042173117 -0.06914074 0.366 7.6522401e-39
0.043906707 -0.069896378 0.37 7.5607479e-39
0.04517936 -0.069896378 0.37 7.4685523e-39
0.046452016 -0.069896378 0.37 2.1211847e-39
0.047853652 -0.070085287 0.37099999 5.4402204e-39
0.049129747 -0.070085287 0.37099999 2.0924057e-38
0.032014221 -0.070216991 0.36500001 1.4747798e-39
0.033269677 -0.070216991 0.36500001 1.6580794e-39
0.034525134 -0.070216991 0.36500001 2.0268619e-39
0.035780612 -0.070216991 0.36500001 5.2562453e-39
0.037036069 -0.070216991 0.36500001 6.823571e-39
0.038291525 -0.070216991 0.36500001 6.2703566e-39
0.039655328 -0.070409365 0.366 5.7171828e-39
0.040914223 -0.070409365 0.366 5.901965e-39
0.042288348 -0.070601746 0.36700001 4.9800088e-39
0.043788038 -0.070986494 0.36899999 4.3328163e-39
0.045057252 -0.070986494 0.36899999 3.7796425e-39
0.046326466 -0.070986494 0.36899999 3.871485e-39
0.047724668 -0.071178868 0.37 2.7586522e-40
0.049129747 -0.071371242 0.37099999 1.401258e-38
0.050405841 -0.071371242 0.37099999 2.1111643e-38
