# .PCD v0.7 - Point Cloud Data file format
VERSION 0.7
FIELDS x y z rgb
SIZE 4 4 4 4
TYPE F F F F
COUNT 1 1 1 1
WIDTH 725
HEIGHT 1
VIEWPOINT 0 0 0 1 0 0 0
POINTS 725
DATA ascii
-0.015418088 0.077686712 0.815 1.890047e-38
-0.012614809 0.077686712 0.815 2.1481947e-38
-0.0098115029 0.077686712 0.815 2.1664528e-38
-0.015380253 0.074678056 0.81300002 2.341769e-38
-0.012521939 0.074310638 0.80900002 2.341769e-38
-0.0097392714 0.074310638 0.80900002 2.341769e-38
-0.0069738282 0.074494347 0.81099999 2.341769e-38
-0.0041946266 0.074678056 0.81300002 2.2955617e-38
-0.023886424 0.072213553 0.81699997 1.880753e-38
-0.021076266 0.072213553 0.81699997 2.3324778e-38
-0.018266082 0.072213553 0.81699997 2.3509168e-38
-0.015342416 0.071683221 0.81099999 2.3233299e-38
-0.012490982 0.071329661 0.80699998 2.341769e-38
-0.0097151939 0.071329661 0.80699998 2.3418043e-38
-0.0069566299 0.071506448 0.80900002 2.3418043e-38
-0.0041739885 0.071506448 0.80900002 2.3326201e-38
-0.0013879074 0.071329661 0.80699998 2.0560332e-38
0.0013878547 0.071329661 0.80699998 1.9084117e-38
-0.023886424 0.069381632 0.81699997 1.8992284e-38
-0.021076266 0.069381632 0.81699997 2.341769e-38
-0.018221367 0.069211788 0.815 2.3233299e-38
-0.015304581 0.068702251 0.80900002 2.3325494e-38
-0.012490982 0.068532407 0.80699998 2.341769e-38
-0.0097151939 0.068532407 0.80699998 2.1387895e-38
-0.0069394317 0.068532407 0.80699998 1.9728374e-38
-0.0041636694 0.068532407 0.80699998 1.8344698e-38
-0.0013879074 0.068532407 0.80699998 1.8529089e-38
0.0013878547 0.068532407 0.80699998 1.9268145e-38
-0.026794612 0.06679412 0.81999999 1.8439829e-38
-0.023886424 0.066549748 0.81699997 2.074472e-38
-0.021076266 0.066549748 0.81699997 2.341769e-38
-0.018176652 0.066223927 0.81300002 2.3233299e-38
-0.015304581 0.065898106 0.80900002 2.341769e-38
-0.012490982 0.065735184 0.80699998 2.1573777e-38
-0.0097151939 0.065735184 0.80699998 1.8901501e-38
-0.0069394317 0.065735184 0.80699998 1.6227828e-38
-0.0041636694 0.065735184 0.80699998 1.5674628e-38
-0.0013879074 0.065735184 0.80699998 1.5951214e-38
0.0013912943 0.065898106 0.80900002 2.1481203e-38
0.0041739885 0.065898106 0.80900002 2.2587551e-38
-0.026794612 0.063951805 0.81999999 2.0007531e-38
-0.023974136 0.063951805 0.81999999 2.3234378e-38
-0.021076266 0.063717827 0.81699997 2.3325494e-38
-0.018087223 0.063093908 0.80900002 2.3233299e-38
-0.015266744 0.06293793 0.80699998 2.3233299e-38
-0.012490982 0.06293793 0.80699998 2.1389386e-38
-0.0096911173 0.062781952 0.80500001 2.0005338e-38
-0.0069222338 0.062781952 0.80500001 1.7147273e-38
-0.0041533508 0.062781952 0.80500001 1.8714602e-38
-0.0013844678 0.062781952 0.80500001 2.1757057e-38
0.0013912943 0.063093908 0.80900002 2.2031107e-38
0.0041739885 0.063093908 0.80900002 1.6775956e-38
-0.026369819 0.060140707 0.80699998 2.341769e-38
-0.023594057 0.060140707 0.80699998 2.3325494e-38
-0.020818295 0.060140707 0.80699998 2.3233299e-38
-0.017997792 0.059991661 0.80500001 2.3233299e-38
-0.015228909 0.059991661 0.80500001 2.341769e-38
-0.012429069 0.059842616 0.80299997 2.3325494e-38
-0.0096670389 0.059842616 0.80299997 2.3418028e-38
-0.0069222338 0.059991661 0.80500001 2.3233636e-38
-0.0041533508 0.059991661 0.80500001 2.1479764e-38
-0.0013844678 0.059991661 0.80500001 1.5487048e-38
0.0013912943 0.060289759 0.80900002 1.1803134e-38
0.0041739885 0.060289759 0.80900002 1.6873894e-38
-0.026304469 0.057201337 0.80500001 2.341769e-38
-0.023535585 0.057201337 0.80500001 2.341769e-38
-0.020715106 0.057059225 0.80299997 2.341769e-38
-0.017908363 0.056917105 0.801 2.341769e-38
-0.015153238 0.056917105 0.801 2.3325485e-38
-0.012398113 0.056917105 0.801 1.8346921e-38
-0.0096670389 0.057059225 0.80299997 1.5485131e-38
-0.0069050356 0.057059225 0.80299997 1.3272436e-38
-0.0041533508 0.057201337 0.80500001 1.1980644e-38
-0.0013879074 0.057343449 0.80699998 9.1225791e-39
0.0013912943 0.057485566 0.80900002 1.4289957e-38
0.0041946266 0.057769798 0.81300002 1.9268521e-38
0.0069910265 0.057769798 0.81300002 1.8808602e-38
-0.036029983 0.056641523 0.838 1.9729855e-38
-0.033147596 0.056641523 0.838 2.0191546e-38
-0.030265205 0.056641523 0.838 2.2404242e-38
-0.026239114 0.054275829 0.80299997 2.2771602e-38
-0.023477111 0.054275829 0.80299997 2.2771602e-38
-0.020715106 0.054275829 0.80299997 2.1479045e-38
-0.017908363 0.054140642 0.801 1.8989763e-38
-0.015153238 0.054140642 0.801 1.6135233e-38
-0.012398113 0.054140642 0.801 1.4106929e-38
-0.0096670389 0.054275829 0.80299997 1.3455055e-38
-0.0069050356 0.054275829 0.80299997 1.2625294e-38
-0.0041533508 0.054411009 0.80500001 9.3091158e-39
-0.0013913471 0.054681376 0.80900002 4.9759772e-39
0.0013947338 0.054816555 0.81099999 1.7144061e-38
0.0042049452 0.055086922 0.815 2.0647495e-38
0.0070082243 0.055086922 0.815 1.899264e-38
0.026075732 0.053937871 0.79799998 1.806964e-38
0.028820537 0.053937871 0.79799998 1.8530184e-38
-0.039005272 0.053865101 0.83999997 2.2585045e-38
-0.036029983 0.053736851 0.838 1.5117199e-38
-0.033147596 0.053736851 0.838 9.2108665e-39
-0.030265205 0.053736851 0.838 2.3884404e-39
-0.027317435 0.053608604 0.83600003 4.0552162e-39
-0.023477111 0.051492475 0.80299997 3.6864337e-39
-0.020715106 0.051492475 0.80299997 3.7632291e-40
-0.017908363 0.051364221 0.801 8.7661252e-39
-0.015153238 0.051364221 0.801 1.2351644e-38
-0.012429069 0.051492475 0.80299997 1.2536036e-38
-0.0097151939 0.051748972 0.80699998 9.8598261e-39
-0.0069566299 0.051877223 0.80900002 5.8032183e-39
-0.0041739885 0.051877223 0.80900002 1.8474719e-40
-0.0013947869 0.052005474 0.81099999 3.5873241e-43
0.0013947338 0.052005474 0.81099999 1.1801043e-38
0.0041946266 0.052133724 0.81300002 1.6042042e-38
0.0069910265 0.052133724 0.81300002 1.7886681e-38
0.0097633488 0.052005474 0.81099999 1.853205e-38
0.01255287 0.052005474 0.81099999 1.853024e-38
0.015304554 0.051877223 0.80900002 1.7608284e-38
0.017997766 0.051620722 0.80500001 1.3739985e-38
0.020715054 0.051492475 0.80299997 1.8165375e-38
0.023418637 0.051364221 0.801 2.3326213e-38
0.026075732 0.051171847 0.79799998 1.8808627e-38
0.028820537 0.051171847 0.79799998 1.1431417e-38
0.031407125 0.050915349 0.79400003 1.6317786e-38
0.033966191 0.050658848 0.79000002 2.0005708e-38
0.036683477 0.050658848 0.79000002 1.8991556e-38
0.03940082 0.050658848 0.79000002 1.8162864e-38
-0.048070353 0.051378112 0.847 1.8345814e-38
-0.045157008 0.051378112 0.847 7.1732132e-39
-0.042243659 0.051378112 0.847 2.3505514e-38
-0.039005272 0.050953496 0.83999997 1.6416567e-38
-0.036029983 0.050832178 0.838 5.589191e-40
-0.033147596 0.050832178 0.838 9.2307033e-40
-0.030265205 0.050832178 0.838 3.0435698e-39
-0.027317435 0.050710864 0.83600003 2.5872412e-39
-0.024324978 0.050468229 0.83200002 2.8824709e-42
-0.021463225 0.050468229 0.83200002 2.7731276e-40
-0.018288441 0.049619004 0.81800002 7.258726e-43
-0.015266744 0.048951752 0.80699998 5.6051939e-45
-0.012490982 0.048951752 0.80699998 5.6051939e-45
-0.0097392714 0.049073074 0.80900002 3.5873241e-43
-0.0069566299 0.049073074 0.80900002 1.8510732e-40
-0.0041739885 0.049073074 0.80900002 4.6242569e-40
-0.0013913471 0.049073074 0.80900002 1.4765776e-39
0.0013912943 0.049073074 0.80900002 2.8025969e-45
0.0041739885 0.049073074 0.80900002 3.629363e-43
0.0069566299 0.049073074 0.80900002 1.9343874e-39
0.0097392714 0.049073074 0.80900002 6.4364861e-40
0.012521913 0.049073074 0.80900002 1.8660111e-40
0.015266717 0.048951752 0.80699998 1.1294466e-42
0.017908337 0.048587799 0.801 1.4769686e-42
0.020663461 0.048587799 0.801 2.2865961e-38
0.023360165 0.048466485 0.79900002 2.3418043e-38
0.026010379 0.048284508 0.796 2.028657e-39
0.028748306 0.048284508 0.796 3.5023045e-39
0.031328011 0.048041869 0.792 2.2678987e-38
0.033966191 0.047920555 0.79000002 2.1103392e-38
0.036683477 0.047920555 0.79000002 2.008924e-38
0.03940082 0.047920555 0.79000002 1.7883016e-38
0.042224735 0.048041869 0.792 1.9265951e-38
-0.050983727 0.048442204 0.847 1.6499646e-38
-0.048070353 0.048442204 0.847 8.8474174e-39
-0.045157008 0.048442204 0.847 1.2905981e-38
-0.042143915 0.048327822 0.84500003 2.3416256e-38
-0.039005272 0.04804185 0.83999997 4.7119866e-39
-0.036029983 0.047927469 0.838 6.4571833e-42
-0.033068482 0.047813084 0.83600003 3.7818663e-39
-0.030192973 0.047813084 0.83600003 3.5974751e-39
-0.027317435 0.047813084 0.83600003 2.7702003e-39
-0.024324978 0.047584314 0.83200002 4.6530956e-40
-0.021076266 0.046726421 0.81699997 1.2003635e-39
-0.018221367 0.046612035 0.815 1.9379285e-39
-0.015380253 0.046497654 0.81300002 1.8457329e-39
-0.012521939 0.04626888 0.80900002 1.569146e-39
-0.0097392714 0.04626888 0.80900002 1.4772979e-39
-0.0069566299 0.04626888 0.80900002 1.5694935e-39
-0.0041739885 0.04626888 0.80900002 1.7535373e-39
-0.0013879074 0.046154492 0.80699998 1.7535373e-39
0.0013878547 0.046154492 0.80699998 1.2925591e-39
0.0041636694 0.046154492 0.80699998 1.7535373e-39
0.0069566299 0.04626888 0.80900002 3.5027305e-39
0.0097151939 0.046154492 0.80699998 3.5949261e-39
0.012490956 0.046154492 0.80699998 4.3328415e-39
0.015228883 0.04604011 0.80500001 5.6051939e-45
0.017908337 0.045811336 0.801 1.1250468e-38
0.020663461 0.045811336 0.801 2.2406066e-38
0.023330927 0.045639761 0.79799998 1.723942e-38
0.026010379 0.045525376 0.796 2.0271968e-39
0.028676076 0.045410994 0.79400003 1.1055178e-38
0.031328011 0.045296606 0.792 1.5849351e-38
0.033966191 0.045182221 0.79000002 9.7704442e-39
0.036683477 0.045182221 0.79000002 1.0139227e-38
0.039500568 0.045296606 0.792 1.2727275e-38
0.04211811 0.045182221 0.79000002 1.7798035e-38
-0.050983727 0.045506295 0.847 1.8713164e-38
-0.048070353 0.045506295 0.847 4.23845e-39
-0.045050383 0.045398843 0.84500003 1.0325496e-38
-0.042143915 0.045398843 0.84500003 2.3509834e-38
-0.039005272 0.045130204 0.83999997 5.8170309e-39
-0.036029983 0.045022756 0.838 5.8251977e-42
-0.033068482 0.044915304 0.83600003 3.871904e-39
-0.030192973 0.044915304 0.83600003 2.7655564e-39
-0.027317435 0.044915304 0.83600003 2.5832951e-39
-0.024324978 0.044700395 0.83200002 2.7676864e-39
-0.021024672 0.043787047 0.815 2.1241246e-39
-0.018176652 0.043679595 0.81300002 2.1241246e-39
-0.015342416 0.043572139 0.81099999 2.3063579e-39
-0.012521939 0.04346469 0.80900002 2.029771e-39
-0.0097151939 0.043357234 0.80699998 2.029771e-39
-0.0069394317 0.043357234 0.80699998 2.1219666e-39
-0.0041636694 0.043357234 0.80699998 1.9372195e-39
-0.0013879074 0.043357234 0.80699998 1.6606326e-39
0.0013878547 0.043357234 0.80699998 1.3818779e-39
0.0041636694 0.043357234 0.80699998 9.2089972e-40
0.0069394317 0.043357234 0.80699998 2.6722636e-39
0.0097151939 0.043357234 0.80699998 4.4239805e-39
0.012490956 0.043357234 0.80699998 1.5694935e-39
0.015228883 0.043249782 0.80500001 3.671402e-43
0.017953051 0.04314233 0.80299997 1.5578585e-38
0.020663461 0.043034878 0.801 2.3507374e-38
0.023330927 0.042873699 0.79799998 9.8655994e-39
0.02594503 0.042658795 0.79400003 2.7730015e-40
0.028676076 0.042658795 0.79400003 5.0688889e-39
0.031328011 0.042551339 0.792 1.4841624e-38
0.033966191 0.04244389 0.79000002 1.345371e-38
0.036683477 0.04244389 0.79000002 1.3084927e-38
0.039500568 0.042551339 0.792 1.7977066e-38
0.04211811 0.04244389 0.79000002 1.7977066e-38
-0.050983727 0.042570427 0.847 2.0190833e-38
-0.048070353 0.042570427 0.847 1.0879075e-38
-0.045050383 0.042469908 0.84500003 1.0105492e-39
-0.042143915 0.042469908 0.84500003 2.2215544e-38
-0.039005272 0.042218603 0.83999997 1.4197845e-38
-0.036029983 0.042118084 0.838 7.4268819e-44
-0.033147596 0.042118084 0.838 2.948147e-39
-0.030192973 0.042017564 0.83600003 2.3027776e-39
-0.027317435 0.042017564 0.83600003 2.031929e-39
-0.024324978 0.041816521 0.83200002 2.5851028e-39
-0.020973079 0.040861581 0.81300002 3.1346921e-39
-0.018131938 0.040761057 0.81099999 2.9503008e-39
-0.015304581 0.040660538 0.80900002 2.3063579e-39
-0.012521939 0.040660538 0.80900002 2.3063579e-39
-0.0097151939 0.040560015 0.80699998 2.2145154e-39
-0.0069394317 0.040560015 0.80699998 2.1223198e-39
-0.0041636694 0.040560015 0.80699998 2.394976e-39
-0.0013879074 0.040560015 0.80699998 2.394976e-39
0.0013878547 0.040560015 0.80699998 1.7528282e-39
0.0041636694 0.040560015 0.80699998 2.7769812e-40
0.0069394317 0.040560015 0.80699998 1.3818779e-39
0.0097151939 0.040560015 0.80699998 2.3960298e-39
0.012490956 0.040560015 0.80699998 1.7535373e-39
0.015228883 0.040459495 0.80500001 3.7975188e-43
0.017953051 0.040358976 0.80299997 1.3643506e-38
0.020663461 0.040258456 0.801 2.2125504e-38
0.023330927 0.040107675 0.79799998 7.3875194e-39
0.02594503 0.039906636 0.79400003 4.3061902e-42
0.028603842 0.039806113 0.792 9.6499017e-41
0.031328011 0.039806113 0.792 9.1316707e-39
0.033966191 0.039705593 0.79000002 1.8254016e-38
0.036683477 0.039705593 0.79000002 1.8438407e-38
0.039500568 0.039806113 0.792 1.8070331e-38
0.042331368 0.039906636 0.79400003 1.7793744e-38
-0.045263637 0.039728105 0.84899998 9.5820789e-41
-0.042143915 0.039540932 0.84500003 1.2542231e-38
-0.039005272 0.039306957 0.83999997 1.8529176e-38
-0.036115974 0.039306957 0.83999997 1.0120065e-39
-0.033147596 0.039213371 0.838 7.1746481e-43
-0.030192973 0.039119784 0.83600003 3.5873241e-43
-0.027317435 0.039119784 0.83600003 3.5873241e-43
-0.024441924 0.039119784 0.83600003 3.5873241e-43
-0.020973079 0.038043521 0.81300002 2.8025969e-45
-0.018087223 0.037856348 0.80900002 2.7694983e-40
-0.015304581 0.037856348 0.80900002 4.6242849e-44
-0.012521939 0.037856348 0.80900002 2.762744e-40
-0.0097151939 0.037762757 0.80699998 3.681155e-40
-0.0069394317 0.037762757 0.80699998 1.8372424e-40
-0.0041636694 0.037762757 0.80699998 2.7700167e-40
-0.0013879074 0.037762757 0.80699998 3.691973e-40
0.0013878547 0.037762757 0.80699998 4.6208938e-40
0.0041636694 0.037762757 0.80699998 4.6208938e-40
0.0069394317 0.037762757 0.80699998 3.69521e-40
0.0097151939 0.037762757 0.80699998 2.7732537e-40
0.012490956 0.037762757 0.80699998 4.0637655e-44
0.015228883 0.037669171 0.80500001 5.5321442e-40
0.017953051 0.037575584 0.80299997 8.4895383e-39
0.020663461 0.037481993 0.801 1.5035428e-38
0.023330927 0.03734161 0.79799998 1.4569411e-38
0.02594503 0.03715444 0.79400003 1.5675758e-38
0.028603842 0.037060849 0.792 1.7888823e-38
0.031328011 0.037060849 0.792 1.8257606e-38
0.033966191 0.036967263 0.79000002 1.7887009e-38
0.036683477 0.036967263 0.79000002 1.7979204e-38
-0.045263637 0.036785308 0.84899998 1.1524039e-38
-0.042243659 0.036698651 0.847 1.23538e-38
-0.039144576 0.036525339 0.84299999 1.7883053e-38
-0.036115974 0.036395356 0.83999997 1.7975249e-38
-0.033147596 0.036308698 0.838 1.8531309e-38
-0.030192973 0.036222044 0.83600003 1.8992287e-38
-0.027317435 0.036222044 0.83600003 1.8344763e-38
-0.024091084 0.035702113 0.824 1.5210111e-38
-0.020973079 0.035225507 0.81300002 1.2168394e-38
-0.018087223 0.035052195 0.80900002 1.1338633e-38
-0.015304581 0.035052195 0.80900002 9.1266513e-39
-0.012490982 0.034965537 0.80699998 9.956412e-39
-0.0097151939 0.034965537 0.80699998 8.6653326e-39
-0.0069394317 0.034965537 0.80699998 8.0199632e-39
-0.0041636694 0.034965537 0.80699998 8.0199506e-39
-0.0013879074 0.034965537 0.80699998 6.5448205e-39
0.0013878547 0.034965537 0.80699998 7.7401449e-39
0.0041636694 0.034965537 0.80699998 1.8396246e-39
0.0069394317 0.034965537 0.80699998 3.5873241e-42
0.0097151939 0.034965537 0.80699998 7.6558218e-39
0.012490956 0.034965537 0.80699998 1.5676879e-38
0.015266717 0.034965537 0.80699998 1.7520792e-38
0.017997766 0.034878884 0.80500001 1.8716066e-38
0.020766649 0.034878884 0.80500001 1.8255088e-38
-0.029687349 0.032766204 0.82200003 1.9268877e-38
-0.026859967 0.032766204 0.82200003 2.0190843e-38
-0.02403261 0.032766204 0.82200003 2.341769e-38
-0.021024672 0.032487173 0.815 2.341769e-38
-0.018131938 0.032327726 0.81099999 2.3325494e-38
-0.015304581 0.032248002 0.80900002 2.1575219e-38
-0.012490982 0.032168277 0.80699998 2.0284481e-38
-0.0097151939 0.032168277 0.80699998 2.1112093e-38
-0.0069394317 0.032168277 0.80699998 1.8991593e-38
-0.0041636694 0.032168277 0.80699998 1.8532413e-38
-0.0013879074 0.032168277 0.80699998 1.8624609e-38
0.0013878547 0.032168277 0.80699998 2.074438e-38
0.0041636694 0.032168277 0.80699998 1.5950207e-38
0.0069394317 0.032168277 0.80699998 1.1069885e-38
0.0097151939 0.032168277 0.80699998 1.4204537e-38
0.012490956 0.032168277 0.80699998 1.8993379e-38
0.015304554 0.032248002 0.80900002 1.8255814e-38
0.018042481 0.032168277 0.80699998 1.7610432e-38
0.020818243 0.032168277 0.80699998 1.807141e-38
-0.026859967 0.029916953 0.82200003 1.8348334e-38
-0.02403261 0.029916953 0.82200003 1.9178095e-38
-0.021024672 0.029662183 0.815 2.1021698e-38
-0.018131938 0.029516602 0.81099999 2.1021698e-38
-0.015304581 0.029443812 0.80900002 1.9544767e-38
-0.012490982 0.029371019 0.80699998 1.843842e-38
-0.0096911173 0.029298229 0.80500001 1.9175997e-38
-0.0069222338 0.029298229 0.80500001 1.7516476e-38
-0.0041533508 0.029298229 0.80500001 1.6964737e-38
-0.0013844678 0.029298229 0.80500001 1.733352e-38
0.0013878547 0.029371019 0.80699998 2.1941125e-38
0.0041636694 0.029371019 0.80699998 1.7423539e-38
0.0069394317 0.029371019 0.80699998 9.0398156e-39
0.0097151939 0.029371019 0.80699998 1.6692053e-38
0.012490956 0.029371019 0.80699998 1.8438387e-38
0.015266717 0.029371019 0.80699998 1.8530583e-38
-0.02663123 0.026837233 0.815 1.3923639e-38
-0.023827951 0.026837233 0.815 3.7092931e-40
-0.021024672 0.026837233 0.815 7.5670117e-44
-0.018131938 0.026705517 0.81099999 7.4268819e-44
-0.015304581 0.026639661 0.80900002 5.3249342e-44
-0.012490982 0.0265738 0.80699998 5.3249342e-44
-0.0096911173 0.026507944 0.80500001 5.3249342e-44
-0.0069222338 0.026507944 0.80500001 5.3249342e-44
-0.0041533508 0.026507944 0.80500001 3.0828566e-44
-0.0013844678 0.026507944 0.80500001 2.9427268e-44
0.0013844152 0.026507944 0.80500001 6.4437729e-40
0.0041636694 0.0265738 0.80699998 6.4437729e-40
0.0069394317 0.0265738 0.80699998 1.7603139e-39
0.0097151939 0.0265738 0.80699998 1.7802354e-38
0.012490956 0.0265738 0.80699998 1.8162877e-38
0.015266717 0.0265738 0.80699998 1.8347268e-38
-0.023827951 0.024012286 0.815 1.8474719e-40
-0.021024672 0.024012286 0.815 3.5963709e-39
-0.018131938 0.023894433 0.81099999 3.5041752e-39
-0.015304581 0.023835508 0.80900002 3.0439201e-39
-0.012490982 0.023776582 0.80699998 2.582942e-39
-0.0096911173 0.023717657 0.80500001 2.8577492e-39
-0.0069222338 0.023717657 0.80500001 2.3045755e-39
-0.0041533508 0.023717657 0.80500001 1.8435623e-39
-0.0013844678 0.023717657 0.80500001 1.3825841e-39
0.0013844152 0.023717657 0.80500001 1.9340021e-39
0.0041636694 0.023776582 0.80699998 3.6739383e-40
0.0069394317 0.023776582 0.80699998 7.2841834e-39
0.0097151939 0.023776582 0.80699998 1.9085224e-38
0.012490956 0.023776582 0.80699998 1.8162517e-38
-0.021076266 0.02123929 0.81699997 3.5873241e-43
-0.018176652 0.021135304 0.81300002 2.7730295e-40
-0.015304581 0.021031316 0.80900002 1.8445292e-40
-0.012521939 0.021031316 0.80900002 5.8854536e-44
-0.0097151939 0.020979322 0.80699998 6.4459729e-44
-0.0069394317 0.020979322 0.80699998 9.2620223e-41
-0.0041533508 0.02092733 0.80500001 3.0828566e-44
-0.0013844678 0.02092733 0.80500001 9.1867726e-41
0.0013844152 0.02092733 0.80500001 3.691973e-40
0.0041636694 0.020979322 0.80699998 5.3249342e-44
0.0069394317 0.020979322 0.80699998 4.3429112e-39
0.0097151939 0.020979322 0.80699998 1.7434691e-38
0.012490956 0.020979322 0.80699998 1.8162517e-38
-0.023886424 0.018407367 0.81699997 1.8159665e-38
-0.021076266 0.018407367 0.81699997 1.4373167e-38
-0.018221367 0.018362308 0.815 1.2437059e-38
-0.015342416 0.018272186 0.81099999 1.051068e-38
-0.012521939 0.018227125 0.80900002 9.8653107e-39
-0.0097151939 0.018182063 0.80699998 1.0417406e-38
-0.0069394317 0.018182063 0.80699998 1.0878384e-38
-0.0041636694 0.018182063 0.80699998 8.66532e-39
-0.0013844678 0.018137002 0.80500001 8.7575156e-39
0.0013844152 0.018137002 0.80500001 8.0192247e-39
0.0041636694 0.018182063 0.80699998 5.3455515e-39
0.0069394317 0.018182063 0.80699998 1.1526975e-38
0.0097151939 0.018182063 0.80699998 1.8349451e-38
0.012490956 0.018182063 0.80699998 1.7794457e-38
-0.023886424 0.015575487 0.81699997 2.3509167e-38
-0.021076266 0.015575487 0.81699997 2.341769e-38
-0.018221367 0.015537359 0.815 2.3048907e-38
-0.015380253 0.01549923 0.81300002 2.2496099e-38
-0.012552896 0.015461101 0.81099999 2.2680491e-38
-0.0097151939 0.015384845 0.80699998 2.2680128e-38
-0.0069394317 0.015384845 0.80699998 2.2034758e-38
-0.0041636694 0.015384845 0.80699998 1.9730228e-38
-0.0013879074 0.015384845 0.80699998 1.9453641e-38
0.0013878547 0.015384845 0.80699998 1.650446e-38
0.0041636694 0.015384845 0.80699998 1.585909e-38
0.0069394317 0.015384845 0.80699998 1.631934e-38
0.0097151939 0.015384845 0.80699998 1.7886665e-38
0.012490956 0.015384845 0.80699998 1.8071044e-38
-0.023886424 0.012743565 0.81699997 1.6606661e-38
-0.021076266 0.012743565 0.81699997 1.972988e-38
-0.018266082 0.012743565 0.81699997 1.972988e-38
-0.015418088 0.01271237 0.815 2.1021342e-38
-0.012552896 0.012649978 0.81099999 2.0929146e-38
-0.0097151939 0.012587585 0.80699998 2.0374168e-38
-0.0069394317 0.012587585 0.80699998 1.9360016e-38
-0.0041636694 0.012587585 0.80699998 1.8071072e-38
-0.0013844678 0.01255639 0.80500001 1.7610094e-38
0.0013844152 0.01255639 0.80500001 1.6224646e-38
0.0041533508 0.01255639 0.80500001 1.5394885e-38
0.0069222338 0.01255639 0.80500001 1.6780298e-38
0.0096911173 0.01255639 0.80500001 1.8532015e-38
0.01246 0.01255639 0.80500001 1.8070681e-38
-0.023886424 0.0099116843 0.81699997 6.4571833e-42
-0.021076266 0.0099116843 0.81699997 5.3249342e-44
-0.018266082 0.0099116843 0.81699997 9.1890147e-41
-0.015418088 0.0098874215 0.815 7.5670117e-44
-0.012552896 0.009838894 0.81099999 7.5670117e-44
-0.0097151939 0.0097903665 0.80699998 5.3249342e-44
-0.0069394317 0.0097903665 0.80699998 5.3249342e-44
-0.0041533508 0.0097661028 0.80500001 3.0828566e-44
-0.0013844678 0.0097661028 0.80500001 3.0828566e-44
0.0013844152 0.0097661028 0.80500001 3.0828566e-44
0.0041533508 0.0097661028 0.80500001 9.1867726e-41
0.0069050356 0.00974184 0.80299997 9.3149438e-39
0.0096670389 0.00974184 0.80299997 1.8350115e-38
0.01246 0.0097661028 0.80500001 1.7702255e-38
-0.023974136 0.0071057603 0.81999999 2.767699e-39
-0.021102065 0.0070884293 0.81800002 3.8733109e-39
-0.018266082 0.0070797629 0.81699997 3.6889196e-39
-0.015380253 0.0070451014 0.81300002 3.4105713e-39
-0.012521939 0.0070104389 0.80900002 3.4105713e-39
-0.0097151939 0.0069931075 0.80699998 3.5034746e-39
-0.0069394317 0.0069931075 0.80699998 2.7659095e-39
-0.0041533508 0.0069757765 0.80500001 2.4882254e-39
-0.0013844678 0.0069757765 0.80500001 2.2116385e-39
0.0013844152 0.0069757765 0.80500001 1.9357579e-39
0.0041533508 0.0069757765 0.80500001 1.8404094e-40
0.0068878378 0.0069411141 0.801 6.4547212e-39
0.0096429624 0.0069411141 0.801 1.8993327e-38
-0.023974136 0.0042634401 0.81999999 3.5927905e-39
-0.021102065 0.0042530415 0.81800002 3.5963709e-39
-0.018266082 0.0042478419 0.81699997 3.5963709e-39
-0.015380253 0.0042270445 0.81300002 3.5956674e-39
-0.012521939 0.0042062472 0.80900002 3.5956674e-39
-0.0097151939 0.0041958485 0.80699998 3.2268877e-39
-0.0069222338 0.0041854503 0.80500001 2.9503008e-39
-0.0041533508 0.0041854503 0.80500001 2.4907492e-39
-0.0013844678 0.0041854503 0.80500001 1.9375754e-39
0.0013844152 0.0041854503 0.80500001 1.6613416e-39
0.0041533508 0.0041854503 0.80500001 9.4015917e-41
0.0068878378 0.0041646529 0.801 3.5034339e-39
0.0096429624 0.0041646529 0.801 1.8531322e-38
-0.023915663 0.0014176939 0.81800002 2.1273855e-39
-0.021102065 0.0014176939 0.81800002 3.7800587e-39
-0.018266082 0.0014159607 0.81699997 3.5956674e-39
-0.015380253 0.0014090283 0.81300002 3.5953171e-39
-0.012521939 0.0014020958 0.80900002 3.5953171e-39
-0.0097151939 0.0013986295 0.80699998 3.3190833e-39
-0.0069222338 0.0013951632 0.80500001 3.0424964e-39
-0.0041533508 0.0013951632 0.80500001 2.4907492e-39
-0.0013844678 0.0013951632 0.80500001 2.029771e-39
0.0013844152 0.0013951632 0.80500001 1.7528282e-39
0.0041533508 0.0013951632 0.80500001 2.7769812e-40
0.0069050356 0.0013916971 0.80299997 2.0261977e-39
0.0096670389 0.0013916971 0.80299997 1.8621411e-38
-0.023915663 -0.0014176939 0.81800002 3.5974835e-39
-0.021102065 -0.0014176939 0.81800002 3.2294058e-39
-0.018266082 -0.0014159607 0.81699997 3.1372102e-39
-0.015380253 -0.0014090283 0.81300002 3.5027669e-39
-0.012521939 -0.0014020958 0.80900002 3.5949625e-39
-0.0097392714 -0.0014020958 0.80900002 3.4105713e-39
-0.0069394317 -0.0013986295 0.80699998 3.22618e-39
-0.0041533508 -0.0013951632 0.80500001 2.4907492e-39
-0.0013844678 -0.0013951632 0.80500001 2.029771e-39
0.0013844152 -0.0013951632 0.80500001 1.7528282e-39
0.0041533508 -0.0013951632 0.80500001 4.6208938e-40
0.0069222338 -0.0013951632 0.80500001 1.5641209e-39
0.0096911173 -0.0013951632 0.80500001 1.8804704e-38
-0.026794612 -0.0042634401 0.81999999 7.7772065e-43
-0.023974136 -0.0042634401 0.81999999 3.412016e-39
-0.021102065 -0.0042530415 0.81800002 2.9528189e-39
-0.018266082 -0.0042478419 0.81699997 3.0450146e-39
-0.015380253 -0.0042270445 0.81300002 3.5034746e-39
-0.012552896 -0.0042166458 0.81099999 3.4112789e-39
-0.0097392714 -0.0042062472 0.80900002 3.3190833e-39
-0.0069394317 -0.0041958485 0.80699998 3.2268877e-39
-0.0041533508 -0.0041854503 0.80500001 2.5829448e-39
-0.0013844678 -0.0041854503 0.80500001 2.029771e-39
0.0013809756 -0.0041750516 0.80299997 1.8450238e-39
0.0041430318 -0.0041750516 0.80299997 1.1996544e-39
0.0069050356 -0.0041750516 0.80299997 9.2198432e-41
0.0096911173 -0.0041854503 0.80500001 1.7885955e-38
0.012490956 -0.0041958485 0.80699998 1.7610072e-38
-0.02403261 -0.0071230917 0.82200003 1.0593116e-40
-0.021102065 -0.0070884293 0.81800002 3.1361158e-39
-0.018266082 -0.0070797629 0.81699997 3.0439201e-39
-0.015418088 -0.0070624324 0.815 3.4105349e-39
-0.012583853 -0.0070451014 0.81300002 3.3183392e-39
-0.0097392714 -0.0070104389 0.80900002 3.5009578e-39
-0.0069394317 -0.0069931075 0.80699998 3.4087622e-39
-0.0041533508 -0.0069757765 0.80500001 2.3067082e-39
-0.0013844678 -0.0069757765 0.80500001 1.5691432e-39
0.0013809756 -0.0069584455 0.80299997 4.6139293e-40
0.0041430318 -0.0069584455 0.80299997 4.9045446e-44
0.0069050356 -0.0069584455 0.80299997 5.7397185e-42
0.0096911173 -0.0069757765 0.80500001 1.4664841e-38
0.012490956 -0.0069931075 0.80699998 1.7609716e-38
-0.02403261 -0.0099723041 0.82200003 3.7761168e-39
-0.021153659 -0.0099480404 0.81999999 3.1361158e-39
-0.018266082 -0.0099116443 0.81699997 1.3843988e-39
-0.015418088 -0.0098873805 0.815 9.2122762e-40
-0.012583853 -0.0098631177 0.81300002 1.6587927e-39
-0.0097392714 -0.0098145902 0.80900002 2.4889667e-39
-0.0069394317 -0.0097903265 0.80699998 2.2123798e-39
-0.0041636694 -0.0097903265 0.80699998 1.7528282e-39
-0.0013844678 -0.0097660637 0.80500001 2.9427268e-44
0.0013844152 -0.0097660637 0.80500001 9.7691985e-39
0.0041533508 -0.0097660637 0.80500001 1.3272632e-38
0.0069222338 -0.0097660637 0.80500001 1.1807845e-38
-0.02403261 -0.012821557 0.82200003 3.5067116e-39
-0.021205254 -0.012821557 0.82200003 3.138264e-39
-0.018333154 -0.01279036 0.81999999 1.2021557e-39
-0.015474843 -0.012759165 0.81800002 3.6949578e-40
-0.012614809 -0.01271237 0.815 2.1212127e-39
-0.0097633488 -0.012649978 0.81099999 2.8574003e-39
-0.0069394317 -0.012587585 0.80699998 2.4886178e-39
-0.0041636694 -0.012587585 0.80699998 1.5684369e-39
-0.0013879074 -0.012587585 0.80699998 2.8025969e-44
0.0013878547 -0.012587585 0.80699998 1.4473304e-38
0.0041739885 -0.012618782 0.80900002 1.8529912e-38
0.0069566299 -0.012618782 0.80900002 1.7978486e-38
-0.026925318 -0.015708897 0.824 1.9300224e-39
-0.02403261 -0.015670769 0.82200003 5.1568694e-39
-0.021153659 -0.015632641 0.81999999 3.0442705e-39
-0.018288441 -0.015594512 0.81800002 1.3847491e-39
-0.015474843 -0.015594512 0.81800002 9.2552961e-41
-0.012645765 -0.015575446 0.81699997 9.9574812e-39
-0.0097874263 -0.01549919 0.81300002 3.2247409e-39
-0.0069394317 -0.015384804 0.80699998 2.948154e-39
-0.0041636694 -0.015384804 0.80699998 2.1223198e-39
-0.0013879074 -0.015384804 0.80699998 1.9618179e-44
0.0013912943 -0.015422934 0.80900002 1.5949466e-38
0.0041739885 -0.015422934 0.80900002 1.7793378e-38
-0.026925318 -0.018565083 0.824 2.5782729e-39
-0.02403261 -0.018520022 0.82200003 4.3299898e-39
-0.021153659 -0.018474961 0.81999999 2.1219666e-39
-0.018288441 -0.0184299 0.81800002 1.3844016e-39
-0.015474843 -0.0184299 0.81800002 3.5873241e-43
-0.012661245 -0.0184299 0.81800002 1.1617365e-38
-0.0098115029 -0.018362308 0.815 2.394976e-39
-0.0069394317 -0.018182063 0.80699998 3.1325411e-39
-0.0041636694 -0.018182063 0.80699998 2.4882254e-39
-0.0013879074 -0.018182063 0.80699998 1.9618179e-44
0.0013912943 -0.018227125 0.80900002 1.6315715e-38
0.0041739885 -0.018227125 0.80900002 1.852841e-38
-0.026925318 -0.021421228 0.824 2.9517245e-39
-0.02403261 -0.021369236 0.82200003 3.1361158e-39
-0.021153659 -0.02131724 0.81999999 2.1216107e-39
-0.018288441 -0.021265248 0.81800002 1.1074588e-39
-0.015474843 -0.021265248 0.81800002 3.5873241e-43
-0.0126922 -0.02131724 0.81999999 1.2539322e-38
-0.0098355804 -0.021239249 0.81699997 2.9477981e-39
-0.0069394317 -0.020979283 0.80699998 3.1321893e-39
-0.0041636694 -0.020979283 0.80699998 1.6613416e-39
-0.0013879074 -0.020979283 0.80699998 3.7975188e-43
0.0013912943 -0.021031277 0.80900002 7.1944064e-39
0.0041739885 -0.021031277 0.80900002 1.78891e-38
-0.026925318 -0.024277413 0.824 1.4349296e-42
-0.02403261 -0.024218488 0.82200003 1.1999753e-39
-0.021205254 -0.024218488 0.82200003 2.3038342e-39
-0.018333154 -0.02415956 0.81999999 1.6584648e-39
-0.015512677 -0.02415956 0.81999999 3.5873241e-43
-0.012723157 -0.024218488 0.82200003 1.4383234e-38
-0.0098716961 -0.02415956 0.81999999 2.491852e-39
-0.0069394317 -0.023776541 0.80699998 2.491852e-39
-0.0041636694 -0.023776541 0.80699998 2.1194429e-39
-0.0013879074 -0.023776541 0.80699998 1.8369341e-40
0.0013912943 -0.023835469 0.80900002 5.3494947e-39
0.0041739885 -0.023835469 0.80900002 1.7611513e-38
-0.026925318 -0.027133597 0.824 1.1976812e-38
-0.024091084 -0.027133597 0.824 1.3775437e-39
-0.021205254 -0.027067741 0.82200003 3.5873241e-43
-0.01837787 -0.027067741 0.82200003 3.5873241e-43
-0.015550514 -0.027067741 0.82200003 3.2285917e-42
-0.012723157 -0.027067741 0.82200003 1.3740733e-38
-0.0099198511 -0.027133597 0.824 2.1230723e-39
-0.0069394317 -0.0265738 0.80699998 2.7684417e-39
-0.0041636694 -0.0265738 0.80699998 1.4762441e-39
-0.0013879074 -0.0265738 0.80699998 3.0828566e-44
0.0013912943 -0.026639661 0.80900002 1.0048617e-38
0.0041739885 -0.026639661 0.80900002 1.7977442e-38
-0.026925318 -0.029989742 0.824 2.341769e-38
-0.024091084 -0.029989742 0.824 1.8623517e-38
-0.021205254 -0.029916953 0.82200003 1.650303e-38
-0.01837787 -0.029916953 0.82200003 1.1155684e-38
-0.015550514 -0.029916953 0.82200003 6.1824377e-39
-0.012754114 -0.029989742 0.824 1.604737e-38
-0.0099198511 -0.029989742 0.824 2.8493022e-40
-0.0069394317 -0.029371019 0.80699998 1.6678647e-39
-0.0041636694 -0.029371019 0.80699998 2.3956795e-39
-0.0013913471 -0.029443812 0.80900002 2.8025969e-44
0.0013912943 -0.029443812 0.80900002 1.0786873e-38
0.0041739885 -0.029443812 0.80900002 1.760935e-38
-0.026925318 -0.032845929 0.824 2.1756749e-38
-0.02403261 -0.032766204 0.82200003 1.816112e-38
-0.021205254 -0.032766204 0.82200003 1.7882015e-38
-0.01837787 -0.032766204 0.82200003 1.4470776e-38
-0.015550514 -0.032766204 0.82200003 1.078904e-38
-0.012754114 -0.032845929 0.824 1.6505169e-38
-0.0099198511 -0.032845929 0.824 9.1967218e-41
-0.0069394317 -0.032168277 0.80699998 1.1770907e-43
-0.0041636694 -0.032168277 0.80699998 3.5873241e-43
-0.0013913471 -0.032248002 0.80900002 8.3047673e-40
0.0013912943 -0.032248002 0.80900002 9.0412856e-39
0.0041843075 -0.032327726 0.81099999 1.6232545e-38
-0.026859967 -0.035615418 0.82200003 7.0064923e-44
-0.02403261 -0.035615418 0.82200003 7.0064923e-44
-0.021205254 -0.035615418 0.82200003 8.5706189e-39
-0.01837787 -0.035615418 0.82200003 8.2018363e-39
-0.015550514 -0.035615418 0.82200003 1.4822879e-39
-0.012754114 -0.035702072 0.824 1.2176981e-38
-0.0099439286 -0.035788726 0.82599998 2.3416971e-38
-0.0069394317 -0.034965497 0.80699998 2.3324775e-38
-0.0041636694 -0.034965497 0.80699998 1.7336391e-38
-0.0013913471 -0.035052154 0.80900002 1.4847109e-38
0.0013947338 -0.035138808 0.81099999 1.6410822e-38
0.0041843075 -0.035138808 0.81099999 1.68718e-38
-0.026859967 -0.038464673 0.82200003 9.8296883e-41
-0.02403261 -0.038464673 0.82200003 5.7411198e-42
-0.021205254 -0.038464673 0.82200003 5.6051939e-45
-0.01837787 -0.038464673 0.82200003 3.6914826e-40
-0.015550514 -0.038464673 0.82200003 1.0080521e-40
-0.012754114 -0.03855826 0.824 1.3192585e-38
-0.0099439286 -0.038651846 0.82599998 2.3325494e-38
-0.0069394317 -0.037762757 0.80699998 2.3325494e-38
-0.0041636694 -0.037762757 0.80699998 1.9361801e-38
-0.0013913471 -0.037856348 0.80900002 1.5950563e-38
0.0013947338 -0.037949935 0.81099999 1.7241289e-38
0.0041843075 -0.037949935 0.81099999 1.7056898e-38
-0.023974136 -0.04121336 0.81999999 8.365948e-40
-0.021153659 -0.04121336 0.81999999 2.1129437e-39
-0.01837787 -0.041313883 0.82200003 1.6311071e-38
-0.01558835 -0.041414402 0.824 1.7237709e-38
-0.012754114 -0.041414402 0.824 1.9081621e-38
-0.0099198511 -0.041414402 0.824 9.3080466e-39
-0.0069394317 -0.040559974 0.80699998 9.5846335e-39
-0.0041636694 -0.040559974 0.80699998 7.0950095e-39
-0.0013913471 -0.040660497 0.80900002 2.2087154e-39
0.0013912943 -0.040660497 0.80900002 4.1433593e-39
0.0041739885 -0.040660497 0.80900002 1.9171237e-38
0.0069738282 -0.040761016 0.81099999 1.6871775e-38
-0.023974136 -0.044055682 0.81999999 8.2746674e-42
-0.021153659 -0.044055682 0.81999999 1.8435623e-39
-0.01837787 -0.044163138 0.82200003 1.2903885e-39
-0.015550514 -0.044163138 0.82200003 6.5290699e-40
-0.012754114 -0.044270586 0.824 7.383188e-39
-0.0099198511 -0.044270586 0.824 6.3599795e-39
-0.0069394317 -0.043357234 0.80699998 1.3814785e-39
-0.0041636694 -0.043357234 0.80699998 1.8439406e-40
-0.0013913471 -0.04346469 0.80900002 2.7658969e-40
0.0013912943 -0.04346469 0.80900002 1.0761972e-42
0.0041739885 -0.04346469 0.80900002 1.3461997e-38
0.0069738282 -0.043572139 0.81099999 1.3555982e-38
-0.023974136 -0.046897963 0.81999999 2.3970864e-39
-0.021153659 -0.046897963 0.81999999 1.4772979e-39
-0.01837787 -0.047012348 0.82200003 2.2148629e-39
-0.015550514 -0.047012348 0.82200003 3.8740143e-39
-0.012754114 -0.047126733 0.824 2.3066886e-39
-0.0099198511 -0.047126733 0.824 5.3452362e-39
-0.0069394317 -0.046154454 0.80699998 5.4374318e-39
-0.0041533508 -0.046040069 0.80500001 3.0421055e-39
-0.0013844678 -0.046040069 0.80500001 5.7157787e-39
0.0013878547 -0.046154454 0.80699998 6.0885087e-39
0.0041636694 -0.046154454 0.80699998 5.0743568e-39
0.0069566299 -0.046268839 0.80900002 5.8104729e-39
0.0097633488 -0.046383224 0.81099999 5.9948641e-39
-0.023974136 -0.049740281 0.81999999 1.4349296e-42
-0.021153659 -0.049740281 0.81999999 5.6051939e-45
-0.018288441 -0.049618967 0.81800002 5.6051939e-45
-0.015455923 -0.049558301 0.81699997 3.5873241e-43
-0.012521939 -0.049073033 0.80900002 4.6169421e-40
-0.0096670389 -0.04870908 0.80299997 6.547717e-39
-0.0069050356 -0.04870908 0.80299997 4.2428263e-39
-0.0041430318 -0.04870908 0.80299997 4.6090528e-39
-0.0013844678 -0.048830397 0.80500001 4.7012484e-39
0.0013844152 -0.048830397 0.80500001 2.6758411e-39
0.0041533508 -0.048830397 0.80500001 1.938276e-39
0.0069222338 -0.048830397 0.80500001 1.842856e-39
0.0096911173 -0.048830397 0.80500001 2.7553031e-40
0.012490956 -0.048951712 0.80699998 1.1345023e-38
-0.023974136 -0.052582603 0.81999999 1.4842385e-38
-0.021153659 -0.052582603 0.81999999 1.4752383e-38
-0.018288441 -0.052454352 0.81800002 1.5305556e-38
-0.015342416 -0.052005474 0.81099999 1.6226053e-38
-0.012521939 -0.051877223 0.80900002 8.1128371e-39
-0.0096670389 -0.051492475 0.80299997 7.2841358e-39
-0.0069050356 -0.051492475 0.80299997 2.6743543e-39
-0.0041430318 -0.051492475 0.80299997 3.7846269e-40
-0.0013844678 -0.051620722 0.80500001 2.9599333e-39
0.0013844152 -0.051620722 0.80500001 6.3661269e-39
0.0041533508 -0.051620722 0.80500001 7.4724745e-39
0.0069222338 -0.051620722 0.80500001 8.4830517e-39
0.0096911173 -0.051620722 0.80500001 8.3908561e-39
0.012490956 -0.051748972 0.80699998 1.291094e-38
