# .PCD v0.7 - Point Cloud Data file format
VERSION 0.7
FIELDS x y z rgb
SIZE 4 4 4 4
TYPE F F F F
COUNT 1 1 1 1
WIDTH 990
HEIGHT 1
VIEWPOINT 0 0 0 1 0 0 0
POINTS 990
DATA ascii
0.0069996109 0.033986326 0.37 1.0228987e-38
0.0082275504 0.033802614 0.368 1.0230803e-38
0.0094933258 0.033802614 0.368 9.9542161e-39
0.010759125 0.033802614 0.368 1.0229688e-38
0.0120249 0.033802614 0.368 1.0229688e-38
0.013254559 0.033710759 0.36700001 1.096871e-38
0.014516895 0.033710759 0.36700001 1.3089209e-38
0.015392273 0.032884065 0.35800001 1.4107341e-38
0.016623652 0.032884065 0.35800001 1.5582471e-38
0.01780518 0.032792207 0.35699999 1.7054361e-38
0.019033119 0.032792207 0.35699999 1.7054361e-38
0.020261059 0.032792207 0.35699999 1.6869967e-38
0.021488996 0.032792207 0.35699999 1.6408989e-38
0.022716936 0.032792207 0.35699999 1.6041262e-38
0.023944875 0.032792207 0.35699999 1.5672479e-38
0.025172815 0.032792207 0.35699999 1.5210419e-38
0.026400778 0.032792207 0.35699999 1.456505e-38
0.027706111 0.032884065 0.35800001 1.4933833e-38
0.028937489 0.032884065 0.35800001 1.5579202e-38
0.030253138 0.03297592 0.359 1.6685563e-38
0.031575669 0.033067774 0.36000001 1.760752e-38
0.032905076 0.033159629 0.361 1.8347246e-38
0.03424136 0.033251483 0.36199999 1.8162854e-38
0.0032074449 0.032968979 0.373 1.1707002e-38
0.0044783796 0.032880593 0.37200001 9.7708941e-39
0.005757913 0.032880593 0.37200001 9.2162783e-39
0.0069996109 0.032703813 0.37 9.5850609e-39
0.0082499068 0.032615423 0.36899999 9.8609443e-39
0.0094675282 0.032438647 0.36700001 1.0506314e-38
0.010729888 0.032438647 0.36700001 1.0968002e-38
0.0120249 0.032527037 0.368 1.0691415e-38
0.013290674 0.032527037 0.368 1.068995e-38
0.01455645 0.032527037 0.368 9.860189e-39
0.015822224 0.032527037 0.368 1.004457e-38
0.017088 0.032527037 0.368 1.0782135e-38
0.01780518 0.031554759 0.35699999 1.1616258e-38
0.019033119 0.031554759 0.35699999 1.3367975e-38
0.020261059 0.031554759 0.35699999 1.5027127e-38
0.021488996 0.031554759 0.35699999 1.5672496e-38
0.022716936 0.031554759 0.35699999 1.6408612e-38
0.023944875 0.031554759 0.35699999 1.5578852e-38
0.025172815 0.031554759 0.35699999 1.56714e-38
0.026400778 0.031554759 0.35699999 1.5487009e-38
0.027706111 0.031643149 0.35800001 1.4840921e-38
0.028937489 0.031643149 0.35800001 1.465653e-38
0.030253138 0.031731538 0.359 1.345834e-38
0.031575669 0.031819928 0.36000001 1.3089557e-38
0.032905076 0.031908315 0.361 1.2077922e-38
0.03424136 0.031996701 0.36199999 1.6687703e-38
0.0044783796 0.031591151 0.37200001 9.6779824e-39
0.005757913 0.031591151 0.37200001 7.9277003e-39
0.0069996109 0.031421304 0.37 5.0696358e-39
0.0081157628 0.030826846 0.36300001 2.5821839e-39
0.0093643395 0.030826846 0.36300001 3.5041402e-39
0.010671414 0.030996691 0.36500001 7.0994166e-39
0.011959546 0.031081613 0.366 8.8511336e-39
0.013254559 0.031166537 0.36700001 1.0321922e-38
0.014516895 0.031166537 0.36700001 1.0690705e-38
0.015779231 0.031166537 0.36700001 1.1243129e-38
0.017088 0.031251457 0.368 1.0505564e-38
0.018353799 0.031251457 0.368 1.096582e-38
0.019726202 0.031421304 0.37 1.0412647e-38
0.020998856 0.031421304 0.37 8.387933e-39
0.021549191 0.030402234 0.35800001 1.1983563e-38
0.022716936 0.03031731 0.35699999 1.6965418e-38
0.023944875 0.03031731 0.35699999 1.5674679e-38
0.025172815 0.03031731 0.35699999 1.5672119e-38
0.026474731 0.030402234 0.35800001 1.4750163e-38
0.027706111 0.030402234 0.35800001 1.4288463e-38
0.028937489 0.030402234 0.35800001 1.3366507e-38
0.030253138 0.030487156 0.359 1.3274304e-38
0.031575669 0.030572079 0.36000001 1.3089913e-38
0.032905076 0.030657001 0.361 1.2080464e-38
0.034146771 0.030657001 0.361 1.7335615e-38
0.0018522397 0.029242791 0.359 6.9143065e-39
0.0030870582 0.029242791 0.359 5.16293e-39
0.0043339157 0.029324248 0.36000001 3.8721912e-39
0.0055876519 0.029405704 0.361 1.7509757e-39
0.0068482673 0.029487159 0.36199999 1.1056133e-39
0.0081157628 0.029568618 0.36300001 1.0130729e-39
0.0093643395 0.029568618 0.36300001 6.4429041e-40
0.010642177 0.029650072 0.36399999 1.8439406e-40
0.011926871 0.029731531 0.36500001 8.2976347e-40
0.013218442 0.029812986 0.366 2.1226701e-39
0.014516895 0.029894443 0.36700001 6.0870822e-39
0.015779231 0.029894443 0.36700001 9.402843e-39
0.019726202 0.030138811 0.37 1.0505574e-38
0.020998856 0.030138811 0.37 7.9255255e-39
0.022391899 0.030301725 0.37200001 1.5116785e-38
0.023671431 0.030301725 0.37200001 1.7888454e-38
0.025018036 0.030383179 0.373 1.6966497e-38
0.025243329 0.029161336 0.35800001 1.7977031e-38
0.026474731 0.029161336 0.35800001 1.7608248e-38
0.027706111 0.029161336 0.35800001 1.751569e-38
0.028937489 0.029161336 0.35800001 1.6778125e-38
0.03033741 0.029324248 0.36000001 1.585435e-38
0.031575669 0.029324248 0.36000001 1.5301176e-38
0.032905076 0.029405704 0.361 1.4936736e-38
0.034146771 0.029405704 0.361 1.7610409e-38
0.0018522397 0.02799841 0.359 1.0152632e-39
0.0030870582 0.02799841 0.359 1.3818779e-39
0.0043218769 0.02799841 0.359 1.4740735e-39
0.0055876519 0.02815439 0.361 1.4729819e-39
0.0068482673 0.028232379 0.36199999 1.3807863e-39
0.0081157628 0.028310372 0.36300001 1.1059972e-39
0.0093643395 0.028310372 0.36300001 1.1059972e-39
0.010642177 0.028388359 0.36399999 8.2941034e-40
0.011894194 0.028388359 0.36399999 5.5282345e-40
0.013182327 0.028466351 0.36500001 4.6097815e-40
0.014477338 0.02854434 0.366 2.7658689e-40
0.015736233 0.02854434 0.366 6.4716727e-40
0.017180869 0.028856302 0.37 3.8740143e-39
0.018453548 0.028856302 0.37 6.6391391e-39
0.019726202 0.028856302 0.37 7.2845085e-39
0.021055609 0.028934291 0.37099999 8.2943347e-39
0.022391899 0.029012281 0.37200001 1.8251463e-38
0.023671431 0.029012281 0.37200001 1.8806817e-38
0.024079021 0.02799841 0.359 1.7977056e-38
0.025243329 0.027920421 0.35800001 1.7425677e-38
0.026474731 0.027920421 0.35800001 1.7333482e-38
0.0018367615 0.026530474 0.35600001 2.1194429e-39
0.0030612613 0.026530474 0.35600001 1.5694935e-39
0.0043098382 0.026679523 0.35800001 1.0163197e-39
0.0055876519 0.026903095 0.361 1.1981929e-39
0.0068293498 0.026903095 0.361 1.1059972e-39
0.0081157628 0.027052142 0.36300001 1.1059972e-39
0.0093643395 0.027052142 0.36300001 1.0138016e-39
0.01061294 0.027052142 0.36300001 9.2160597e-40
0.011861518 0.027052142 0.36300001 8.2941034e-40
0.013073978 0.026977617 0.36199999 6.4501908e-40
0.014319115 0.026977617 0.36199999 7.3721471e-40
0.015736233 0.027275713 0.366 6.4501908e-40
0.017088 0.02742476 0.368 3.6843219e-40
0.018453548 0.027573809 0.37 1.8618632e-40
0.019726202 0.027573809 0.37 6.4716447e-40
0.021055609 0.027648332 0.37099999 1.89073e-40
0.022391899 0.027722858 0.37200001 8.6710709e-39
0.023671431 0.027722858 0.37200001 1.374509e-38
0.024079021 0.026754046 0.359 1.5496807e-38
0.025313841 0.026754046 0.359 1.9085587e-38
0.0018367615 0.025296493 0.35600001 1.8435749e-39
0.0030612613 0.025296493 0.35600001 1.200711e-39
0.0042857612 0.025296493 0.35600001 9.2412411e-40
0.0055257389 0.025367549 0.35699999 1.2903885e-39
0.0068293498 0.025651779 0.361 1.1059972e-39
0.0081157628 0.025793895 0.36300001 9.219563e-40
0.0093643395 0.025793895 0.36300001 9.219563e-40
0.01061294 0.025793895 0.36300001 9.2160597e-40
0.011861518 0.025793895 0.36300001 9.2160597e-40
0.013073978 0.025722837 0.36199999 7.3721471e-40
0.014319115 0.025722837 0.36199999 6.4501908e-40
0.015607249 0.025793895 0.36300001 7.3756504e-40
0.017088 0.026149184 0.368 6.4536941e-40
0.018453548 0.0262913 0.37 7.3756504e-40
0.019726202 0.0262913 0.37 6.4536941e-40
0.021055609 0.026362356 0.37099999 9.1981792e-40
0.022391899 0.026433414 0.37200001 3.673616e-40
0.023735063 0.02650447 0.373 1.7532206e-39
0.02508511 0.02657553 0.37400001 2.7673725e-39
0.026371522 0.02657553 0.37400001 4.0613455e-39
0.0018316018 0.023994917 0.35499999 1.2925591e-39
0.0030526621 0.023994917 0.35499999 1.3825841e-39
0.0042857612 0.024062509 0.35600001 1.2903885e-39
0.0055257389 0.024130099 0.35699999 7.404391e-40
0.0068293498 0.024400465 0.361 4.6385221e-40
0.0080710473 0.024400465 0.361 5.5462132e-40
0.0093643395 0.024535649 0.36300001 4.6242569e-40
0.01061294 0.024535649 0.36300001 6.4681695e-40
0.011861518 0.024535649 0.36300001 9.2340384e-40
0.013110095 0.024535649 0.36300001 1.1059972e-39
0.014358672 0.024535649 0.36300001 7.3721471e-40
0.015607249 0.024535649 0.36300001 7.3756504e-40
0.017088 0.024873605 0.368 5.5317378e-40
0.018453548 0.025008788 0.37 3.7023006e-40
0.019726202 0.025008788 0.37 3.7023006e-40
0.021055609 0.025076378 0.37099999 9.2160597e-40
0.022391899 0.025143972 0.37200001 1.1981929e-39
0.023735063 0.025211561 0.373 1.9332538e-39
0.02508511 0.025279155 0.37400001 4.1459489e-39
0.0006087987 0.022700293 0.354 1.2925591e-39
0.0018264424 0.022700293 0.354 1.0159722e-39
0.003044063 0.022700293 0.354 1.2903885e-39
0.0042737224 0.022764416 0.35499999 1.1981929e-39
0.0055257389 0.022892667 0.35699999 8.3155853e-40
0.0068104323 0.023085045 0.36000001 5.5497165e-40
0.0080710473 0.02314917 0.361 4.6242569e-40
0.0093385419 0.023213293 0.36199999 4.6242569e-40
0.01061294 0.023277421 0.36300001 6.4681695e-40
0.011861518 0.023277421 0.36300001 9.2340384e-40
0.013110095 0.023277421 0.36300001 1.2903885e-39
0.014358672 0.023277421 0.36300001 9.2160597e-40
0.015607249 0.023277421 0.36300001 6.4501908e-40
0.016855827 0.023277421 0.36300001 4.6062782e-40
0.018453548 0.023726296 0.37 5.5317378e-40
0.019726202 0.023726296 0.37 6.4536941e-40
0.020998856 0.023726296 0.37 8.2941034e-40
0.022331703 0.023790421 0.37099999 1.3825841e-39
0.023671431 0.023854546 0.37200001 2.0272473e-39
0.00060707889 0.0214126 0.35299999 1.5669754e-39
0.0018212829 0.0214126 0.35299999 1.3825841e-39
0.003044063 0.021473261 0.354 9.2412411e-40
0.0042737224 0.021533918 0.35499999 6.4753722e-40
0.0055257389 0.021655235 0.35699999 7.3721471e-40
0.0068104323 0.021837214 0.36000001 8.2941034e-40
0.0080934046 0.021958532 0.36199999 6.4501908e-40
0.0093385419 0.021958532 0.36199999 7.3721471e-40
0.01061294 0.022019191 0.36300001 6.4681695e-40
0.011861518 0.022019191 0.36300001 9.2340384e-40
0.013110095 0.022019191 0.36300001 9.2377659e-40
0.014358672 0.022019191 0.36300001 9.2377659e-40
0.015607249 0.022019191 0.36300001 8.3120821e-40
0.016855827 0.022019191 0.36300001 5.5462132e-40
0.018453548 0.022443805 0.37 6.4536941e-40
0.019726202 0.022443805 0.37 7.3756504e-40
0.020998856 0.022443805 0.37 6.4501908e-40
0.02227151 0.022443805 0.37 1.1059972e-39
0.023607798 0.022504462 0.37099999 1.6584648e-39
0.00060707889 0.020189015 0.35299999 1.2903885e-39
0.0018212829 0.020189015 0.35299999 1.3825841e-39
0.0030354639 0.020189015 0.35299999 9.2340384e-40
0.0042616837 0.02024621 0.354 6.4681695e-40
0.0055102608 0.020360595 0.35600001 7.3721471e-40
0.006753678 0.020417787 0.35699999 7.3721471e-40
0.0081157628 0.020760944 0.36300001 4.6242569e-40
0.0093643395 0.020760944 0.36300001 4.6242569e-40
0.010642177 0.020818137 0.36399999 4.6279563e-40
0.011861518 0.020760944 0.36300001 6.4718689e-40
0.013110095 0.020760944 0.36300001 1.0155995e-39
0.014358672 0.020760944 0.36300001 1.1077951e-39
0.015564253 0.02070375 0.36199999 9.2377659e-40
0.016809391 0.02070375 0.36199999 6.471897e-40
0.018054551 0.02070375 0.36199999 6.4716727e-40
0.01929969 0.02070375 0.36199999 5.5497165e-40
0.020601582 0.020760944 0.36300001 3.7023006e-40
0.02227151 0.021161294 0.37 6.4681695e-40
0.023544164 0.021161294 0.37 1.0155995e-39
0.024816819 0.021161294 0.37 1.4765776e-39
0.026089473 0.021161294 0.37 3.1368192e-39
0.027362151 0.021161294 0.37 3.0446236e-39
0.0018212829 0.018965432 0.35299999 1.2903885e-39
0.0030354639 0.018965432 0.35299999 1.1059972e-39
0.0042616837 0.019019159 0.354 9.2160597e-40
0.0054947822 0.019072885 0.35499999 7.3721471e-40
0.0067347609 0.019126613 0.35600001 7.3721471e-40
0.0081157628 0.019502698 0.36300001 7.3721471e-40
0.0093643395 0.019502698 0.36300001 7.3721471e-40
0.010642177 0.019556424 0.36399999 6.4718689e-40
0.011861518 0.019502698 0.36300001 7.3938252e-40
0.013110095 0.019502698 0.36300001 1.2903885e-39
0.014358672 0.019502698 0.36300001 1.2903885e-39
0.015564253 0.01944897 0.36199999 9.2377659e-40
0.016809391 0.01944897 0.36199999 7.3938533e-40
0.018054551 0.01944897 0.36199999 1.1981929e-39
0.01929969 0.01944897 0.36199999 1.1981929e-39
0.020601582 0.019502698 0.36300001 8.3120821e-40
0.021850158 0.019502698 0.36300001 9.2340384e-40
0.023480531 0.019825056 0.36899999 1.3818779e-39
0.024749745 0.019825056 0.36899999 1.9350516e-39
0.026089473 0.019878782 0.37 3.410888e-39
0.027362151 0.019878782 0.37 2.0279535e-39
0.028634807 0.019878782 0.37 1.751717e-39
0.0018212829 0.017741865 0.35299999 8.3158096e-40
0.0030354639 0.017741865 0.35299999 8.3120821e-40
0.0042616837 0.017792126 0.354 5.5462132e-40
0.0054947822 0.017842386 0.35499999 7.3721471e-40
0.0067347609 0.017892648 0.35600001 7.3721471e-40
0.0081381202 0.018294729 0.36399999 7.3721471e-40
0.0093901372 0.018294729 0.36399999 9.2160597e-40
0.01061294 0.01824447 0.36300001 7.3938533e-40
0.011861518 0.01824447 0.36300001 9.2377659e-40
0.013110095 0.01824447 0.36300001 9.2412411e-40
0.014358672 0.01824447 0.36300001 8.3192848e-40
0.015564253 0.018194208 0.36199999 1.0155995e-39
0.016809391 0.018194208 0.36199999 1.0155995e-39
0.018054551 0.018194208 0.36199999 9.2412411e-40
0.01929969 0.018194208 0.36199999 8.3192848e-40
0.020601582 0.01824447 0.36300001 1.1982055e-39
0.021850158 0.01824447 0.36300001 1.2904011e-39
0.023226002 0.018344989 0.36500001 1.3825841e-39
0.024548529 0.018395249 0.366 2.0279535e-39
0.026089473 0.018596292 0.37 2.3070586e-39
0.027362151 0.018596292 0.37 1.5694935e-39
0.028634807 0.018596292 0.37 1.1066979e-39
0.029988291 0.018646551 0.37099999 9.2552961e-41
0.003044063 0.016565075 0.354 6.4681695e-40
0.0042616837 0.016565075 0.354 5.5462132e-40
0.0054947822 0.016611869 0.35499999 7.3721471e-40
0.0067347609 0.016658664 0.35600001 6.4501908e-40
0.0081381202 0.017033016 0.36399999 4.6242569e-40
0.0093643395 0.016986223 0.36300001 8.3120821e-40
0.010583703 0.016939428 0.36199999 9.2377659e-40
0.011828841 0.016939428 0.36199999 9.2377659e-40
0.013110095 0.016986223 0.36300001 1.2904011e-39
0.014358672 0.016986223 0.36300001 1.0138142e-39
0.015607249 0.016986223 0.36300001 1.1060098e-39
0.016809391 0.016939428 0.36199999 1.1060098e-39
0.018054551 0.016939428 0.36199999 9.2340384e-40
0.019353004 0.016986223 0.36300001 1.0155995e-39
0.020601582 0.016986223 0.36300001 8.3120821e-40
0.021970546 0.017079812 0.36500001 8.3120821e-40
0.023226002 0.017079812 0.36500001 1.3818779e-39
0.024548529 0.017126605 0.366 2.3960298e-39
0.025807425 0.017126605 0.366 2.5836454e-39
0.027362151 0.01731378 0.37 8.3192848e-40
0.028634807 0.01731378 0.37 2.7802182e-40
0.029988291 0.017360574 0.37099999 1.2921737e-39
0.0043941094 0.015814649 0.36500001 4.6242569e-40
0.0055102608 0.015424699 0.35600001 7.3721471e-40
0.0067347609 0.015424699 0.35600001 6.4501908e-40
0.0081604784 0.015814649 0.36500001 4.6279563e-40
0.0093385419 0.015684664 0.36199999 7.3938252e-40
0.010583703 0.015684664 0.36199999 1.3818779e-39
0.011828841 0.015684664 0.36199999 1.3818779e-39
0.013110095 0.015727993 0.36300001 9.2377659e-40
0.014358672 0.015727993 0.36300001 8.3158096e-40
0.015607249 0.015727993 0.36300001 8.3158096e-40
0.016855827 0.015727993 0.36300001 8.3158096e-40
0.018104427 0.015727993 0.36300001 9.2340384e-40
0.019406319 0.01577132 0.36399999 1.0155995e-39
0.020658335 0.01577132 0.36399999 1.0155995e-39
0.021970546 0.015814649 0.36500001 1.0155995e-39
0.023289632 0.015857976 0.366 1.2904011e-39
0.024548529 0.015857976 0.366 2.2123574e-39
0.025807425 0.015857976 0.366 2.5832951e-39
0.027436104 0.016074616 0.37099999 3.706e-40
0.028712198 0.016074616 0.37099999 1.1070258e-42
0.029988291 0.016074616 0.37099999 4.7956399e-39
0.0043820702 0.014509608 0.36399999 7.3756504e-40
0.0056340867 0.014509608 0.36399999 6.4536941e-40
0.0069050216 0.014549471 0.36500001 7.3756504e-40
0.0081157628 0.014469747 0.36300001 6.4718689e-40
0.0093385419 0.014429885 0.36199999 9.2377378e-40
0.010583703 0.014429885 0.36199999 1.2903885e-39
0.011828841 0.014429885 0.36199999 1.2903885e-39
0.013110095 0.014469747 0.36300001 9.2377659e-40
0.014358672 0.014469747 0.36300001 9.2377659e-40
0.015607249 0.014469747 0.36300001 9.2377659e-40
0.01690226 0.014509608 0.36399999 9.2377659e-40
0.018154301 0.014509608 0.36399999 1.2903885e-39
0.019459633 0.014549471 0.36500001 1.2903885e-39
0.02071509 0.014549471 0.36500001 1.1060098e-39
0.022030737 0.014589331 0.366 1.0138142e-39
0.023289632 0.014589331 0.366 1.2900508e-39
0.024548529 0.014589331 0.366 2.2120071e-39
0.026159985 0.014788639 0.37099999 1.5694935e-39
0.027436104 0.014788639 0.37099999 1.938276e-39
0.028712198 0.014788639 0.37099999 8.1211692e-39
0.0043700314 0.0132115 0.36300001 7.3756504e-40
0.0056186086 0.0132115 0.36300001 5.5317378e-40
0.0068671857 0.0132115 0.36300001 9.219563e-40
0.0081157628 0.0132115 0.36300001 1.2903885e-39
0.0093385419 0.013175104 0.36199999 1.2903885e-39
0.010583703 0.013175104 0.36199999 1.1059972e-39
0.011828841 0.013175104 0.36199999 7.3721471e-40
0.013110095 0.0132115 0.36300001 6.4648064e-40
0.014358672 0.0132115 0.36300001 1.1112297e-42
0.015650244 0.013247895 0.36399999 3.6989375e-40
0.01690226 0.013247895 0.36399999 5.5428501e-40
0.018204177 0.013284291 0.36500001 4.6279563e-40
0.019459633 0.013284291 0.36500001 1.8620874e-40
0.02071509 0.013284291 0.36500001 7.3721471e-40
0.022030737 0.013320686 0.366 2.7623656e-40
0.023353267 0.013357082 0.36700001 2.766023e-40
0.024615603 0.013357082 0.36700001 4.6099356e-40
0.026089473 0.013466268 0.37 1.8328984e-42
0.027436104 0.013502663 0.37099999 1.3738982e-38
0.028712198 0.013502663 0.37099999 1.7887031e-38
0.0031214545 0.011953272 0.36300001 2.8025969e-45
0.0043700314 0.011953272 0.36300001 2.8025969e-45
0.0056186086 0.011953272 0.36300001 2.8025969e-45
0.0068671857 0.011953272 0.36300001 2.8025969e-45
0.0081157628 0.011953272 0.36300001 3.5873241e-43
0.0093385419 0.011920342 0.36199999 3.5873241e-43
0.010583703 0.011920342 0.36199999 5.5532197e-40
0.011828841 0.011920342 0.36199999 3.044604e-39
0.013110095 0.011953272 0.36300001 3.6892293e-39
0.014358672 0.011953272 0.36300001 3.4126424e-39
0.015650244 0.011986201 0.36399999 2.3966954e-39
0.016948696 0.01201913 0.36500001 2.3044998e-39
0.018204177 0.01201913 0.36500001 2.213379e-39
0.019459633 0.01201913 0.36500001 2.6743515e-39
0.02071509 0.01201913 0.36500001 3.6877874e-39
0.022030737 0.012052059 0.366 5.0707218e-39
0.023353267 0.012084989 0.36700001 3.69103e-39
0.024682675 0.012117918 0.368 5.3505513e-39
0.026089473 0.012183776 0.37 7.7498405e-39
0.027436104 0.012216704 0.37099999 1.4203535e-38
0.028789591 0.012249635 0.37200001 1.7241271e-38
0.030069124 0.012249635 0.37200001 1.6872488e-38
0.031264383 0.012216704 0.37099999 1.6872844e-38
0.0031214545 0.010695043 0.36300001 1.0881608e-38
0.0043700314 0.010695043 0.36300001 1.0973804e-38
0.0056186086 0.010695043 0.36300001 1.2541858e-38
0.0068671857 0.010695043 0.36300001 1.3279423e-38
0.0080934046 0.01066558 0.36199999 1.4015168e-38
0.0093385419 0.01066558 0.36199999 1.4107363e-38
0.010583703 0.01066558 0.36199999 1.4750206e-38
0.011861518 0.010695043 0.36300001 1.5026793e-38
0.013110095 0.010695043 0.36300001 1.4658361e-38
0.014358672 0.010695043 0.36300001 1.4842752e-38
0.015650244 0.010724505 0.36399999 1.4936033e-38
0.016948696 0.010753969 0.36500001 1.4290663e-38
0.018204177 0.010753969 0.36500001 1.3553448e-38
0.019459633 0.010753969 0.36500001 1.309247e-38
0.02071509 0.010753969 0.36500001 1.3368344e-38
0.022090932 0.010812895 0.36700001 1.3644931e-38
0.023416899 0.010842358 0.368 1.3553451e-38
0.024682675 0.010842358 0.368 1.4659799e-38
0.026089473 0.010901283 0.37 1.5491737e-38
0.027362151 0.010901283 0.37 1.5491737e-38
0.028712198 0.010930746 0.37099999 1.6780293e-38
0.029988291 0.010930746 0.37099999 1.6872488e-38
0.031264383 0.010930746 0.37099999 1.6963968e-38
0.0031214545 0.0094367964 0.36300001 1.3092508e-38
0.0043700314 0.0094367964 0.36300001 1.2815921e-38
0.0056186086 0.0094367964 0.36300001 1.438396e-38
0.0068482673 0.0094107985 0.36199999 1.4752743e-38
0.0080934046 0.0094107985 0.36199999 1.5304828e-38
0.0093385419 0.0094107985 0.36199999 1.5304828e-38
0.010583703 0.0094107985 0.36199999 1.4936045e-38
0.011828841 0.0094107985 0.36199999 1.4751654e-38
0.013110095 0.0094367964 0.36300001 1.4845279e-38
0.014358672 0.0094367964 0.36300001 1.4845279e-38
0.015650244 0.0094627924 0.36399999 1.5120424e-38
0.016948696 0.0094887894 0.36500001 1.5120424e-38
0.018204177 0.0094887894 0.36500001 1.4198828e-38
0.019459633 0.0094887894 0.36500001 1.4383219e-38
0.020771841 0.0095147863 0.366 1.4659095e-38
0.022090932 0.0095407832 0.36700001 1.4843487e-38
0.023416899 0.0095667792 0.368 1.4751291e-38
0.024749745 0.0095927762 0.36899999 1.5488856e-38
0.026089473 0.0096187731 0.37 1.7055816e-38
0.027362151 0.0096187731 0.37 1.7055816e-38
0.028712198 0.0096447691 0.37099999 1.6688819e-38
0.029988291 0.0096447691 0.37099999 1.6781014e-38
0.031264383 0.0096447691 0.37099999 1.6871775e-38
0.0031214545 0.0081785498 0.36300001 1.3185069e-38
0.0043700314 0.0081785498 0.36300001 1.3369461e-38
0.0056186086 0.0081785498 0.36300001 1.410665e-38
0.0068482673 0.0081560183 0.36199999 1.4567628e-38
0.0080934046 0.0081560183 0.36199999 1.4936045e-38
0.0093385419 0.0081560183 0.36199999 1.5028241e-38
0.010583703 0.0081560183 0.36199999 1.48442e-38
0.011828841 0.0081560183 0.36199999 1.4752004e-38
0.013110095 0.0081785498 0.36300001 1.4843481e-38
0.014358672 0.0081785498 0.36300001 1.4843481e-38
0.015650244 0.0082010794 0.36399999 1.4751285e-38
0.016948696 0.0082236109 0.36500001 1.4382503e-38
0.018204177 0.0082236109 0.36500001 1.392295e-38
0.019512946 0.0082461406 0.366 1.4291732e-38
0.020828595 0.008268672 0.36700001 1.4475054e-38
0.022090932 0.008268672 0.36700001 1.4659446e-38
0.023416899 0.0082912017 0.368 1.4843487e-38
0.024682675 0.0082912017 0.368 1.4843487e-38
0.026089473 0.0083362628 0.37 1.5858339e-38
0.027362151 0.0083362628 0.37 1.66881e-38
0.028712198 0.0083587933 0.37099999 1.6780295e-38
0.0031300536 0.0069393846 0.36399999 1.4291404e-38
0.0043700314 0.0069203209 0.36300001 1.3646035e-38
0.0056186086 0.0069203209 0.36300001 1.438396e-38
0.0068482673 0.0069012563 0.36199999 1.5121525e-38
0.0080934046 0.0069012563 0.36199999 1.5581762e-38
0.0093385419 0.0069012563 0.36199999 1.4844197e-38
0.010583703 0.0069012563 0.36199999 1.5119708e-38
0.011861518 0.0069203209 0.36300001 1.5304099e-38
0.013110095 0.0069203209 0.36300001 1.5119708e-38
0.014398227 0.0069393846 0.36399999 1.5027512e-38
0.01569324 0.0069584493 0.36500001 1.4843118e-38
0.016948696 0.0069584493 0.36500001 1.4750922e-38
0.018204177 0.0069584493 0.36500001 1.4751278e-38
0.019512946 0.0069775134 0.366 1.4566887e-38
0.020828595 0.0069965781 0.36700001 1.4843481e-38
0.022090932 0.0069965781 0.36700001 1.4935677e-38
0.023416899 0.0070156422 0.368 1.5119708e-38
0.024682675 0.0070156422 0.368 1.5949468e-38
0.026089473 0.0070537706 0.37 1.7794097e-38
0.027436104 0.0070728348 0.37099999 1.7794097e-38
0.028712198 0.0070728348 0.37099999 1.6963971e-38
0.0031300536 0.0056776721 0.36399999 1.5488869e-38
0.0043820702 0.0056776721 0.36399999 1.5396673e-38
0.0056186086 0.0056620743 0.36300001 1.5489592e-38
0.0068482673 0.0056464756 0.36199999 1.5766179e-38
0.0080934046 0.0056464756 0.36199999 1.5581415e-38
0.0093385419 0.0056464756 0.36199999 1.4659458e-38
0.010583703 0.0056464756 0.36199999 1.456691e-38
0.011861518 0.0056620743 0.36300001 1.5120083e-38
0.013110095 0.0056620743 0.36300001 1.4936045e-38
0.014398227 0.0056776721 0.36399999 1.4290676e-38
0.01569324 0.0056932704 0.36500001 1.4289957e-38
0.016948696 0.0056932704 0.36500001 1.3736783e-38
0.018204177 0.0056932704 0.36500001 1.3460552e-38
0.019512946 0.0057088681 0.366 1.3368357e-38
0.020828595 0.0057244664 0.36700001 1.2999574e-38
0.022090932 0.0057244664 0.36700001 1.3276161e-38
0.023416899 0.0057400642 0.368 1.3738228e-38
0.024682675 0.0057400642 0.368 1.3461641e-38
0.026089473 0.0057712602 0.37 1.2537877e-38
0.027436104 0.005786858 0.37099999 1.078616e-38
0.0018831964 0.0044281092 0.36500001 3.7824773e-39
0.0031300536 0.0044159768 0.36399999 5.8079716e-39
0.0043820702 0.0044159768 0.36399999 4.6094284e-39
0.0056186086 0.0044038454 0.36300001 3.3165442e-39
0.0068482673 0.0043917135 0.36199999 1.4726316e-39
0.0080934046 0.0043917135 0.36199999 3.69521e-40
0.0093385419 0.0043917135 0.36199999 1.6815582e-44
0.01061294 0.0044038454 0.36300001 3.657389e-43
0.011861518 0.0044038454 0.36300001 9.2921502e-41
0.01314621 0.0044159768 0.36399999 3.685415e-43
0.014398227 0.0044159768 0.36399999 8.4077908e-45
0.01569324 0.0044281092 0.36500001 5.6051939e-45
0.016948696 0.0044281092 0.36500001 3.657389e-43
0.018254049 0.0044402406 0.366 2.8025969e-45
0.019512946 0.0044402406 0.366 3.629363e-43
0.020771841 0.0044402406 0.366 0
0.022090932 0.0044523729 0.36700001 0
0.023416899 0.0044645043 0.368 5.6051939e-45
0.024682675 0.0044645043 0.368 5.6051939e-45
0.026089473 0.0044887681 0.37 2.7805405e-40
0.027436104 0.0045008999 0.37099999 2.5223372e-44
0.0018831964 0.00316293 0.36500001 1.0775985e-42
0.0031386528 0.00316293 0.36500001 6.4502889e-40
0.0043820702 0.0031542641 0.36399999 7.3722452e-40
0.0056186086 0.0031455988 0.36300001 3.706e-40
0.0068671857 0.0031455988 0.36300001 3.706e-40
0.0080934046 0.0031369331 0.36199999 1.3807863e-39
0.0093385419 0.0031369331 0.36199999 1.3807863e-39
0.01061294 0.0031455988 0.36300001 1.1059972e-39
0.011861518 0.0031455988 0.36300001 9.2160597e-40
0.01314621 0.0031542641 0.36399999 1.0138114e-39
0.014437784 0.00316293 0.36500001 1.106007e-39
0.01569324 0.00316293 0.36500001 1.2903885e-39
0.016948696 0.00316293 0.36500001 1.4747798e-39
0.018254049 0.0031715953 0.366 1.0159722e-39
0.019512946 0.0031715953 0.366 8.3158096e-40
0.020771841 0.0031715953 0.366 1.7506604e-39
0.022090932 0.003180261 0.36700001 1.7506604e-39
0.023416899 0.0031889265 0.368 1.569146e-39
0.024682675 0.0031889265 0.368 1.569146e-39
0.02601896 0.003197592 0.36899999 2.3956795e-39
0.027436104 0.0032149232 0.37099999 1.2893319e-39
0.0018831964 0.0018977508 0.36500001 1.288941e-39
0.0031386528 0.0018977508 0.36500001 1.7506604e-39
0.0043820702 0.0018925513 0.36399999 1.6584648e-39
0.0056186086 0.0018873521 0.36300001 1.0159722e-39
0.0068671857 0.0018873521 0.36300001 9.2377659e-40
0.0081157628 0.0018873521 0.36300001 1.2903885e-39
0.0093643395 0.0018873521 0.36300001 1.2903885e-39
0.01061294 0.0018873521 0.36300001 8.3120821e-40
0.011861518 0.0018873521 0.36300001 1.1077951e-39
0.01314621 0.0018925513 0.36399999 9.2377659e-40
0.014437784 0.0018977508 0.36500001 8.3158096e-40
0.01569324 0.0018977508 0.36500001 9.2412411e-40
0.01699513 0.00190295 0.366 9.2412411e-40
0.018254049 0.00190295 0.366 9.2412411e-40
0.019512946 0.00190295 0.366 8.3192848e-40
0.020771841 0.00190295 0.366 1.3818779e-39
0.022090932 0.0019081495 0.36700001 1.4740735e-39
0.023416899 0.0019133487 0.368 1.7506604e-39
0.024682675 0.0019133487 0.368 1.7506604e-39
0.02601896 0.0019185479 0.36899999 2.0301241e-39
0.027362151 0.0019237474 0.37 1.569146e-39
0.0018831964 0.00063258957 0.36500001 1.3836505e-39
0.0031386528 0.00063258957 0.36500001 1.7506604e-39
0.0043700314 0.00062912336 0.36300001 1.4740735e-39
0.0056186086 0.00062912336 0.36300001 1.0159722e-39
0.0068671857 0.00062912336 0.36300001 9.2377659e-40
0.0081157628 0.00062912336 0.36300001 1.2903885e-39
0.0093643395 0.00062912336 0.36300001 1.1981929e-39
0.01061294 0.00062912336 0.36300001 1.2903885e-39
0.011861518 0.00062912336 0.36300001 1.2903885e-39
0.01314621 0.00063085643 0.36399999 1.3818779e-39
0.014437784 0.00063258957 0.36500001 1.2896822e-39
0.01569324 0.00063258957 0.36500001 1.2903885e-39
0.01699513 0.0006343227 0.366 1.2903885e-39
0.018254049 0.0006343227 0.366 9.2412411e-40
0.019512946 0.0006343227 0.366 6.4753722e-40
0.020771841 0.0006343227 0.366 1.2903885e-39
0.022090932 0.00063605583 0.36700001 1.2903885e-39
0.023416899 0.00063778897 0.368 1.0163197e-39
0.024682675 0.00063778897 0.368 1.2929066e-39
0.02601896 0.00063952204 0.36899999 1.7535373e-39
0.027362151 0.00064125517 0.37 1.3847547e-39
0.028712198 0.00064298831 0.37099999 3.3215608e-39
0.00062771625 -0.00063258957 0.36500001 1.8402972e-40
0.0018831964 -0.00063258957 0.36500001 2.0279409e-39
0.0031386528 -0.00063258957 0.36500001 1.7506604e-39
0.0043700314 -0.00062912336 0.36300001 1.4740735e-39
0.0056186086 -0.00062912336 0.36300001 1.2003635e-39
0.0068671857 -0.00062912336 0.36300001 9.2377659e-40
0.0081157628 -0.00062912336 0.36300001 9.2412411e-40
0.0093643395 -0.00062912336 0.36300001 9.2412411e-40
0.01061294 -0.00062912336 0.36300001 9.2412411e-40
0.011861518 -0.00062912336 0.36300001 9.2412411e-40
0.01314621 -0.00063085643 0.36399999 1.3818779e-39
0.014437784 -0.00063258957 0.36500001 1.2896822e-39
0.01569324 -0.00063258957 0.36500001 1.2903885e-39
0.01699513 -0.0006343227 0.366 1.2903885e-39
0.018254049 -0.0006343227 0.366 1.2903885e-39
0.019512946 -0.0006343227 0.366 1.2903885e-39
0.020771841 -0.0006343227 0.366 1.2903885e-39
0.022090932 -0.00063605583 0.36700001 1.2903885e-39
0.023416899 -0.00063778897 0.368 1.3829344e-39
0.024682675 -0.00063778897 0.368 1.751717e-39
0.02594845 -0.00063778897 0.368 1.4769504e-39
0.027362151 -0.00064125517 0.37 1.6613416e-39
0.028712198 -0.00064298831 0.37099999 1.1981929e-39
0.00062771625 -0.0018977508 0.36500001 5.6051939e-45
0.0018831964 -0.0018977508 0.36500001 1.7520827e-39
0.0031386528 -0.0018977508 0.36500001 1.6584648e-39
0.0043700314 -0.0018873521 0.36300001 1.4740735e-39
0.00560313 -0.0018821526 0.36199999 1.0159722e-39
0.0068482673 -0.0018821526 0.36199999 9.2377659e-40
0.0081157628 -0.0018873521 0.36300001 1.2903885e-39
0.0093643395 -0.0018873521 0.36300001 1.3825841e-39
0.01061294 -0.0018873521 0.36300001 1.2903885e-39
0.011894194 -0.0018925513 0.36399999 1.2903885e-39
0.013182327 -0.0018977508 0.36500001 1.2904011e-39
0.014437784 -0.0018977508 0.36500001 1.1982055e-39
0.01569324 -0.0018977508 0.36500001 9.2412411e-40
0.01699513 -0.00190295 0.366 9.2412411e-40
0.018254049 -0.00190295 0.366 9.2412411e-40
0.019512946 -0.00190295 0.366 6.4753722e-40
0.020771841 -0.00190295 0.366 9.2340384e-40
0.022090932 -0.0019081495 0.36700001 9.2340384e-40
0.023416899 -0.0019133487 0.368 8.3263473e-40
0.024682675 -0.0019133487 0.368 1.017026e-39
0.02594845 -0.0019133487 0.368 1.7535373e-39
0.027362151 -0.0019237474 0.37 1.7535373e-39
0.028712198 -0.0019289466 0.37099999 9.219563e-41
0.0031300536 -0.0031542641 0.36399999 1.659171e-39
0.0043700314 -0.0031455988 0.36300001 1.3825841e-39
0.00560313 -0.0031369331 0.36199999 1.0159722e-39
0.0068482673 -0.0031369331 0.36199999 1.0159722e-39
0.0081157628 -0.0031455988 0.36300001 1.2907388e-39
0.0093643395 -0.0031455988 0.36300001 1.2907388e-39
0.01061294 -0.0031455988 0.36300001 1.2903885e-39
0.011894194 -0.0031542641 0.36399999 1.2903885e-39
0.013182327 -0.00316293 0.36500001 1.2903885e-39
0.014437784 -0.00316293 0.36500001 1.2903885e-39
0.01569324 -0.00316293 0.36500001 1.2903885e-39
0.01699513 -0.0031715953 0.366 1.2903885e-39
0.018254049 -0.0031715953 0.366 1.2903885e-39
0.019512946 -0.0031715953 0.366 1.0138016e-39
0.020771841 -0.0031715953 0.366 1.1981929e-39
0.022090932 -0.003180261 0.36700001 1.2903885e-39
0.023416899 -0.0031889265 0.368 1.1059972e-39
0.024682675 -0.0031889265 0.368 1.3825841e-39
0.02594845 -0.0031889265 0.368 3.706e-40
0.027362151 -0.0032062577 0.37 1.8174841e-42
0.0018831964 -0.004428091 0.36500001 0
0.0031300536 -0.0044159591 0.36399999 2.8025969e-45
0.0043700314 -0.0044038272 0.36300001 2.8025969e-45
0.0056186086 -0.0044038272 0.36300001 2.8025969e-45
0.0068671857 -0.0044038272 0.36300001 2.8025969e-45
0.0081157628 -0.0044038272 0.36300001 0
0.0093643395 -0.0044038272 0.36300001 0
0.01061294 -0.0044038272 0.36300001 3.5873241e-43
0.011894194 -0.0044159591 0.36399999 3.5873241e-43
0.013182327 -0.004428091 0.36500001 2.8025969e-45
0.014437784 -0.004428091 0.36500001 2.8025969e-45
0.01569324 -0.004428091 0.36500001 3.5873241e-43
0.01699513 -0.0044402229 0.366 3.5873241e-43
0.018254049 -0.0044402229 0.366 3.5873241e-43
0.019512946 -0.0044402229 0.366 3.5873241e-43
0.020771841 -0.0044402229 0.366 3.5873241e-43
0.022090932 -0.0044523547 0.36700001 3.5873241e-43
0.023416899 -0.0044644861 0.368 3.5873241e-43
0.024682675 -0.0044644861 0.368 7.1746481e-43
0.02601896 -0.004476618 0.36899999 1.3966139e-39
0.027362151 -0.0044887499 0.37 7.112743e-39
0.0018831964 -0.0056932704 0.36500001 1.1979985e-38
0.0031300536 -0.0056776721 0.36399999 1.0510655e-38
0.0043700314 -0.0056620743 0.36300001 1.0510655e-38
0.0056186086 -0.0056620743 0.36300001 1.1247867e-38
0.0068671857 -0.0056620743 0.36300001 1.1893236e-38
0.0081157628 -0.0056620743 0.36300001 1.1616637e-38
0.0093643395 -0.0056620743 0.36300001 1.2354202e-38
0.01061294 -0.0056620743 0.36300001 1.2907022e-38
0.011894194 -0.0056776721 0.36399999 1.3736783e-38
0.013182327 -0.0056932704 0.36500001 1.3922972e-38
0.014437784 -0.0056932704 0.36500001 1.3738581e-38
0.01569324 -0.0056932704 0.36500001 1.419848e-38
0.016948696 -0.0056932704 0.36500001 1.4106284e-38
0.018204177 -0.0056932704 0.36500001 1.4289591e-38
0.019512946 -0.0057088681 0.366 1.4473982e-38
0.020771841 -0.0057088681 0.366 1.4751285e-38
0.022090932 -0.0057244664 0.36700001 1.4290307e-38
0.023416899 -0.0057400642 0.368 1.4013357e-38
0.024682675 -0.0057400642 0.368 1.4289944e-38
0.02601896 -0.005755662 0.36899999 1.4844929e-38
0.027362151 -0.0057712602 0.37 1.585908e-38
0.0018831964 -0.0069584316 0.36500001 1.6318617e-38
0.0031300536 -0.0069393669 0.36399999 1.6411526e-38
0.0043700314 -0.0069203028 0.36300001 1.5766156e-38
0.0056186086 -0.0069203028 0.36300001 1.5305907e-38
0.0068671857 -0.0069203028 0.36300001 1.585908e-38
0.0081157628 -0.0069203028 0.36300001 1.576543e-38
0.0093643395 -0.0069203028 0.36300001 1.5949822e-38
0.010642177 -0.0069393669 0.36399999 1.5950194e-38
0.011894194 -0.0069393669 0.36399999 1.6226781e-38
0.01314621 -0.0069393669 0.36399999 1.6318617e-38
0.014437784 -0.0069584316 0.36500001 1.6226421e-38
0.01569324 -0.0069584316 0.36500001 1.6134588e-38
0.016948696 -0.0069584316 0.36500001 1.5950197e-38
0.018204177 -0.0069584316 0.36500001 1.5488137e-38
0.019512946 -0.0069774953 0.366 1.521155e-38
0.020828595 -0.0069965599 0.36700001 1.5120073e-38
0.022090932 -0.0069965599 0.36700001 1.5027878e-38
0.023416899 -0.0070156236 0.368 1.4475052e-38
0.024749745 -0.0070346878 0.36899999 1.4198465e-38
0.02601896 -0.0070346878 0.36899999 1.5396295e-38
0.027362151 -0.0070537524 0.37 1.613386e-38
0.0018780369 -0.0082010794 0.36399999 1.5951273e-38
0.0031300536 -0.0082010794 0.36399999 1.5306257e-38
0.0043700314 -0.0081785498 0.36300001 1.4753083e-38
0.0056186086 -0.0081785498 0.36300001 1.5120068e-38
0.0068671857 -0.0081785498 0.36300001 1.5212264e-38
0.0081157628 -0.0081785498 0.36300001 1.5581402e-38
0.0093643395 -0.0081785498 0.36300001 1.5765793e-38
0.010642177 -0.0082010794 0.36399999 1.5490648e-38
0.011894194 -0.0082010794 0.36399999 1.5398453e-38
0.01314621 -0.0082010794 0.36399999 1.5580696e-38
0.014437784 -0.0082236109 0.36500001 1.5672891e-38
0.01569324 -0.0082236109 0.36500001 1.5581415e-38
0.016948696 -0.0082236109 0.36500001 1.5489219e-38
0.018254049 -0.0082461406 0.366 1.5212269e-38
0.019512946 -0.0082461406 0.366 1.4935682e-38
0.020828595 -0.008268672 0.36700001 1.5211903e-38
0.022090932 -0.008268672 0.36700001 1.4843121e-38
0.023416899 -0.0082912017 0.368 1.447577e-38
0.024749745 -0.0083137322 0.36899999 1.4383575e-38
0.02601896 -0.0083137322 0.36899999 1.5028581e-38
0.027362151 -0.0083362628 0.37 1.5120777e-38
0.0018780369 -0.0094627747 0.36399999 1.4845282e-38
0.0031300536 -0.0094627747 0.36399999 1.5304109e-38
0.0043700314 -0.0094367787 0.36300001 1.4658739e-38
0.0056186086 -0.0094367787 0.36300001 1.4935314e-38
0.0068671857 -0.0094367787 0.36300001 1.4935314e-38
0.0081157628 -0.0094367787 0.36300001 1.4935314e-38
0.0093643395 -0.0094367787 0.36300001 1.5211901e-38
0.010642177 -0.0094627747 0.36399999 1.5212619e-38
0.011894194 -0.0094627747 0.36399999 1.5489206e-38
0.01314621 -0.0094627747 0.36399999 1.5488147e-38
0.014437784 -0.0094887717 0.36500001 1.5672538e-38
0.01569324 -0.0094887717 0.36500001 1.5580333e-38
0.01699513 -0.0095147677 0.366 1.5488137e-38
0.018254049 -0.0095147677 0.366 1.5028591e-38
0.019512946 -0.0095147677 0.366 1.4383222e-38
0.020828595 -0.0095407655 0.36700001 1.5028944e-38
0.022090932 -0.0095407655 0.36700001 1.4383575e-38
0.023416899 -0.0095667616 0.368 1.4014073e-38
0.024749745 -0.0095927576 0.36899999 1.4843834e-38
0.026089473 -0.0096187545 0.37 1.6595904e-38
0.027362151 -0.0096187545 0.37 1.7425665e-38
0.032107092 -0.0099047171 0.38100001 1.6870689e-38
0.033417583 -0.0099047171 0.38100001 1.6317515e-38
0.034819219 -0.009930715 0.382 1.613456e-38
0.0018780369 -0.010724488 0.36399999 1.6964684e-38
0.0031214545 -0.010695025 0.36300001 1.7055463e-38
0.0043700314 -0.010695025 0.36300001 1.5580333e-38
0.0056186086 -0.010695025 0.36300001 1.6041298e-38
0.0068671857 -0.010695025 0.36300001 1.5672516e-38
0.0081157628 -0.010695025 0.36300001 1.5765793e-38
0.0093643395 -0.010695025 0.36300001 1.604238e-38
0.010642177 -0.010724488 0.36399999 1.6041311e-38
0.011894194 -0.010724488 0.36399999 1.6317898e-38
0.01314621 -0.010724488 0.36399999 1.6503018e-38
0.014437784 -0.010753951 0.36500001 1.6595213e-38
0.015736233 -0.010783413 0.366 1.668669e-38
0.01699513 -0.010783413 0.366 1.668669e-38
0.018254049 -0.010783413 0.366 1.6318617e-38
0.019512946 -0.010783413 0.366 1.5949834e-38
0.020828595 -0.010812877 0.36700001 1.6133141e-38
0.022090932 -0.010812877 0.36700001 1.5026793e-38
0.023416899 -0.010842339 0.368 1.4749133e-38
0.024749745 -0.010871802 0.36899999 1.4011568e-38
0.026089473 -0.010901265 0.37 1.4564013e-38
0.027436104 -0.010930728 0.37099999 9.7698403e-39
0.028789591 -0.010960191 0.37200001 4.322008e-39
0.03063494 -0.011166432 0.37900001 2.2040519e-39
0.031938549 -0.011166432 0.37900001 1.3642748e-38
0.033417583 -0.011225357 0.38100001 1.7146182e-38
0.034819219 -0.01125482 0.382 1.61342e-38
0.0018780369 -0.011986201 0.36399999 1.0783587e-38
0.0031214545 -0.011953272 0.36300001 9.4954058e-39
0.0043700314 -0.011953272 0.36300001 9.4032102e-39
0.0056186086 -0.011953272 0.36300001 8.6663738e-39
0.0068671857 -0.011953272 0.36300001 7.2834393e-39
0.0081157628 -0.011953272 0.36300001 6.7241223e-39
0.0093643395 -0.011953272 0.36300001 5.1567966e-39
0.010642177 -0.011986201 0.36399999 3.7800208e-39
0.011926871 -0.01201913 0.36500001 3.1346514e-39
0.013182327 -0.01201913 0.36500001 2.9502602e-39
0.014437784 -0.01201913 0.36500001 4.6097815e-39
0.01569324 -0.01201913 0.36500001 5.1626021e-39
0.01699513 -0.012052059 0.366 4.8860153e-39
0.018254049 -0.012052059 0.366 3.684563e-39
0.019512946 -0.012052059 0.366 1.1031022e-39
0.020828595 -0.012084989 0.36700001 4.6242569e-40
0.022090932 -0.012084989 0.36700001 3.671402e-43
0.023416899 -0.012117918 0.368 2.8025969e-45
0.024682675 -0.012117918 0.368 2.8025969e-45
0.026089473 -0.012183776 0.37 2.8025969e-45
0.027510056 -0.012249635 0.37200001 2.8025969e-45
0.028789591 -0.012249635 0.37200001 3.706e-40
0.03063494 -0.012480138 0.37900001 3.7694929e-43
0.031938549 -0.012480138 0.37900001 9.5893628e-39
0.033417583 -0.012545995 0.38100001 1.6780622e-38
0.034819219 -0.012578925 0.382 1.6042005e-38
0.0018831964 -0.013284291 0.36500001 1.8438846e-40
0.0031300536 -0.013247895 0.36399999 7.2166871e-43
0.0043700314 -0.0132115 0.36300001 3.61535e-43
0.0056186086 -0.0132115 0.36300001 7.2166871e-43
0.0068671857 -0.0132115 0.36300001 1.0818024e-42
0.0081157628 -0.0132115 0.36300001 1.0818024e-42
0.0093901372 -0.013247895 0.36399999 1.8547306e-40
0.010642177 -0.013247895 0.36399999 2.7731276e-40
0.011926871 -0.013284291 0.36500001 2.7731276e-40
0.013182327 -0.013284291 0.36500001 3.6878252e-40
0.014437784 -0.013284291 0.36500001 4.6097815e-40
0.01569324 -0.013284291 0.36500001 1.8511713e-40
0.01699513 -0.013320686 0.366 4.6170402e-40
0.018254049 -0.013320686 0.366 3.7058039e-40
0.019512946 -0.013320686 0.366 5.5497165e-40
0.020828595 -0.013357082 0.36700001 1.3807863e-39
0.022090932 -0.013357082 0.36700001 1.5651775e-39
0.023416899 -0.013393477 0.368 1.9347041e-39
0.024682675 -0.013393477 0.368 1.7503129e-39
0.03063494 -0.013793826 0.37900001 9.2089972e-40
0.031938549 -0.013793826 0.37900001 6.7309592e-39
0.033417583 -0.013866615 0.38100001 1.6503696e-38
0.034819219 -0.013903012 0.382 1.585869e-38
0.00062943593 -0.014589331 0.366 1.0155995e-39
0.0018831964 -0.014549471 0.36500001 1.7531645e-39
0.0031386528 -0.014549471 0.36500001 1.3851023e-39
0.0043700314 -0.014469747 0.36300001 1.0163197e-39
0.0056186086 -0.014469747 0.36300001 9.2412411e-40
0.0068671857 -0.014469747 0.36300001 8.3192848e-40
0.0081157628 -0.014469747 0.36300001 9.2412411e-40
0.0093901372 -0.014509608 0.36399999 1.0163197e-39
0.010642177 -0.014509608 0.36399999 9.2412411e-40
0.011894194 -0.014509608 0.36399999 9.2412411e-40
0.013182327 -0.014549471 0.36500001 1.3825841e-39
0.014437784 -0.014549471 0.36500001 1.3825841e-39
0.01569324 -0.014549471 0.36500001 1.0163197e-39
0.01699513 -0.014589331 0.366 1.200711e-39
0.018254049 -0.014589331 0.366 1.0163197e-39
0.019512946 -0.014589331 0.366 1.0163197e-39
0.020828595 -0.014629194 0.36700001 1.2903885e-39
0.022090932 -0.014629194 0.36700001 1.7513666e-39
0.023416899 -0.014669055 0.368 1.3847547e-39
0.024682675 -0.014669055 0.368 1.2925591e-39
0.02594845 -0.014669055 0.368 1.200711e-39
0.02933133 -0.015107533 0.37900001 1.842856e-39
0.03063494 -0.015107533 0.37900001 1.4740735e-39
0.031938549 -0.015107533 0.37900001 3.7792893e-39
0.033417583 -0.015187255 0.38100001 1.6317895e-38
0.034819219 -0.015227118 0.382 1.5766141e-38
0.00062943593 -0.015857959 0.366 1.3851023e-39
0.0018831964 -0.015814632 0.36500001 1.5694935e-39
0.0031386528 -0.015814632 0.36500001 1.2925591e-39
0.0043700314 -0.015727976 0.36300001 8.3158096e-40
0.0056186086 -0.015727976 0.36300001 8.3158096e-40
0.0068671857 -0.015727976 0.36300001 9.2377659e-40
0.0081157628 -0.015727976 0.36300001 1.2903885e-39
0.0093901372 -0.015771303 0.36399999 1.3825841e-39
0.010642177 -0.015771303 0.36399999 1.0163197e-39
0.011894194 -0.015771303 0.36399999 9.2412411e-40
0.013182327 -0.015814632 0.36500001 1.0159722e-39
0.014437784 -0.015814632 0.36500001 1.0159722e-39
0.01569324 -0.015814632 0.36500001 1.0163197e-39
0.01699513 -0.015857959 0.366 1.0163197e-39
0.018254049 -0.015857959 0.366 9.2412411e-40
0.019512946 -0.015857959 0.366 9.2412411e-40
0.020771841 -0.015857959 0.366 1.0159722e-39
0.022090932 -0.015901288 0.36700001 1.0159722e-39
0.023416899 -0.015944615 0.368 1.7506604e-39
0.024682675 -0.015944615 0.368 1.7506604e-39
0.02594845 -0.015944615 0.368 1.7506604e-39
0.029176548 -0.016334565 0.377 2.0272473e-39
0.030473279 -0.016334565 0.377 2.1194429e-39
0.031938549 -0.016421221 0.37900001 7.4078943e-40
0.033242162 -0.016421221 0.37900001 1.401696e-38
0.0018831964 -0.017079812 0.36500001 1.569146e-39
0.0031386528 -0.017079812 0.36500001 1.2003635e-39
0.0043700314 -0.016986223 0.36300001 1.0159722e-39
0.0056186086 -0.016986223 0.36300001 1.3825841e-39
0.0068671857 -0.016986223 0.36300001 1.3825841e-39
0.0081157628 -0.016986223 0.36300001 1.3825841e-39
0.0093643395 -0.016986223 0.36300001 1.2903885e-39
0.01061294 -0.016986223 0.36300001 1.4747798e-39
0.011894194 -0.017033016 0.36399999 1.3825841e-39
0.01314621 -0.017033016 0.36399999 1.0163197e-39
0.014437784 -0.017079812 0.36500001 1.0163197e-39
0.01569324 -0.017079812 0.36500001 1.0163197e-39
0.01699513 -0.017126605 0.366 1.0163197e-39
0.018254049 -0.017126605 0.366 9.2412411e-40
0.019512946 -0.017126605 0.366 9.2412411e-40
0.020771841 -0.017126605 0.366 9.2412411e-40
0.022090932 -0.017173398 0.36700001 8.3192848e-40
0.023416899 -0.017220192 0.368 1.7506604e-39
0.024682675 -0.017220192 0.368 1.842856e-39
0.02594845 -0.017220192 0.368 1.4769504e-39
0.027805863 -0.017594544 0.37599999 1.6613416e-39
0.029099153 -0.017594544 0.37599999 1.7535373e-39
0.030473279 -0.017641339 0.377 1.9379285e-39
0.031854279 -0.017688133 0.37799999 9.219563e-40
0.033242162 -0.017734928 0.37900001 1.3368366e-38
0.034545772 -0.017734928 0.37900001 1.6411513e-38
0.0018831964 -0.018344972 0.36500001 1.5684369e-39
0.0031386528 -0.018344972 0.36500001 1.1996572e-39
0.0043700314 -0.018244451 0.36300001 9.2307033e-40
0.0056186086 -0.018244451 0.36300001 1.3818779e-39
0.0068671857 -0.018244451 0.36300001 1.4740735e-39
0.0081157628 -0.018244451 0.36300001 1.3825841e-39
0.0093643395 -0.018244451 0.36300001 1.4747798e-39
0.01061294 -0.018244451 0.36300001 1.3818779e-39
0.011894194 -0.018294711 0.36399999 1.4740735e-39
0.01314621 -0.018294711 0.36399999 9.2412411e-40
0.014398227 -0.018294711 0.36399999 1.0163197e-39
0.01569324 -0.018344972 0.36500001 1.3818779e-39
0.016948696 -0.018344972 0.36500001 1.4740735e-39
0.018254049 -0.018395232 0.366 9.2412411e-40
0.019512946 -0.018395232 0.366 9.2412411e-40
0.020771841 -0.018395232 0.366 1.0163197e-39
0.022090932 -0.018445492 0.36700001 1.0163197e-39
0.023416899 -0.018495752 0.368 1.2925591e-39
0.024682675 -0.018495752 0.368 1.4769504e-39
0.02765796 -0.018797314 0.37400001 1.569146e-39
0.028944373 -0.018797314 0.37400001 2.0279535e-39
0.030473279 -0.018948095 0.377 2.3045404e-39
0.03177001 -0.018948095 0.377 9.2927108e-41
0.03315445 -0.018998355 0.37799999 1.1340794e-38
0.034545772 -0.019048614 0.37900001 1.5951977e-38
0.0018831964 -0.019610152 0.36500001 1.4762413e-39
0.0031300536 -0.019556424 0.36399999 1.2003635e-39
0.0043700314 -0.019502698 0.36300001 9.2377659e-40
0.0056186086 -0.019502698 0.36300001 1.0159722e-39
0.0068671857 -0.019502698 0.36300001 8.3158096e-40
0.0081157628 -0.019502698 0.36300001 1.0163197e-39
0.0093643395 -0.019502698 0.36300001 1.200711e-39
0.01061294 -0.019502698 0.36300001 1.3818779e-39
0.011894194 -0.019556424 0.36399999 1.4740735e-39
0.01314621 -0.019556424 0.36399999 9.2412411e-40
0.014398227 -0.019556424 0.36399999 8.3192848e-40
0.01569324 -0.019610152 0.36500001 1.0159722e-39
0.016948696 -0.019610152 0.36500001 1.0159722e-39
0.018204177 -0.019610152 0.36500001 9.2412411e-40
0.019459633 -0.019610152 0.36500001 9.2412411e-40
0.020771841 -0.019663876 0.366 1.3818779e-39
0.022090932 -0.019717604 0.36700001 1.6584648e-39
0.023416899 -0.01977133 0.368 1.2925591e-39
0.024682675 -0.01977133 0.368 1.569146e-39
0.027584007 -0.020039963 0.373 1.5694935e-39
0.028866978 -0.020039963 0.373 2.0279535e-39
0.030392446 -0.020201141 0.37599999 2.2123448e-39
0.03177001 -0.020254869 0.377 3.7023006e-40
0.03315445 -0.020308595 0.37799999 9.6819887e-39
0.034545772 -0.020362321 0.37900001 1.6227122e-38
0.0018780369 -0.020818118 0.36399999 1.29185e-39
0.0031300536 -0.020818118 0.36399999 1.2003635e-39
0.0043700314 -0.020760927 0.36300001 1.0159722e-39
0.0056186086 -0.020760927 0.36300001 1.3825841e-39
0.0068671857 -0.020760927 0.36300001 1.3825841e-39
0.0081157628 -0.020760927 0.36300001 1.3825841e-39
0.0093643395 -0.020760927 0.36300001 1.3825841e-39
0.01061294 -0.020760927 0.36300001 1.3825841e-39
0.011861518 -0.020760927 0.36300001 1.4747798e-39
0.01314621 -0.020818118 0.36399999 9.2412411e-40
0.014398227 -0.020818118 0.36399999 9.2412411e-40
0.015650244 -0.020818118 0.36399999 1.0159722e-39
0.016948696 -0.020875312 0.36500001 9.2377659e-40
0.018204177 -0.020875312 0.36500001 9.2412411e-40
0.019459633 -0.020875312 0.36500001 9.2412411e-40
0.020771841 -0.020932505 0.366 1.0159722e-39
0.022090932 -0.020989697 0.36700001 1.2925591e-39
0.023416899 -0.02104689 0.368 1.3847547e-39
0.024682675 -0.02104689 0.368 1.569146e-39
0.026159985 -0.021218468 0.37099999 1.7538848e-39
0.027510056 -0.021275662 0.37200001 1.5694935e-39
0.028866978 -0.021332853 0.373 2.1194429e-39
0.030230785 -0.021390047 0.37400001 2.1194429e-39
0.03168574 -0.02150443 0.37599999 5.5462132e-40
0.033242162 -0.02167601 0.37900001 7.9302717e-39
0.034545772 -0.02167601 0.37900001 1.6226759e-38
0.0018780369 -0.022079831 0.36399999 1.5684397e-39
0.0031214545 -0.022019174 0.36300001 1.2925591e-39
0.0043700314 -0.022019174 0.36300001 1.0159722e-39
0.0056186086 -0.022019174 0.36300001 1.3825841e-39
0.0068671857 -0.022019174 0.36300001 1.4747798e-39
