# .PCD v0.7 - Point Cloud Data file format
VERSION 0.7
FIELDS x y z rgb
SIZE 4 4 4 4
TYPE F F F F
COUNT 1 1 1 1
WIDTH 989
HEIGHT 1
VIEWPOINT 0 0 0 1 0 0 0
POINTS 989
DATA ascii
0.020601582 -0.0056620743 0.36300001 1.5414283e-44
0.021910351 -0.0056776721 0.36399999 3.7554799e-43
0.023226002 -0.0056932704 0.36500001 3.0828566e-44
0.024481459 -0.0056932704 0.36500001 2.9427268e-44
0.025807425 -0.0057088681 0.366 2.558771e-42
0.027140297 -0.0057244664 0.36700001 3.1372102e-39
0.028402634 -0.0057244664 0.36700001 7.288484e-39
0.029745799 -0.0057400642 0.368 1.0607527e-38
0.031011574 -0.0057400642 0.368 1.4109541e-38
0.032365058 -0.005755662 0.36899999 1.7981758e-38
0.033725422 -0.0057712602 0.37 1.7887344e-38
0.035187259 -0.0058024563 0.37200001 1.7795148e-38
-0.0044783796 -0.0070918808 0.37200001 1.5949834e-38
-0.0031902469 -0.0070728161 0.37099999 1.2907378e-38
-0.001914153 -0.0070728161 0.37099999 1.1801394e-38
-0.00063805905 -0.0070728161 0.37099999 1.0695046e-38
0.00063631503 -0.0070537524 0.37 9.6787265e-39
0.0019038339 -0.0070346878 0.36899999 6.544075e-39
0.0031730486 -0.0070346878 0.36899999 4.5179138e-39
0.0044302251 -0.0070156236 0.368 2.0286318e-39
0.0056960001 -0.0070156236 0.368 0
0.0069428575 -0.0069965599 0.36700001 0
0.0081828348 -0.0069774953 0.366 3.5873241e-43
0.0094417306 -0.0069774953 0.366 3.5873241e-43
0.010642177 -0.0069393669 0.36399999 3.5873241e-43
0.011861518 -0.0069203028 0.36300001 3.5873241e-43
0.013110095 -0.0069203028 0.36300001 1.2611686e-44
0.014358672 -0.0069203028 0.36300001 1.1210388e-44
0.015607249 -0.0069203028 0.36300001 3.5873241e-43
0.016855827 -0.0069203028 0.36300001 7.1746481e-43
0.018104427 -0.0069203028 0.36300001 1.7978659e-42
0.019353004 -0.0069203028 0.36300001 3.8740143e-39
0.020601582 -0.0069203028 0.36300001 6.0917611e-39
0.021910351 -0.0069393669 0.36399999 9.6873907e-39
0.023226002 -0.0069584316 0.36500001 1.3094303e-38
0.024481459 -0.0069584316 0.36500001 1.5030411e-38
0.025807425 -0.0069774953 0.366 1.6597732e-38
0.027066344 -0.0069774953 0.366 1.6782123e-38
0.028402634 -0.0069965599 0.36700001 1.6595554e-38
0.029745799 -0.0070156236 0.368 1.6318967e-38
0.031011574 -0.0070156236 0.368 1.6411175e-38
0.032365058 -0.0070346878 0.36899999 1.862387e-38
0.033725422 -0.0070537524 0.37 1.770152e-38
0.035187259 -0.0070918808 0.37200001 1.770152e-38
-0.0044783796 -0.0083813239 0.37200001 1.7795201e-38
-0.003198846 -0.0083813239 0.37200001 1.6781049e-38
-0.001914153 -0.0083587933 0.37099999 1.6595929e-38
-0.00063805905 -0.0083587933 0.37099999 1.7149103e-38
0.00063631503 -0.0083362628 0.37 1.7517876e-38
0.0019038339 -0.0083137322 0.36899999 1.7517876e-38
0.0031730486 -0.0083137322 0.36899999 1.742568e-38
0.0044302251 -0.0082912017 0.368 1.6964702e-38
0.0056960001 -0.0082912017 0.368 1.6687394e-38
0.0069428575 -0.008268672 0.36700001 1.6503002e-38
0.0082051931 -0.008268672 0.36700001 1.5674689e-38
0.0094417306 -0.0082461406 0.366 1.5582494e-38
0.010642177 -0.0082010794 0.36399999 1.26333e-38
0.011861518 -0.0081785498 0.36300001 9.9596265e-39
0.013110095 -0.0081785498 0.36300001 1.1156753e-38
0.014358672 -0.0081785498 0.36300001 1.3092861e-38
0.015607249 -0.0081785498 0.36300001 1.3373398e-38
0.016855827 -0.0081785498 0.36300001 1.4848528e-38
0.018104427 -0.0081785498 0.36300001 1.65048e-38
0.019353004 -0.0081785498 0.36300001 1.6781387e-38
0.020658335 -0.0082010794 0.36399999 1.6871797e-38
0.021910351 -0.0082010794 0.36399999 1.6963993e-38
0.023226002 -0.0082236109 0.36500001 1.7242012e-38
0.024481459 -0.0082236109 0.36500001 1.7518599e-38
0.025807425 -0.0082461406 0.366 1.7610066e-38
0.027066344 -0.0082461406 0.366 1.6780305e-38
0.028402634 -0.008268672 0.36700001 1.6504087e-38
0.029745799 -0.0082912017 0.368 1.6319696e-38
0.031011574 -0.0082912017 0.368 1.6319333e-38
0.032365058 -0.0083137322 0.36899999 1.7702267e-38
0.033725422 -0.0083362628 0.37 1.7793729e-38
0.035281844 -0.0084038535 0.373 1.7609337e-38
-0.0044783796 -0.0096707484 0.37200001 1.797959e-38
-0.003198846 -0.0096707484 0.37200001 1.7057633e-38
-0.0019193125 -0.0096707484 0.37200001 1.6873948e-38
-0.00063805905 -0.0096447514 0.37099999 1.6689557e-38
0.00063631503 -0.0096187545 0.37 1.6965062e-38
0.0019038339 -0.0095927576 0.36899999 1.6780671e-38
0.0031730486 -0.0095927576 0.36899999 1.6780684e-38
0.0044302251 -0.0095667616 0.368 1.6688488e-38
0.0056960001 -0.0095667616 0.368 1.6689204e-38
0.0069428575 -0.0095407655 0.36700001 1.6873595e-38
0.0082051931 -0.0095407655 0.36700001 1.6872516e-38
0.0094417306 -0.0095147677 0.366 1.7056908e-38
0.010671414 -0.0094887717 0.36500001 1.4844941e-38
0.011861518 -0.0094367787 0.36300001 1.6873245e-38
0.013110095 -0.0094367787 0.36300001 1.751717e-38
0.014358672 -0.0094367787 0.36300001 1.751717e-38
0.015607249 -0.0094367787 0.36300001 1.751716e-38
0.016855827 -0.0094367787 0.36300001 1.7332769e-38
0.018104427 -0.0094367787 0.36300001 1.7332763e-38
0.019353004 -0.0094367787 0.36300001 1.7056176e-38
0.020658335 -0.0094627747 0.36399999 1.6965065e-38
0.021910351 -0.0094627747 0.36399999 1.6872869e-38
0.023226002 -0.0094887717 0.36500001 1.7056898e-38
0.024481459 -0.0094887717 0.36500001 1.6688115e-38
0.025736915 -0.0094887717 0.36500001 1.6964699e-38
0.027066344 -0.0095147677 0.366 1.6964699e-38
0.028402634 -0.0095407655 0.36700001 1.6503368e-38
0.029664969 -0.0095407655 0.36700001 1.6134586e-38
0.031011574 -0.0095667616 0.368 1.5583933e-38
0.032277349 -0.0095667616 0.368 1.7704432e-38
0.033725422 -0.0096187545 0.37 1.7977404e-38
0.035281844 -0.0096967444 0.373 1.7608621e-38
-0.0044543021 -0.010901265 0.37 1.7980666e-38
-0.0031816477 -0.010901265 0.37 1.6044558e-38
-0.0019193125 -0.010960191 0.37200001 1.6779958e-38
-0.00063805905 -0.010930728 0.37099999 1.6503371e-38
0.00063631503 -0.010901265 0.37 1.6595567e-38
0.0019038339 -0.010871802 0.36899999 1.6964349e-38
0.0031730486 -0.010871802 0.36899999 1.6504813e-38
0.0044302251 -0.010842339 0.368 1.6320422e-38
0.0056960001 -0.010842339 0.368 1.641334e-38
0.0069428575 -0.010812877 0.36700001 1.6597732e-38
0.0082051931 -0.010812877 0.36700001 1.6688128e-38
0.0094417306 -0.010783413 0.366 1.6780324e-38
0.010671414 -0.010753951 0.36500001 1.5305916e-38
0.011894194 -0.010724488 0.36399999 1.6227873e-38
0.01314621 -0.010724488 0.36399999 1.6779968e-38
0.014398227 -0.010724488 0.36399999 1.6687772e-38
0.015650244 -0.010724488 0.36399999 1.6780324e-38
0.016855827 -0.010695025 0.36300001 1.6780324e-38
0.018104427 -0.010695025 0.36300001 1.6687396e-38
0.019406319 -0.010724488 0.36399999 1.641081e-38
0.020658335 -0.010724488 0.36399999 1.6595564e-38
0.021910351 -0.010724488 0.36399999 1.6595564e-38
0.023226002 -0.010753951 0.36500001 1.6596283e-38
0.024481459 -0.010753951 0.36500001 1.62275e-38
0.025736915 -0.010753951 0.36500001 1.6135665e-38
0.027066344 -0.010783413 0.366 1.6504447e-38
0.028402634 -0.010812877 0.36700001 1.6964687e-38
0.029664969 -0.010812877 0.36700001 1.8439817e-38
0.031011574 -0.010842339 0.368 1.9913518e-38
0.032277349 -0.010842339 0.368 1.8253996e-38
0.033725422 -0.010901265 0.37 1.8070315e-38
-0.0044181864 -0.012084989 0.36700001 1.9361448e-38
-0.0031472517 -0.012052059 0.366 1.82551e-38
-0.0018883557 -0.012052059 0.366 1.724022e-38
-0.00063977897 -0.012249635 0.37200001 1.7424611e-38
0.00063803483 -0.012216704 0.37099999 1.7056192e-38
0.0019089936 -0.012183776 0.37 1.7332778e-38
0.0031816477 -0.012183776 0.37 1.6964346e-38
0.0044422634 -0.012150845 0.36899999 1.6595564e-38
0.0056960001 -0.012117918 0.368 1.6504097e-38
0.006961775 -0.012117918 0.368 1.6596292e-38
0.0082051931 -0.012084989 0.36700001 1.6780324e-38
0.0094417306 -0.012052059 0.366 1.6964715e-38
0.010671414 -0.01201913 0.36500001 1.4661976e-38
0.011926871 -0.01201913 0.36500001 1.5676128e-38
0.01314621 -0.011986201 0.36399999 1.6227147e-38
0.014398227 -0.011986201 0.36399999 1.6411538e-38
0.015607249 -0.011953272 0.36300001 1.6595567e-38
0.016855827 -0.011953272 0.36300001 1.631898e-38
0.018154301 -0.011986201 0.36399999 1.6411172e-38
0.019406319 -0.011986201 0.36399999 1.604239e-38
0.020658335 -0.011986201 0.36399999 1.8162526e-38
0.021910351 -0.011986201 0.36399999 1.788594e-38
0.023226002 -0.01201913 0.36500001 1.825292e-38
0.024481459 -0.01201913 0.36500001 1.7976333e-38
0.025807425 -0.012052059 0.366 1.7332403e-38
0.027066344 -0.012052059 0.366 1.6687033e-38
0.028325241 -0.012052059 0.366 1.4013701e-38
0.029664969 -0.012084989 0.36700001 9.957093e-39
0.031011574 -0.012117918 0.368 4.970955e-39
0.032277349 -0.012117918 0.368 4.2334011e-39
0.033725422 -0.012183776 0.37 1.843619e-38
-0.0044181864 -0.013357082 0.36700001 2.3989459e-39
-0.0031472517 -0.013320686 0.366 6.9165318e-39
-0.0018883557 -0.013320686 0.366 8.0206541e-39
-0.00062945992 -0.013320686 0.366 8.7582191e-39
0.00063975464 -0.013539059 0.37200001 1.0236236e-38
0.0019089936 -0.013466268 0.37 1.1803562e-38
0.0031816477 -0.013466268 0.37 1.3001382e-38
0.0044543021 -0.013466268 0.37 1.281699e-38
0.0057114777 -0.013429872 0.36899999 1.2633322e-38
0.0069806925 -0.013429872 0.36899999 1.4108452e-38
0.0082051931 -0.013357082 0.36700001 1.5213721e-38
0.0094159348 -0.013284291 0.36500001 1.6596655e-38
0.010671414 -0.013284291 0.36500001 1.5397752e-38
0.011926871 -0.013284291 0.36500001 1.6965078e-38
0.01314621 -0.013247895 0.36399999 1.8253643e-38
0.014398227 -0.013247895 0.36399999 1.8069252e-38
0.015607249 -0.0132115 0.36300001 1.7885949e-38
0.016855827 -0.0132115 0.36300001 1.7701558e-38
0.018154301 -0.013247895 0.36399999 1.7146572e-38
0.019406319 -0.013247895 0.36399999 1.5026073e-38
0.020658335 -0.013247895 0.36399999 1.3456586e-38
0.021970546 -0.013284291 0.36500001 1.1336087e-38
0.023226002 -0.013284291 0.36500001 7.2776478e-39
0.024481459 -0.013284291 0.36500001 2.9444756e-39
0.025736915 -0.013284291 0.36500001 1.8402972e-40
0.027066344 -0.013320686 0.366 9.1835496e-41
0.028325241 -0.013320686 0.366 3.5873241e-43
0.029664969 -0.013357082 0.36700001 3.5873241e-43
0.031011574 -0.013393477 0.368 2.7661211e-40
0.032277349 -0.013393477 0.368 8.2978589e-40
0.033634271 -0.013429872 0.36899999 1.6596241e-38
0.034998078 -0.013466268 0.37 1.7610392e-38
0.036270756 -0.013466268 0.37 1.7333466e-38
-0.0044904179 -0.014868363 0.373 1.4740735e-39
-0.0031472517 -0.014589331 0.366 4.5992157e-40
-0.0018883557 -0.014589331 0.366 9.2927108e-41
-0.00062945992 -0.014589331 0.366 7.314778e-43
0.00063975464 -0.014828501 0.37200001 1.5414283e-44
0.001914153 -0.014788639 0.37099999 1.5414283e-44
0.0031816477 -0.014748778 0.37 5.6051939e-45
0.0044543021 -0.014748778 0.37 5.6051939e-45
0.0057269563 -0.014748778 0.37 1.2611686e-44
0.0069996109 -0.014748778 0.37 9.2208242e-41
0.0082499068 -0.014708916 0.36899999 3.0828566e-44
0.0094159348 -0.014549471 0.36500001 1.8406336e-40
0.010671414 -0.014549471 0.36500001 9.6521438e-41
0.011926871 -0.014549471 0.36500001 8.1175412e-39
0.01314621 -0.014509608 0.36399999 9.0351591e-39
0.014398227 -0.014509608 0.36399999 6.1770946e-39
0.015607249 -0.014469747 0.36300001 6.2649868e-39
0.016855827 -0.014469747 0.36300001 2.3005747e-39
0.018154301 -0.014509608 0.36399999 1.8402972e-40
0.019406319 -0.014509608 0.36399999 9.1835496e-41
0.020658335 -0.014509608 0.36399999 2.8025969e-45
0.021970546 -0.014549471 0.36500001 2.8025969e-45
0.023226002 -0.014549471 0.36500001 9.2921502e-41
0.024481459 -0.014549471 0.36500001 6.4609528e-40
0.025736915 -0.014549471 0.36500001 1.1985432e-39
0.027066344 -0.014589331 0.366 1.4751301e-39
0.028325241 -0.014589331 0.366 1.3825841e-39
0.029664969 -0.014629194 0.36700001 1.7513666e-39
0.031011574 -0.014669055 0.368 1.5684369e-39
0.032277349 -0.014669055 0.368 9.330686e-41
0.033634271 -0.014708916 0.36899999 1.5397358e-38
0.034998078 -0.014748778 0.37 1.7702249e-38
0.036270756 -0.014748778 0.37 1.7241274e-38
-0.0044904179 -0.016161254 0.373 1.8450238e-39
-0.0032074449 -0.016161254 0.373 1.8450238e-39
-0.0019193125 -0.016117927 0.37200001 1.569146e-39
-0.00063977897 -0.016117927 0.37200001 1.4769504e-39
0.00063975464 -0.016117927 0.37200001 1.3847547e-39
0.001914153 -0.016074598 0.37099999 1.3847547e-39
0.0031816477 -0.016031271 0.37 1.2925591e-39
0.0044543021 -0.016031271 0.37 1.3847547e-39
0.0057269563 -0.016031271 0.37 1.1996572e-39
0.0069996109 -0.016031271 0.37 1.015266e-39
0.0082722651 -0.016031271 0.37 1.3818779e-39
0.0095449192 -0.016031271 0.37 1.2896822e-39
0.010671414 -0.015814632 0.36500001 1.1060098e-39
0.011926871 -0.015814632 0.36500001 1.8405355e-40
0.013182327 -0.015814632 0.36500001 7.314778e-43
0.014398227 -0.015771303 0.36399999 2.7731837e-40
0.015607249 -0.015727976 0.36300001 3.69521e-40
0.016855827 -0.015727976 0.36300001 8.3049915e-40
0.018154301 -0.015771303 0.36399999 1.7506604e-39
0.019406319 -0.015771303 0.36399999 1.842856e-39
0.020658335 -0.015771303 0.36399999 1.4762441e-39
0.021910351 -0.015771303 0.36399999 1.3840485e-39
0.023162369 -0.015771303 0.36399999 1.2925591e-39
0.024414385 -0.015771303 0.36399999 1.2925591e-39
0.025736915 -0.015814632 0.36500001 1.6584648e-39
0.026992396 -0.015814632 0.36500001 1.4740735e-39
0.028325241 -0.015857959 0.366 1.2929094e-39
0.029584136 -0.015857959 0.366 1.2007138e-39
0.031011574 -0.015944615 0.368 1.3833464e-39
0.032277349 -0.015944615 0.368 9.2607612e-41
0.033634271 -0.015987942 0.36899999 1.521297e-38
0.034998078 -0.016031271 0.37 1.7517861e-38
0.036270756 -0.016031271 0.37 1.7332743e-38
-0.0045024566 -0.017500957 0.37400001 2.0301241e-39
-0.0032074449 -0.017454162 0.373 1.7535373e-39
-0.0019244718 -0.017454162 0.373 1.6613416e-39
-0.00063977897 -0.017407369 0.37200001 1.2925591e-39
0.00063975464 -0.017407369 0.37200001 1.2925591e-39
0.0019193125 -0.017407369 0.37200001 1.3847547e-39
0.0031902469 -0.017360574 0.37099999 1.2925591e-39
0.0044543021 -0.01731378 0.37 1.2003635e-39
0.0057269563 -0.01731378 0.37 1.2925591e-39
0.0069996109 -0.01731378 0.37 1.2003635e-39
0.0082722651 -0.01731378 0.37 1.2925591e-39
0.0095191216 -0.017266985 0.36899999 1.2925591e-39
0.010759125 -0.017220192 0.368 1.2925591e-39
0.0120249 -0.017220192 0.368 1.2925591e-39
0.013182327 -0.017079812 0.36500001 1.3847547e-39
0.014437784 -0.017079812 0.36500001 1.2925591e-39
0.015650244 -0.017033016 0.36399999 1.4769504e-39
0.01690226 -0.017033016 0.36399999 1.569146e-39
0.018154301 -0.017033016 0.36399999 1.4772979e-39
0.019406319 -0.017033016 0.36399999 1.3851023e-39
0.020658335 -0.017033016 0.36399999 1.2925591e-39
0.021910351 -0.017033016 0.36399999 1.2925591e-39
0.023162369 -0.017033016 0.36399999 1.2929094e-39
0.024414385 -0.017033016 0.36399999 1.2007138e-39
0.025736915 -0.017079812 0.36500001 1.200711e-39
0.026992396 -0.017079812 0.36500001 1.0163197e-39
0.028325241 -0.017126605 0.366 1.2003635e-39
0.029584136 -0.017126605 0.366 1.2003635e-39
0.031011574 -0.017220192 0.368 1.2911508e-39
0.032277349 -0.017220192 0.368 4.1198175e-43
0.033634271 -0.017266985 0.36899999 1.5673948e-38
0.034998078 -0.01731378 0.37 1.7517861e-38
0.036270756 -0.01731378 0.37 1.7057589e-38
-0.0032074449 -0.018747052 0.373 1.7535373e-39
-0.0019244718 -0.018747052 0.373 1.5684369e-39
-0.00063977897 -0.018696794 0.37200001 1.5684369e-39
0.00063975464 -0.018696794 0.37200001 1.3840485e-39
0.0019193125 -0.018696794 0.37200001 1.3840485e-39
0.0031902469 -0.018646533 0.37099999 1.2925591e-39
0.0044543021 -0.018596273 0.37 1.2925591e-39
0.0057269563 -0.018596273 0.37 1.1996572e-39
0.0069996109 -0.018596273 0.37 1.1996572e-39
0.0082722651 -0.018596273 0.37 1.2925591e-39
0.0095191216 -0.018546011 0.36899999 1.2003635e-39
0.010759125 -0.018495752 0.368 1.1996572e-39
0.0120249 -0.018495752 0.368 1.2918529e-39
0.013218442 -0.018395232 0.366 1.3851023e-39
0.014437784 -0.018344972 0.36500001 1.3851023e-39
0.015650244 -0.018294711 0.36399999 1.4769504e-39
0.01690226 -0.018294711 0.36399999 1.4769504e-39
0.018154301 -0.018294711 0.36399999 1.3851023e-39
0.019406319 -0.018294711 0.36399999 1.3851023e-39
0.020658335 -0.018294711 0.36399999 1.7513666e-39
0.021910351 -0.018294711 0.36399999 1.659171e-39
0.023098735 -0.018244451 0.36300001 1.2003635e-39
0.024347313 -0.018244451 0.36300001 9.2377659e-40
0.025736915 -0.018344972 0.36500001 1.200711e-39
0.026992396 -0.018344972 0.36500001 1.200711e-39
0.028325241 -0.018395232 0.366 1.2003635e-39
0.029584136 -0.018395232 0.366 1.2925591e-39
0.031011574 -0.018495752 0.368 1.3833464e-39
0.032277349 -0.018495752 0.368 4.1198175e-43
0.033634271 -0.018546011 0.36899999 1.6043081e-38
0.034998078 -0.018596273 0.37 1.7426015e-38
0.036270756 -0.018596273 0.37 1.7149784e-38
-0.0032074449 -0.020039963 0.373 2.3038342e-39
-0.0019244718 -0.020039963 0.373 1.7528282e-39
-0.00063977897 -0.019986236 0.37200001 1.7528282e-39
0.00063975464 -0.019986236 0.37200001 1.569146e-39
0.0019193125 -0.019986236 0.37200001 1.4769504e-39
0.0031902469 -0.019932508 0.37099999 1.3847547e-39
0.0044543021 -0.019878782 0.37 1.3847547e-39
0.0057269563 -0.019878782 0.37 1.3840485e-39
0.0069996109 -0.019878782 0.37 1.3840485e-39
0.0082499068 -0.019825056 0.36899999 1.1996572e-39
0.0095191216 -0.019825056 0.36899999 1.1996572e-39
0.010759125 -0.01977133 0.368 1.2925591e-39
0.0120249 -0.01977133 0.368 1.2925591e-39
0.013218442 -0.019663876 0.366 1.2925591e-39
0.014437784 -0.019610152 0.36500001 1.3847547e-39
0.01569324 -0.019610152 0.36500001 1.4762441e-39
0.01690226 -0.019556424 0.36399999 1.3840485e-39
0.018154301 -0.019556424 0.36399999 1.3847547e-39
0.019406319 -0.019556424 0.36399999 1.2925591e-39
0.020658335 -0.019556424 0.36399999 1.2925591e-39
0.021910351 -0.019556424 0.36399999 1.2925591e-39
0.023098735 -0.019502698 0.36300001 1.2003635e-39
0.024347313 -0.019502698 0.36300001 1.2003635e-39
0.025736915 -0.019610152 0.36500001 1.2929094e-39
0.026992396 -0.019610152 0.36500001 1.2929094e-39
0.028325241 -0.019663876 0.366 1.2925591e-39
0.029584136 -0.019663876 0.366 1.2925591e-39
0.031011574 -0.01977133 0.368 1.4755421e-39
0.032277349 -0.01977133 0.368 5.1848043e-44
0.033634271 -0.019825056 0.36899999 1.5766134e-38
0.034998078 -0.019878782 0.37 1.7241264e-38
0.036270756 -0.019878782 0.37 1.6872488e-38
-0.0045265341 -0.02150443 0.37599999 1.569146e-39
-0.0032332421 -0.02150443 0.37599999 1.569146e-39
-0.0019244718 -0.021332853 0.373 1.6613416e-39
-0.00064149871 -0.021332853 0.373 1.6613416e-39
0.00063975464 -0.021275662 0.37200001 1.5684369e-39
0.0019193125 -0.021275662 0.37200001 1.4762413e-39
0.0031902469 -0.021218468 0.37099999 2.0272473e-39
0.0044543021 -0.021161275 0.37 2.0272473e-39
0.0057269563 -0.021161275 0.37 1.4762441e-39
0.0069806925 -0.021104081 0.36899999 1.4762441e-39
0.0082499068 -0.021104081 0.36899999 1.4762441e-39
0.0094933258 -0.02104689 0.368 1.4762441e-39
0.010759125 -0.02104689 0.368 1.2925591e-39
0.0120249 -0.02104689 0.368 1.0159722e-39
0.013254559 -0.020989697 0.36700001 1.3847547e-39
0.014437784 -0.020875312 0.36500001 1.2925591e-39
0.01569324 -0.020875312 0.36500001 1.3840485e-39
0.01690226 -0.020818118 0.36399999 1.3840485e-39
0.018154301 -0.020818118 0.36399999 1.3847547e-39
0.019406319 -0.020818118 0.36399999 1.3847547e-39
0.020658335 -0.020818118 0.36399999 1.2003635e-39
0.021910351 -0.020818118 0.36399999 1.2925591e-39
0.023162369 -0.020818118 0.36399999 1.2925591e-39
0.024414385 -0.020818118 0.36399999 1.2003635e-39
0.025736915 -0.020875312 0.36500001 1.200711e-39
0.026992396 -0.020875312 0.36500001 1.200711e-39
0.028325241 -0.020932505 0.366 1.2925591e-39
0.029584136 -0.020932505 0.366 1.2925591e-39
0.030927304 -0.020989697 0.36700001 1.5677377e-39
0.032277349 -0.02104689 0.368 5.0446745e-44
0.033634271 -0.021104081 0.36899999 1.5212604e-38
0.034998078 -0.021161275 0.37 1.7333104e-38
-0.0058353171 -0.022868399 0.377 2.3974521e-39
-0.0045265341 -0.022807738 0.37599999 1.4762441e-39
-0.0032332421 -0.022807738 0.37599999 1.4762441e-39
-0.0019296313 -0.022686422 0.37400001 1.4769504e-39
-0.00064149871 -0.022625761 0.373 1.569146e-39
0.00063975464 -0.022565104 0.37200001 1.4762441e-39
0.0019193125 -0.022565104 0.37200001 1.6606354e-39
0.0031816477 -0.022443786 0.37 1.5684369e-39
0.0044543021 -0.022443786 0.37 1.4762413e-39
0.0057269563 -0.022443786 0.37 1.4762441e-39
0.0069806925 -0.022383125 0.36899999 1.5684397e-39
0.0082499068 -0.022383125 0.36899999 1.4762441e-39
0.0094933258 -0.022322468 0.368 1.4762441e-39
0.010759125 -0.022322468 0.368 1.2925591e-39
0.011992224 -0.02226181 0.36700001 1.0159722e-39
0.013254559 -0.02226181 0.36700001 1.3847547e-39
0.014437784 -0.022140492 0.36500001 1.2925591e-39
0.01569324 -0.022140492 0.36500001 1.3847547e-39
0.016948696 -0.022140492 0.36500001 1.4769504e-39
0.018154301 -0.022079831 0.36399999 1.4769504e-39
0.019406319 -0.022079831 0.36399999 1.3847547e-39
0.020658335 -0.022079831 0.36399999 1.7513666e-39
0.021910351 -0.022079831 0.36399999 1.7513666e-39
0.023162369 -0.022079831 0.36399999 1.2925591e-39
0.024481459 -0.022140492 0.36500001 1.2003635e-39
0.025736915 -0.022140492 0.36500001 1.200711e-39
0.026992396 -0.022140492 0.36500001 9.2412411e-40
0.028325241 -0.022201149 0.366 1.200711e-39
0.029584136 -0.022201149 0.366 9.2412411e-40
0.030927304 -0.02226181 0.36700001 1.4762441e-39
0.032277349 -0.022322468 0.368 7.5389857e-43
0.033634271 -0.022383125 0.36899999 1.4936383e-38
0.034998078 -0.022443786 0.37 1.6964687e-38
-0.0058353171 -0.024175173 0.377 2.4896449e-39
-0.0045385729 -0.024175173 0.377 2.026897e-39
-0.0032246432 -0.024046922 0.375 1.7503101e-39
-0.0019347908 -0.024046922 0.375 1.2925591e-39
-0.00064321858 -0.023982797 0.37400001 1.3847547e-39
0.00064319413 -0.023982797 0.37400001 1.6613416e-39
0.0019244718 -0.023918672 0.373 1.6613416e-39
0.0031816477 -0.023726296 0.37 1.5684369e-39
0.0044543021 -0.023726296 0.37 1.3840457e-39
0.0057269563 -0.023726296 0.37 1.569146e-39
0.0069806925 -0.02366217 0.36899999 1.569146e-39
0.0082275504 -0.023598045 0.368 1.569146e-39
0.0094933258 -0.023598045 0.368 1.4769504e-39
0.010729888 -0.023533922 0.36700001 1.3847547e-39
0.011992224 -0.023533922 0.36700001 1.2003635e-39
0.013218442 -0.023469795 0.366 1.3847547e-39
0.014437784 -0.023405671 0.36500001 1.4769504e-39
0.01569324 -0.023405671 0.36500001 1.4769504e-39
0.016948696 -0.023405671 0.36500001 1.569146e-39
0.018204177 -0.023405671 0.36500001 1.4769504e-39
0.019406319 -0.023341544 0.36399999 1.4769504e-39
0.020658335 -0.023341544 0.36399999 1.3851023e-39
0.021910351 -0.023341544 0.36399999 1.2929066e-39
0.023162369 -0.023341544 0.36399999 1.2925591e-39
0.024481459 -0.023405671 0.36500001 1.2925591e-39
0.025736915 -0.023405671 0.36500001 1.200711e-39
0.026992396 -0.023405671 0.36500001 1.200711e-39
0.028325241 -0.023469795 0.366 1.200711e-39
0.029584136 -0.023469795 0.366 1.2929066e-39
0.030927304 -0.023533922 0.36700001 1.5677377e-39
0.032277349 -0.023598045 0.368 9.2607612e-41
0.033634271 -0.02366217 0.36899999 1.4567963e-38
0.035092667 -0.023790421 0.37099999 1.696505e-38
-0.0058353171 -0.025481928 0.377 2.674039e-39
-0.0045265341 -0.025414335 0.37599999 1.8450238e-39
-0.0032246432 -0.025346745 0.375 1.6606326e-39
-0.0019296313 -0.025279155 0.37400001 1.569146e-39
-0.00064321858 -0.025279155 0.37400001 1.2925591e-39
0.00064319413 -0.025279155 0.37400001 1.4762441e-39
0.0019244718 -0.025211561 0.373 1.6606354e-39
0.0031816477 -0.025008788 0.37 1.6613416e-39
0.0044543021 -0.025008788 0.37 1.569146e-39
0.0057269563 -0.025008788 0.37 1.569146e-39
0.0069996109 -0.025008788 0.37 1.4769504e-39
0.0082275504 -0.024873605 0.368 1.4769504e-39
0.0094933258 -0.024873605 0.368 1.3847547e-39
0.010729888 -0.024806015 0.36700001 1.4769504e-39
0.011992224 -0.024806015 0.36700001 1.2003635e-39
0.013218442 -0.024738422 0.366 1.3847547e-39
0.014477338 -0.024738422 0.366 1.3847547e-39
0.01569324 -0.024670832 0.36500001 1.3847547e-39
0.016948696 -0.024670832 0.36500001 1.4769504e-39
0.018204177 -0.024670832 0.36500001 1.3847547e-39
0.019406319 -0.024603238 0.36399999 1.3847547e-39
0.020658335 -0.024603238 0.36399999 1.659171e-39
0.021910351 -0.024603238 0.36399999 1.7513666e-39
0.023226002 -0.024670832 0.36500001 1.2925591e-39
0.024481459 -0.024670832 0.36500001 1.2925591e-39
0.025736915 -0.024670832 0.36500001 1.2929094e-39
0.026992396 -0.024670832 0.36500001 1.2929094e-39
0.028325241 -0.024738422 0.366 1.2929094e-39
0.029584136 -0.024738422 0.366 1.2929094e-39
0.030927304 -0.024806015 0.36700001 1.2918529e-39
0.032277349 -0.024873605 0.368 1.6606354e-39
0.033634271 -0.024941195 0.36899999 1.5397358e-38
0.035092667 -0.025076378 0.37099999 1.6780293e-38
-0.005819838 -0.026717642 0.37599999 2.8580673e-39
-0.0045144954 -0.026646586 0.375 1.9379285e-39
-0.0032246432 -0.026646586 0.375 1.569146e-39
-0.0019296313 -0.02657553 0.37400001 1.7535373e-39
-0.00064321858 -0.02657553 0.37400001 1.569146e-39
0.00064319413 -0.02657553 0.37400001 1.3847547e-39
0.0019296313 -0.02657553 0.37400001 1.3847547e-39
0.0032074449 -0.02650447 0.373 1.4769504e-39
0.0044783796 -0.026433414 0.37200001 1.4769504e-39
0.0057424344 -0.026362356 0.37099999 1.569146e-39
0.0069996109 -0.0262913 0.37 1.569146e-39
0.0082499068 -0.02622024 0.36899999 1.569146e-39
0.0094933258 -0.026149184 0.368 1.4769504e-39
0.010759125 -0.026149184 0.368 1.4772979e-39
0.011992224 -0.026078127 0.36700001 1.200711e-39
0.013254559 -0.026078127 0.36700001 1.3847547e-39
0.014477338 -0.026007067 0.366 1.3847547e-39
0.01569324 -0.025936011 0.36500001 1.3851023e-39
0.016948696 -0.025936011 0.36500001 1.2929066e-39
0.018204177 -0.025936011 0.36500001 1.7506604e-39
0.019406319 -0.025864951 0.36399999 1.7506604e-39
0.020658335 -0.025864951 0.36399999 1.2003635e-39
0.021970546 -0.025936011 0.36500001 1.2925591e-39
0.023226002 -0.025936011 0.36500001 1.2925591e-39
0.024481459 -0.025936011 0.36500001 1.2003635e-39
0.025736915 -0.025936011 0.36500001 1.7513666e-39
0.026992396 -0.025936011 0.36500001 1.659171e-39
0.028325241 -0.026007067 0.366 1.3851023e-39
0.029584136 -0.026007067 0.366 1.5694935e-39
0.030927304 -0.026078127 0.36700001 1.0159722e-39
0.032277349 -0.026149184 0.368 1.4769504e-39
0.033634271 -0.02622024 0.36899999 1.5582105e-38
-0.005819838 -0.028020931 0.37599999 2.3996199e-39
-0.0045144954 -0.027946409 0.375 1.9379285e-39
-0.0032246432 -0.027946409 0.375 1.6613416e-39
-0.0019296313 -0.027871886 0.37400001 1.5694935e-39
-0.00064321858 -0.027871886 0.37400001 1.5694935e-39
0.00064319413 -0.027871886 0.37400001 1.3840485e-39
0.0019296313 -0.027871886 0.37400001 1.3840485e-39
0.003198846 -0.027722839 0.37200001 1.3847547e-39
0.0044783796 -0.027722839 0.37200001 1.2925591e-39
0.0057424344 -0.027648313 0.37099999 1.3847547e-39
0.0069996109 -0.02757379 0.37 1.569146e-39
0.0082722651 -0.02757379 0.37 1.4769504e-39
0.0095191216 -0.027499266 0.36899999 1.4769504e-39
0.010759125 -0.027424743 0.368 1.4762441e-39
0.011992224 -0.027350221 0.36700001 1.2918529e-39
0.013254559 -0.027350221 0.36700001 1.3847547e-39
0.014477338 -0.027275695 0.366 1.3847547e-39
0.015736233 -0.027275695 0.366 1.2925591e-39
0.016948696 -0.027201172 0.36500001 1.2003635e-39
0.018204177 -0.027201172 0.36500001 1.2925591e-39
0.019459633 -0.027201172 0.36500001 1.2925591e-39
0.02071509 -0.027201172 0.36500001 1.2925591e-39
0.021970546 -0.027201172 0.36500001 1.2925591e-39
0.023226002 -0.027201172 0.36500001 1.2925591e-39
0.024481459 -0.027201172 0.36500001 1.2925591e-39
0.025736915 -0.027201172 0.36500001 1.2929094e-39
0.026992396 -0.027201172 0.36500001 1.3851051e-39
0.028325241 -0.027275695 0.366 1.2929094e-39
0.029584136 -0.027275695 0.366 1.5694963e-39
0.030927304 -0.027350221 0.36700001 1.0159722e-39
0.032277349 -0.027424743 0.368 1.8457329e-39
0.033634271 -0.027499266 0.36899999 1.521297e-38
0.034998078 -0.02757379 0.37 1.6780295e-38
-0.005819838 -0.029324241 0.37599999 3.0403174e-39
-0.0045144954 -0.029246252 0.375 1.8457329e-39
-0.0032246432 -0.029246252 0.375 1.6613416e-39
-0.0019347908 -0.029246252 0.375 1.3851023e-39
-0.00064321858 -0.029168263 0.37400001 1.5694935e-39
0.00064319413 -0.029168263 0.37400001 1.569146e-39
0.0019244718 -0.02909027 0.373 1.4769504e-39
0.003198846 -0.029012281 0.37200001 1.9350516e-39
0.0044783796 -0.029012281 0.37200001 1.842856e-39
0.005757913 -0.029012281 0.37200001 1.3847547e-39
0.0069996109 -0.028856302 0.37 1.3847547e-39
0.0082722651 -0.028856302 0.37 1.3847547e-39
0.0095449192 -0.028856302 0.37 1.3847547e-39
0.010788361 -0.028778309 0.36899999 1.2925591e-39
0.0120249 -0.02870032 0.368 1.2925591e-39
0.013254559 -0.028622331 0.36700001 1.3847547e-39
0.014477338 -0.02854434 0.366 1.4769504e-39
0.015736233 -0.02854434 0.366 1.3847547e-39
0.016948696 -0.028466351 0.36500001 1.2925591e-39
0.018204177 -0.028466351 0.36500001 1.3847547e-39
0.019459633 -0.028466351 0.36500001 1.3847547e-39
0.02071509 -0.028466351 0.36500001 1.3847547e-39
0.021970546 -0.028466351 0.36500001 1.3847547e-39
0.023226002 -0.028466351 0.36500001 1.3847547e-39
0.024481459 -0.028466351 0.36500001 1.2925591e-39
0.025736915 -0.028466351 0.36500001 1.2929094e-39
0.026992396 -0.028466351 0.36500001 1.2929094e-39
0.028325241 -0.02854434 0.366 1.3851023e-39
0.029584136 -0.02854434 0.366 1.4772979e-39
0.030927304 -0.028622331 0.36700001 1.0159722e-39
0.032277349 -0.02870032 0.368 1.8457329e-39
0.033725422 -0.028856302 0.37 1.5949453e-38
0.034998078 -0.028856302 0.37 1.6594822e-38
-0.005819838 -0.03062753 0.37599999 1.5705529e-39
-0.0045265341 -0.03062753 0.37599999 2.1201618e-39
-0.0032246432 -0.030546075 0.375 1.7513793e-39
-0.0019347908 -0.030546075 0.375 1.4772979e-39
-0.00064321858 -0.030464619 0.37400001 1.5694935e-39
0.00064147433 -0.030383162 0.373 1.6613416e-39
0.0019193125 -0.030301707 0.37200001 1.569146e-39
0.003198846 -0.030301707 0.37200001 1.4769504e-39
0.0044783796 -0.030301707 0.37200001 1.3847547e-39
0.005757913 -0.030301707 0.37200001 1.2925591e-39
0.0070185284 -0.030220248 0.37099999 1.2925591e-39
0.0082722651 -0.030138792 0.37 1.3847547e-39
0.0095449192 -0.030138792 0.37 1.2925591e-39
0.010788361 -0.030057335 0.36899999 1.7506604e-39
0.0120249 -0.02997588 0.368 1.7506604e-39
0.013254559 -0.029894425 0.36700001 1.3851023e-39
0.014477338 -0.029812967 0.366 1.3851023e-39
0.015736233 -0.029812967 0.366 1.2925591e-39
0.016948696 -0.029731512 0.36500001 1.2003635e-39
0.018204177 -0.029731512 0.36500001 1.2929094e-39
0.019459633 -0.029731512 0.36500001 1.2929094e-39
0.02071509 -0.029731512 0.36500001 1.2925591e-39
0.021970546 -0.029731512 0.36500001 1.2925591e-39
0.023226002 -0.029731512 0.36500001 2.0272473e-39
0.024481459 -0.029731512 0.36500001 1.6584648e-39
0.025736915 -0.029731512 0.36500001 1.659171e-39
0.027066344 -0.029812967 0.366 1.7513666e-39
0.028325241 -0.029812967 0.366 1.200711e-39
0.029584136 -0.029812967 0.366 1.3851023e-39
0.030927304 -0.029894425 0.36700001 1.8693742e-40
0.032277349 -0.02997588 0.368 2.03085e-39
0.033725422 -0.030138792 0.37 1.5764709e-38
-0.005819838 -0.031930838 0.37599999 2.1523944e-42
-0.0045265341 -0.031930838 0.37599999 1.0761972e-42
-0.0032246432 -0.031845916 0.375 1.0761972e-42
-0.0019347908 -0.031845916 0.375 3.5873241e-43
-0.00064321858 -0.031760994 0.37400001 1.1992593e-39
0.00064147433 -0.031676069 0.373 1.8457329e-39
0.0019193125 -0.031591151 0.37200001 1.4769504e-39
0.003198846 -0.031591151 0.37200001 1.569146e-39
0.0044783796 -0.031591151 0.37200001 1.2925591e-39
0.005757913 -0.031591151 0.37200001 1.4769504e-39
0.0070185284 -0.031506225 0.37099999 1.4769504e-39
0.0082722651 -0.031421304 0.37 1.2929094e-39
0.0095191216 -0.031336378 0.36899999 1.0163225e-39
0.010788361 -0.031336378 0.36899999 1.2003635e-39
0.0120249 -0.031251457 0.368 1.0159722e-39
0.013254559 -0.031166537 0.36700001 1.7506604e-39
0.014516895 -0.031166537 0.36700001 1.7506604e-39
0.015736233 -0.031081613 0.366 1.2003635e-39
0.01699513 -0.031081613 0.366 1.2003635e-39
0.018254049 -0.031081613 0.366 1.200711e-39
0.019459633 -0.030996691 0.36500001 1.2929066e-39
0.02071509 -0.030996691 0.36500001 1.2925591e-39
0.021970546 -0.030996691 0.36500001 1.2003635e-39
0.023226002 -0.030996691 0.36500001 1.200711e-39
0.024481459 -0.030996691 0.36500001 1.200711e-39
0.025736915 -0.030996691 0.36500001 1.2925591e-39
0.027066344 -0.031081613 0.366 1.2003635e-39
0.028325241 -0.031081613 0.366 1.2929094e-39
0.029584136 -0.031081613 0.366 1.2007138e-39
0.030927304 -0.031166537 0.36700001 1.7553421e-39
0.032277349 -0.031251457 0.368 1.0329536e-38
0.033816572 -0.031506225 0.37099999 1.668811e-38
-0.0032246432 -0.033145741 0.375 1.908377e-38
-0.0019347908 -0.033145741 0.375 8.8583951e-39
-0.00064493844 -0.033145741 0.375 3.6531851e-42
0.00064491387 -0.033145741 0.375 1.9379285e-39
0.0019193125 -0.032880574 0.37200001 1.6613416e-39
0.003198846 -0.032880574 0.37200001 1.569146e-39
0.0044783796 -0.032880574 0.37200001 1.3847547e-39
0.005757913 -0.032880574 0.37200001 1.3847547e-39
0.0070374468 -0.032880574 0.37200001 1.4769504e-39
0.0082722651 -0.032703795 0.37 1.2929094e-39
0.0095191216 -0.032615405 0.36899999 1.2929094e-39
0.010759125 -0.032527018 0.368 1.2925591e-39
0.0120249 -0.032527018 0.368 1.2925591e-39
0.013254559 -0.032438632 0.36700001 1.2925591e-39
0.014516895 -0.032438632 0.36700001 1.2003635e-39
0.015736233 -0.032350238 0.366 1.5669754e-39
0.01699513 -0.032350238 0.366 1.659171e-39
0.018254049 -0.032350238 0.366 1.200711e-39
0.019459633 -0.032261852 0.36500001 1.0163197e-39
0.02071509 -0.032261852 0.36500001 1.3818779e-39
0.021970546 -0.032261852 0.36500001 1.4740735e-39
0.023226002 -0.032261852 0.36500001 1.3825841e-39
0.024481459 -0.032261852 0.36500001 1.2903885e-39
0.025736915 -0.032261852 0.36500001 9.2377659e-40
0.027066344 -0.032350238 0.366 6.471897e-40
0.028325241 -0.032350238 0.366 9.2412411e-40
0.029664969 -0.032438632 0.36700001 1.8655907e-40
0.030927304 -0.032438632 0.36700001 2.6758411e-39
0.032540478 -0.032792185 0.37099999 1.4476882e-38
0.033816572 -0.032792185 0.37099999 1.5585352e-38
-0.0033192327 -0.035455983 0.38600001 2.341769e-38
-0.0019863851 -0.035364129 0.38499999 1.6594523e-38
-0.00066213676 -0.035364129 0.38499999 2.6624671e-44
0.00063975464 -0.034170017 0.37200001 1.6613416e-39
0.0019193125 -0.034170017 0.37200001 1.2003635e-39
0.003198846 -0.034170017 0.37200001 1.6584648e-39
0.0044783796 -0.034170017 0.37200001 1.4740735e-39
0.005757913 -0.034170017 0.37200001 1.3825841e-39
0.0070374468 -0.034170017 0.37200001 1.2903885e-39
0.0083169807 -0.034170017 0.37200001 1.3825841e-39
0.0095191216 -0.033894449 0.36899999 1.3825841e-39
0.010759125 -0.033802595 0.368 1.0163197e-39
0.0120249 -0.033802595 0.368 9.2412411e-40
0.013254559 -0.033710741 0.36700001 1.0159722e-39
0.014477338 -0.033618886 0.366 9.2377659e-40
0.015736233 -0.033618886 0.366 9.2412411e-40
0.01699513 -0.033618886 0.366 7.3973285e-40
0.018254049 -0.033618886 0.366 1.1981929e-39
0.019459633 -0.033527032 0.36500001 1.1059972e-39
0.02071509 -0.033527032 0.36500001 1.1059972e-39
0.021970546 -0.033527032 0.36500001 1.1059972e-39
0.023226002 -0.033527032 0.36500001 8.3120821e-40
0.024883891 -0.034078158 0.37099999 6.4681695e-40
0.026159985 -0.034078158 0.37099999 5.5499126e-40
0.027436104 -0.034078158 0.37099999 6.4718689e-40
0.028712198 -0.034078158 0.37099999 8.3120821e-40
0.030069124 -0.034170017 0.37200001 6.4681695e-40
0.031348657 -0.034170017 0.37200001 2.1204995e-39
0.03262819 -0.034170017 0.37200001 1.5857648e-38
0.033998873 -0.034261871 0.373 1.6503346e-38
-0.0046589593 -0.036889274 0.38699999 2.3141103e-38
-0.0033192327 -0.036793955 0.38600001 2.341769e-38
-0.0019863851 -0.036698632 0.38499999 1.54885e-38
-0.00066213676 -0.036698632 0.38499999 9.1835496e-41
0.00066211156 -0.036698632 0.38499999 1.3847547e-39
0.0019709067 -0.036412671 0.382 1.2003635e-39
0.0032848364 -0.036412671 0.382 1.0163197e-39
0.0045867278 -0.036317348 0.38100001 8.3192848e-40
0.0058972179 -0.036317348 0.38100001 9.2340384e-40
0.0071887895 -0.036222029 0.38 8.3120821e-40
0.0084958402 -0.036222029 0.38 8.3120821e-40
0.00980289 -0.036222029 0.38 6.4681695e-40
0.010759125 -0.035078175 0.368 8.3120821e-40
0.0120249 -0.035078175 0.368 8.3120821e-40
0.013471254 -0.035554778 0.373 7.3938533e-40
0.014477338 -0.03488753 0.366 7.3938533e-40
0.015736233 -0.03488753 0.366 6.4681695e-40
0.01699513 -0.03488753 0.366 5.5462132e-40
0.018653046 -0.035650104 0.37400001 4.6242569e-40
0.019459633 -0.034792211 0.36500001 5.5462132e-40
0.02071509 -0.034792211 0.36500001 9.2160597e-40
0.022391899 -0.035459459 0.37200001 1.1059972e-39
0.023607798 -0.035364136 0.37099999 8.3120821e-40
0.024883891 -0.035364136 0.37099999 6.4681695e-40
0.026159985 -0.035364136 0.37099999 8.3120821e-40
0.027436104 -0.035364136 0.37099999 9.2340384e-40
0.028712198 -0.035364136 0.37099999 9.2412411e-40
0.029988291 -0.035364136 0.37099999 1.2929066e-39
0.031348657 -0.035459459 0.37200001 1.84757e-40
0.03262819 -0.035459459 0.37200001 1.447508e-38
0.033998873 -0.035554778 0.373 1.631967e-38
0.035376437 -0.035650104 0.37400001 1.5858692e-38
-0.0046589593 -0.038230691 0.38699999 2.3141103e-38
-0.0033192327 -0.038131904 0.38600001 2.341769e-38
-0.0019863851 -0.038033117 0.38499999 1.4658739e-38
-0.00066213676 -0.038033117 0.38499999 9.1835496e-41
0.00066211156 -0.038033117 0.38499999 1.569146e-39
0.0019709067 -0.037736759 0.382 1.0159722e-39
0.0032848364 -0.037736759 0.382 1.2903885e-39
0.0045987661 -0.037736759 0.382 1.2903885e-39
0.0058972179 -0.037637968 0.38100001 1.1059972e-39
0.0071887895 -0.03753918 0.38 1.1981929e-39
0.0084958402 -0.03753918 0.38 8.3120821e-40
0.00980289 -0.03753918 0.38 9.2340384e-40
0.010905308 -0.03684767 0.373 7.3938533e-40
0.012188281 -0.03684767 0.373 7.3938533e-40
0.013471254 -0.03684767 0.373 1.1060098e-39
0.014754226 -0.03684767 0.373 1.0138142e-39
0.0160372 -0.03684767 0.373 9.2160597e-40
0.017320173 -0.03684767 0.373 9.2160597e-40
0.018653046 -0.036946461 0.37400001 8.2941034e-40
0.019939458 -0.036946461 0.37400001 7.3721471e-40
0.021225872 -0.036946461 0.37400001 9.2160597e-40
0.02245209 -0.03684767 0.373 1.0138016e-39
0.023671431 -0.036748882 0.37200001 1.1059972e-39
0.024883891 -0.036650095 0.37099999 1.1059972e-39
0.026159985 -0.036650095 0.37099999 9.2340384e-40
0.027436104 -0.036650095 0.37099999 1.1077951e-39
0.028712198 -0.036650095 0.37099999 1.3818779e-39
0.029988291 -0.036650095 0.37099999 1.7506604e-39
0.031348657 -0.036748882 0.37200001 2.8025969e-45
0.03262819 -0.036748882 0.37200001 1.6042403e-38
0.033998873 -0.03684767 0.373 1.7147684e-38
0.035376437 -0.036946461 0.37400001 1.4934989e-38
-0.007283391 -0.039367624 0.38499999 2.3141103e-38
-0.0059591425 -0.039367624 0.38499999 2.3141103e-38
-0.0046228436 -0.039265368 0.384 2.3141103e-38
-0.0033020347 -0.039265368 0.384 2.341769e-38
-0.0019863851 -0.039367624 0.38499999 1.512008e-38
-0.00066213676 -0.039367624 0.38499999 9.2194229e-41
0.00066211156 -0.039367624 0.38499999 1.4769504e-39
0.0019760663 -0.039163116 0.38299999 1.2003635e-39
0.0032848364 -0.039060861 0.382 9.2412411e-40
0.0045987661 -0.039060861 0.382 7.3973285e-40
0.0058972179 -0.038958605 0.38100001 8.3120821e-40
0.007207708 -0.038958605 0.38100001 9.2340384e-40
0.0085181976 -0.038958605 0.38100001 9.2377659e-40
0.0096481079 -0.038242836 0.37400001 8.3158096e-40
0.010934545 -0.038242836 0.37400001 1.1060098e-39
0.012188281 -0.03814058 0.373 1.1982055e-39
0.013471254 -0.03814058 0.373 1.1060098e-39
0.014754226 -0.03814058 0.373 1.0138142e-39
0.0160372 -0.03814058 0.373 9.2161578e-40
0.017320173 -0.03814058 0.373 9.2161578e-40
0.018653046 -0.038242836 0.37400001 9.219563e-40
0.019992772 -0.038345087 0.375 6.4536941e-40
0.021225872 -0.038242836 0.37400001 9.2160597e-40
0.02245209 -0.03814058 0.373 1.1059972e-39
0.023607798 -0.037936073 0.37099999 1.1059972e-39
0.024883891 -0.037936073 0.37099999 1.1981929e-39
0.026159985 -0.037936073 0.37099999 9.2340384e-40
0.027436104 -0.037936073 0.37099999 1.1077951e-39
0.028712198 -0.037936073 0.37099999 1.2925591e-39
0.029988291 -0.037936073 0.37099999 1.569146e-39
0.031348657 -0.038038328 0.37200001 2.8025969e-45
0.03262819 -0.038038328 0.37200001 1.7701924e-38
0.033998873 -0.03814058 0.373 2.341769e-38
0.035376437 -0.038242836 0.37400001 1.751717e-38
-0.007283391 -0.040702108 0.38499999 2.3141103e-38
-0.0059591425 -0.040702108 0.38499999 2.3141103e-38
-0.0046108044 -0.040490668 0.38299999 2.3141103e-38
-0.0032934353 -0.040490668 0.38299999 2.341769e-38
-0.0019812258 -0.040596385 0.384 1.4289944e-38
-0.00066041696 -0.040596385 0.384 2.7622395e-40
0.00066211156 -0.040702108 0.38499999 1.2925591e-39
0.0019812258 -0.040596385 0.384 1.0159722e-39
0.0032934353 -0.040490668 0.38299999 8.3120821e-40
0.0045987661 -0.040384948 0.382 9.2340384e-40
0.0059126955 -0.040384948 0.382 8.3158096e-40
0.007207708 -0.040279228 0.38100001 1.0159722e-39
0.0085181976 -0.040279228 0.38100001 1.2925591e-39
0.0096481079 -0.039539192 0.37400001 1.2003635e-39
0.010934545 -0.039539192 0.37400001 1.0159722e-39
0.012188281 -0.039433468 0.373 9.2377659e-40
0.013471254 -0.039433468 0.373 1.2903885e-39
0.014754226 -0.039433468 0.373 1.1059972e-39
0.0160372 -0.039433468 0.373 5.5462132e-40
0.017366609 -0.039539192 0.37400001 7.3901258e-40
0.018653046 -0.039539192 0.37400001 8.2906002e-40
0.019992772 -0.039644912 0.375 7.3686439e-40
0.021282624 -0.039644912 0.375 6.4681695e-40
0.02263267 -0.039750628 0.37599999 8.3120821e-40
0.023607798 -0.039222028 0.37099999 9.2340384e-40
0.024883891 -0.039222028 0.37099999 1.0155995e-39
0.026159985 -0.039222028 0.37099999 9.2412411e-40
0.027436104 -0.039222028 0.37099999 1.0163197e-39
0.028712198 -0.039222028 0.37099999 1.2003635e-39
0.030069124 -0.039327752 0.37200001 1.7535373e-39
0.031348657 -0.039327752 0.37200001 5.6051939e-45
0.03262819 -0.039327752 0.37200001 1.235458e-38
0.033998873 -0.039433468 0.373 2.341804e-38
0.035376437 -0.039539192 0.37400001 2.341804e-38
-0.007283391 -0.042036612 0.38499999 2.3141103e-38
-0.0059591425 -0.042036612 0.38499999 2.3141103e-38
-0.0046108044 -0.041818239 0.38299999 2.3233299e-38
-0.0032934353 -0.041818239 0.38299999 2.341769e-38
-0.0019812258 -0.041927423 0.384 1.0329482e-38
-0.00066041696 -0.041927423 0.384 1.793662e-42
0.00066039187 -0.041927423 0.384 1.2003635e-39
0.0019760663 -0.041818239 0.38299999 8.3158096e-40
0.0032934353 -0.041818239 0.38299999 9.2412411e-40
0.0045987661 -0.041709054 0.382 1.0163197e-39
0.0059126955 -0.041709054 0.382 1.0159722e-39
0.007226625 -0.041709054 0.382 1.2925591e-39
0.0085405549 -0.041709054 0.382 1.2925591e-39
0.0096481079 -0.040835567 0.37400001 1.2925591e-39
0.010934545 -0.040835567 0.37400001 1.2003635e-39
0.012188281 -0.040726379 0.373 1.0159722e-39
0.013471254 -0.040726379 0.373 1.2903885e-39
0.014754226 -0.040726379 0.373 7.3721471e-40
0.0160372 -0.040726379 0.373 2.4889667e-39
0.017366609 -0.040835567 0.37400001 6.5455744e-39
0.018653046 -0.040835567 0.37400001 1.0916115e-42
0.019992772 -0.040944751 0.375 5.5426539e-40
0.021339377 -0.041053936 0.37599999 5.5462132e-40
0.022572476 -0.040944751 0.375 8.3120821e-40
0.023671431 -0.040617194 0.37200001 8.3158096e-40
0.024883891 -0.040508006 0.37099999 1.0159722e-39
0.026159985 -0.040508006 0.37099999 1.0163197e-39
0.027436104 -0.040508006 0.37099999 1.0163197e-39
0.028712198 -0.040508006 0.37099999 1.2925591e-39
0.030069124 -0.040617194 0.37200001 1.4769504e-39
0.031348657 -0.040617194 0.37200001 1.8511713e-40
0.032715898 -0.040726379 0.373 7.6529632e-39
0.034090023 -0.040835567 0.37400001 2.3417675e-38
0.035376437 -0.040835567 0.37400001 2.3141088e-38
-0.007283391 -0.043371096 0.38499999 2.3141103e-38
-0.0059591425 -0.043371096 0.38499999 2.3141103e-38
-0.0046348819 -0.043371096 0.38499999 2.3233299e-38
-0.0033106334 -0.043371096 0.38499999 2.341769e-38
-0.0019863851 -0.043371096 0.38499999 7.655124e-39
-0.00066213676 -0.043371096 0.38499999 7.258726e-43
0.00065867207 -0.043145791 0.38299999 1.2003635e-39
0.0019709067 -0.043033142 0.382 1.0159722e-39
0.0032848364 -0.043033142 0.382 1.0163197e-39
0.0046108044 -0.043145791 0.38299999 1.2929066e-39
0.0059281737 -0.043145791 0.38299999 1.2925591e-39
0.0070752823 -0.042131923 0.37400001 1.2925591e-39
0.0083616953 -0.042131923 0.37400001 1.0163197e-39
0.0096481079 -0.042131923 0.37400001 1.200711e-39
0.010905308 -0.04201927 0.373 9.2377659e-40
0.012188281 -0.04201927 0.373 9.2377659e-40
0.013471254 -0.04201927 0.373 1.0155995e-39
0.014754226 -0.04201927 0.373 7.272739e-43
0.0160372 -0.04201927 0.373 7.1001803e-39
0.017366609 -0.042131923 0.37400001 1.4660222e-38
0.018653046 -0.042131923 0.37400001 1.4475413e-42
0.019992772 -0.042244576 0.375 3.7023006e-40
0.021339377 -0.042357225 0.37599999 4.6242569e-40
0.022512285 -0.042131923 0.37400001 7.3901258e-40
0.023735063 -0.04201927 0.373 8.3158096e-40
0.024950964 -0.041906618 0.37200001 1.0159722e-39
0.026159985 -0.041793965 0.37099999 1.0159722e-39
0.027436104 -0.041793965 0.37099999 1.0159722e-39
0.028712198 -0.041793965 0.37099999 1.2929094e-39
0.030069124 -0.041906618 0.37200001 1.6616919e-39
0.031348657 -0.041906618 0.37200001 9.2412411e-40
0.032715898 -0.04201927 0.373 4.6314596e-40
0.034090023 -0.042131923 0.37400001 2.2586815e-38
0.00065695227 -0.044357248 0.382 1.5684369e-39
0.0019657474 -0.044241127 0.38100001 1.29185e-39
0.0032590393 -0.044008892 0.37900001 1.3847547e-39
0.0045506111 -0.043892771 0.37799999 1.3847547e-39
0.0058353045 -0.043776654 0.377 1.3847547e-39
0.0070942002 -0.043544415 0.375 1.2925591e-39
0.0083616953 -0.043428298 0.37400001 1.200711e-39
0.0096481079 -0.043428298 0.37400001 1.200711e-39
0.010905308 -0.043312177 0.373 1.4740735e-39
0.012188281 -0.043312177 0.373 1.4740735e-39
0.013471254 -0.043312177 0.373 1.3818779e-39
0.014754226 -0.043312177 0.373 1.9618179e-44
0.0160372 -0.043312177 0.373 1.0788356e-38
0.017366609 -0.043428298 0.37400001 1.9362549e-38
0.018653046 -0.043428298 0.37400001 1.8230893e-42
0.019992772 -0.043544415 0.375 1.8657448e-40
0.021339377 -0.043660533 0.37599999 5.5462132e-40
0.022512285 -0.043428298 0.37400001 8.3120821e-40
0.023735063 -0.043312177 0.373 9.2377659e-40
0.025018036 -0.043312177 0.373 1.0159722e-39
0.026230499 -0.043196063 0.37200001 1.0159722e-39
0.027510056 -0.043196063 0.37200001 1.2003635e-39
0.028789591 -0.043196063 0.37200001 1.6584648e-39
0.030069124 -0.043196063 0.37200001 1.9350516e-39
0.031348657 -0.043196063 0.37200001 1.7535373e-39
0.032715898 -0.043312177 0.373 1.9618179e-44
0.034090023 -0.043428298 0.37400001 1.9729087e-38
0.00065695227 -0.045681331 0.382 1.9379285e-39
0.0019657474 -0.045561746 0.38100001 1.6613416e-39
0.0032590393 -0.045322578 0.37900001 1.3847547e-39
0.0045506111 -0.045202993 0.37799999 1.2925591e-39
0.0058353045 -0.045083411 0.377 1.2925591e-39
0.0070942002 -0.04484424 0.375 1.2925591e-39
0.0083616953 -0.044724658 0.37400001 1.7506604e-39
0.0096481079 -0.044724658 0.37400001 1.6584648e-39
0.010934545 -0.044724658 0.37400001 1.7506604e-39
0.012188281 -0.044605069 0.373 1.7506604e-39
0.013471254 -0.044605069 0.373 1.5669754e-39
0.014754226 -0.044605069 0.373 8.4077908e-45
0.0160372 -0.044605069 0.373 1.3924437e-38
0.017366609 -0.044724658 0.37400001 2.1945454e-38
0.018653046 -0.044724658 0.37400001 9.4768414e-41
0.019992772 -0.04484424 0.375 7.7211545e-43
0.021339377 -0.044963822 0.37599999 6.4681695e-40
0.022512285 -0.044724658 0.37400001 9.2340384e-40
0.023735063 -0.044605069 0.373 1.2904011e-39
0.025018036 -0.044605069 0.373 1.2904011e-39
0.02630101 -0.044605069 0.373 1.3825841e-39
0.027510056 -0.044485487 0.37200001 1.4747798e-39
0.028789591 -0.044485487 0.37200001 1.7513666e-39
0.030069124 -0.044485487 0.37200001 1.9357579e-39
0.031348657 -0.044485487 0.37200001 2.3956795e-39
0.03280361 -0.044724658 0.37400001 2.8025969e-44
0.034090023 -0.044724658 0.37400001 1.5398048e-38
0.035376437 -0.044724658 0.37400001 2.350983e-38
0.00065179297 -0.046636287 0.37900001 2.0301241e-39
0.0019554286 -0.046636287 0.37900001 1.7535373e-39
0.0032504401 -0.046513233 0.37799999 1.4769504e-39
0.0045385729 -0.046390183 0.377 1.4769504e-39
0.0058353045 -0.046390183 0.377 1.2925591e-39
0.0070942002 -0.046144079 0.375 1.3847547e-39
0.0083840527 -0.046144079 0.375 1.0159722e-39
0.0096481079 -0.046021033 0.37400001 1.2003635e-39
0.010934545 -0.046021033 0.37400001 1.7506604e-39
0.012188281 -0.045897979 0.373 1.7506604e-39
0.013471254 -0.045897979 0.373 1.5669754e-39
0.014754226 -0.045897979 0.373 8.4077908e-45
0.0160372 -0.045897979 0.373 1.7610444e-38
0.017366609 -0.046021033 0.37400001 2.3142182e-38
0.018653046 -0.046021033 0.37400001 8.4077908e-44
0.019992772 -0.046144079 0.375 7.4268819e-44
