# .PCD v0.7 - Point Cloud Data file format
VERSION 0.7
FIELDS x y z rgb
SIZE 4 4 4 4
TYPE F F F F
COUNT 1 1 1 1
WIDTH 675
HEIGHT 1
VIEWPOINT 0 0 0 1 0 0 0
POINTS 675
DATA ascii
-0.015418088 0.077686712 0.815 2.0836212e-38
-0.012614809 0.077686712 0.815 2.129719e-38
-0.0098115029 0.077686712 0.815 1.9452539e-38
-0.018176652 0.074678056 0.81300002 2.3417691e-38
-0.015380253 0.074678056 0.81300002 2.341769e-38
-0.012583853 0.074678056 0.81300002 2.2311342e-38
-0.0097874263 0.074678056 0.81300002 2.0641707e-38
-0.0069910265 0.074678056 0.81300002 2.2485619e-38
-0.0042049452 0.074861765 0.815 1.9544748e-38
-0.026500525 0.071683221 0.81099999 1.8531306e-38
-0.023711005 0.071683221 0.81099999 2.2772305e-38
-0.020921484 0.071683221 0.81099999 2.341769e-38
-0.018131938 0.071683221 0.81099999 2.3233299e-38
-0.015304581 0.071506448 0.80900002 2.3325494e-38
-0.012521939 0.071506448 0.80900002 2.341769e-38
-0.0097392714 0.071506448 0.80900002 2.165621e-38
-0.0069738282 0.071683221 0.81099999 2.0273276e-38
-0.0041843075 0.071683221 0.81099999 2.1751319e-38
-0.0013947869 0.071683221 0.81099999 2.0183993e-38
-0.023711005 0.068872094 0.81099999 2.3326208e-38
-0.020921484 0.068872094 0.81099999 2.3233299e-38
-0.018087223 0.068702251 0.80900002 2.3233299e-38
-0.015266744 0.068532407 0.80699998 2.341769e-38
-0.012490982 0.068532407 0.80699998 2.2587929e-38
-0.0097151939 0.068532407 0.80699998 2.2679734e-38
-0.0069566299 0.068702251 0.80900002 2.3048517e-38
-0.0041739885 0.068702251 0.80900002 2.3322961e-38
-0.0013913471 0.068702251 0.80900002 2.0188309e-38
0.0013947338 0.068872094 0.81099999 1.844018e-38
-0.026500525 0.066061012 0.81099999 2.0098647e-38
-0.023711005 0.066061012 0.81099999 2.341769e-38
-0.020921484 0.066061012 0.81099999 2.3325494e-38
-0.018087223 0.065898106 0.80900002 2.341769e-38
-0.015266744 0.065735184 0.80699998 2.3418043e-38
-0.012490982 0.065735184 0.80699998 2.2588282e-38
-0.0097151939 0.065735184 0.80699998 1.9820178e-38
-0.0069566299 0.065898106 0.80900002 1.7791875e-38
-0.0041739885 0.065898106 0.80900002 1.6318202e-38
-0.0013913471 0.065898106 0.80900002 1.5949419e-38
0.0013947338 0.066061012 0.81099999 1.5858315e-38
-0.026500525 0.063249886 0.81099999 2.0375237e-38
-0.023711005 0.063249886 0.81099999 2.3417691e-38
-0.02086989 0.063093908 0.80900002 2.3417687e-38
-0.018087223 0.063093908 0.80900002 2.1942557e-38
-0.015266744 0.06293793 0.80699998 2.0740715e-38
-0.012490982 0.06293793 0.80699998 1.8804607e-38
-0.0097151939 0.06293793 0.80699998 1.5212207e-38
-0.0069566299 0.063093908 0.80900002 1.198536e-38
-0.0041739885 0.063093908 0.80900002 1.0783915e-38
-0.0013913471 0.063093908 0.80900002 8.7556113e-39
0.0013947338 0.063249886 0.81099999 8.5835669e-39
0.0042049452 0.063561849 0.815 1.6604587e-38
0.0070082243 0.063561849 0.815 1.8715697e-38
0.0098115029 0.063561849 0.815 1.8623502e-38
-0.026500525 0.060438804 0.81099999 2.3325129e-38
-0.023711005 0.060438804 0.81099999 2.2679759e-38
-0.02086989 0.060289759 0.80900002 2.0003147e-38
-0.018087223 0.060289759 0.80900002 1.5854344e-38
-0.015266744 0.060140707 0.80699998 1.1061872e-38
-0.012490982 0.060140707 0.80699998 8.9414052e-39
-0.0097151939 0.060140707 0.80699998 9.3995135e-39
-0.0069566299 0.060289759 0.80900002 8.1087873e-39
-0.0041739885 0.060289759 0.80900002 7.8376235e-39
-0.0013947869 0.060438804 0.81099999 9.7737317e-39
0.0013947338 0.060438804 0.81099999 1.9451856e-38
0.0042049452 0.060736902 0.815 1.8898682e-38
0.0070082243 0.060736902 0.815 1.8623855e-38
-0.027917666 0.054927498 0.773 2.2771602e-38
-0.02663123 0.05791191 0.815 1.9356339e-38
-0.023827951 0.05791191 0.815 1.1888493e-38
-0.020973079 0.057769798 0.81300002 9.0314569e-39
-0.018087223 0.057485566 0.80900002 1.23505e-38
-0.015304581 0.057485566 0.80900002 1.5572371e-38
-0.012490982 0.057343449 0.80699998 1.5111392e-38
-0.0097151939 0.057343449 0.80699998 1.3362894e-38
-0.0069566299 0.057485566 0.80900002 1.2533134e-38
-0.0041739885 0.057485566 0.80900002 1.1518969e-38
-0.0013947869 0.057627682 0.81099999 1.5206794e-38
0.0013947338 0.057627682 0.81099999 2.0004654e-38
0.0042152638 0.058054026 0.81699997 1.9082698e-38
0.016023433 0.060185757 0.847 1.8438394e-38
-0.027917666 0.052248091 0.773 1.0047876e-38
-0.025258824 0.052248091 0.773 7.4720373e-39
-0.022600008 0.052248091 0.773 1.0883266e-38
-0.020973079 0.054951742 0.81300002 1.6498679e-38
-0.018131938 0.054816555 0.81099999 1.6959657e-38
-0.015342416 0.054816555 0.81099999 1.7141538e-38
-0.012521939 0.054681376 0.80900002 1.4744451e-38
-0.0097392714 0.054681376 0.80900002 1.308632e-38
-0.0069738282 0.054816555 0.81099999 1.1979972e-38
-0.0041843075 0.054816555 0.81099999 1.0690293e-38
-0.0013982266 0.054951742 0.81300002 1.4101531e-38
0.0013981734 0.054951742 0.81300002 1.4661989e-38
0.0042152638 0.055222102 0.81699997 1.3924424e-38
0.0071544084 0.056235977 0.83200002 1.8072514e-38
0.010088393 0.056641523 0.838 1.8902275e-38
0.013048174 0.056979481 0.84299999 1.9176694e-38
0.016023433 0.057249848 0.847 1.8162542e-38
0.018981494 0.057385027 0.84899998 1.843875e-38
-0.033149306 0.049440473 0.77100003 1.4014777e-38
-0.03049737 0.049440473 0.77100003 1.8255063e-38
-0.027845435 0.049440473 0.77100003 2.1758497e-38
-0.025258824 0.04956872 0.773 1.7606807e-38
-0.022600008 0.04956872 0.773 1.7975589e-38
-0.020921484 0.052005474 0.81099999 7.3770335e-39
-0.018131938 0.052005474 0.81099999 2.7801762e-40
-0.015304581 0.051877223 0.80900002 1.1981929e-39
-0.012521939 0.051877223 0.80900002 4.0562574e-39
-0.0097392714 0.051877223 0.80900002 7.9270067e-39
-0.0069566299 0.051877223 0.80900002 8.9411586e-39
-0.0041843075 0.052005474 0.81099999 9.3055887e-39
-0.0013982266 0.052133724 0.81300002 5.3411766e-39
0.0013981734 0.052133724 0.81300002 1.8402972e-40
0.0042926557 0.053352103 0.83200002 9.1835496e-41
0.0071544084 0.053352103 0.83200002 6.1657132e-44
0.010088393 0.053736851 0.838 9.404376e-39
0.013048174 0.054057479 0.84299999 2.1202464e-38
0.015985599 0.054185733 0.84500003 1.7422443e-38
0.018981494 0.054442231 0.84899998 1.8164623e-38
0.022108097 0.054955233 0.85699999 1.8533405e-38
0.025055895 0.054955233 0.85699999 1.8163243e-38
-0.033149306 0.046768036 0.77100003 1.1052946e-38
-0.03049737 0.046768036 0.77100003 3.5873241e-42
-0.027845435 0.046768036 0.77100003 1.9917841e-38
-0.025356853 0.04707133 0.77600002 1.3733171e-38
-0.022804664 0.047313962 0.77999997 1.1945789e-39
-0.020147571 0.047374625 0.78100002 1.1981929e-39
-0.017796574 0.048284508 0.796 1.1981929e-39
-0.015153238 0.048587799 0.801 1.0120037e-39
-0.012490982 0.048951752 0.80699998 7.3541685e-40
-0.0097392714 0.049073074 0.80900002 2.7658689e-40
-0.0069566299 0.049073074 0.80900002 2.7658689e-40
-0.0041946266 0.04931571 0.81300002 1.7524232e-39
-0.0014016661 0.049437024 0.815 1.6602276e-39
0.0014050524 0.049558342 0.81699997 2.3960298e-39
0.004261699 0.050104275 0.82599998 2.0272473e-39
0.0071716062 0.050589547 0.83399999 9.2160597e-40
0.010088393 0.050832178 0.838 8.4077908e-45
0.013048174 0.051135477 0.84299999 1.1433299e-38
0.015985599 0.051256798 0.84500003 2.1021645e-38
0.018981494 0.05149943 0.84899998 1.36408e-38
0.022056503 0.051863387 0.85500002 2.0647659e-38
0.024997422 0.051863387 0.85500002 1.8531659e-38
0.027938288 0.051863387 0.85500002 1.8070681e-38
-0.038453206 0.044095561 0.77100003 1.1891382e-38
-0.035801269 0.044095561 0.77100003 5.8064427e-39
-0.033149306 0.044095561 0.77100003 1.1061581e-38
-0.03049737 0.044095561 0.77100003 9.2911693e-41
-0.027917666 0.044209946 0.773 1.272371e-38
-0.025422206 0.044495907 0.778 1.6038064e-38
-0.022804664 0.044610292 0.77999997 8.2651947e-40
-0.020147571 0.04466749 0.78100002 1.4722756e-39
-0.017796574 0.045525376 0.796 1.1034931e-39
-0.015115402 0.045696955 0.79900002 7.3721471e-40
-0.012460027 0.04604011 0.80500001 7.3721471e-40
-0.0097392714 0.04626888 0.80900002 1.0141519e-39
-0.0069566299 0.04626888 0.80900002 1.1985432e-39
-0.0041946266 0.046497654 0.81300002 6.4501908e-40
-0.0014016661 0.046612035 0.815 7.3721471e-40
0.0014067723 0.046783619 0.81800002 1.7503129e-39
0.0042513805 0.047126774 0.824 1.7503129e-39
0.0071372096 0.047469929 0.82999998 1.2907388e-39
0.010088393 0.047927469 0.838 7.3756504e-40
0.013048174 0.048213433 0.84299999 1.4349296e-42
0.015985599 0.048327822 0.84500003 1.5951276e-38
0.018981494 0.048556589 0.84899998 1.0116254e-40
0.022004908 0.048785359 0.85299999 2.5904403e-39
0.024997422 0.048899747 0.85500002 1.8069968e-38
0.027938288 0.048899747 0.85500002 1.8069968e-38
-0.038453206 0.041423086 0.77100003 1.3183249e-38
-0.035801269 0.041423086 0.77100003 1.4278007e-38
-0.033149306 0.041423086 0.77100003 1.1327746e-38
-0.03049737 0.041423086 0.77100003 1.0761972e-42
-0.027953781 0.041584261 0.77399999 1.318541e-38
-0.025487557 0.041906621 0.77999997 1.4010824e-38
-0.022833904 0.041960351 0.78100002 7.3468397e-40
-0.020199163 0.042067803 0.78299999 9.2377659e-40
-0.017751861 0.042658795 0.79400003 8.3158096e-40
-0.015115402 0.042927425 0.79900002 9.2160597e-40
-0.012398113 0.043034878 0.801 4.6062782e-40
-0.0096911173 0.043249782 0.80500001 4.6277602e-40
-0.0069566299 0.04346469 0.80900002 6.4716727e-40
-0.0041843075 0.043572139 0.81099999 6.4716727e-40
-0.0014016661 0.043787047 0.815 1.4769279e-39
0.0014067723 0.043948229 0.81800002 2.026897e-39
0.0042410614 0.044163138 0.82200003 1.5659188e-39
0.0071200118 0.044485494 0.82800001 1.2903885e-39
0.010088393 0.045022756 0.838 4.6062782e-40
0.013048174 0.04529139 0.84299999 5.0733086e-39
0.015985599 0.045398843 0.84500003 1.1987981e-38
0.018981494 0.045613747 0.84899998 9.8679438e-41
0.022004908 0.045828652 0.85299999 1.2360698e-38
0.024938948 0.045828652 0.85299999 1.8531309e-38
0.027872933 0.045828652 0.85299999 1.788594e-38
-0.038453206 0.038750652 0.77100003 3.2275659e-39
-0.035801269 0.038750652 0.77100003 4.7567917e-40
-0.033149306 0.038750652 0.77100003 7.5333805e-42
-0.030616036 0.038901426 0.77399999 5.9948992e-39
-0.028026015 0.039001949 0.77600002 1.5030071e-38
-0.025520235 0.039253253 0.78100002 6.9160077e-39
-0.02295085 0.039454296 0.78500003 7.3898876e-40
-0.020379744 0.039705593 0.79000002 1.6573731e-39
-0.017751861 0.039906636 0.79400003 1.93396e-39
-0.015115402 0.040157937 0.79900002 1.4747798e-39
-0.012398113 0.040258456 0.801 1.4747798e-39
-0.0096911173 0.040459495 0.80500001 9.2412411e-40
-0.0069566299 0.040660538 0.80900002 1.3851023e-39
-0.0041843075 0.040761057 0.81099999 1.7513666e-39
-0.0013982266 0.040861581 0.81300002 1.9357579e-39
0.0014016129 0.0409621 0.815 1.8435623e-39
0.0042152638 0.041062616 0.81699997 1.1981929e-39
0.0070512192 0.041213401 0.81999999 8.3120821e-40
0.010088393 0.042118084 0.838 1.0874076e-42
0.013048174 0.042369388 0.84299999 8.1153832e-39
0.015985599 0.042469908 0.84500003 6.7324488e-39
0.018981494 0.042670947 0.84899998 1.0702637e-38
0.021953315 0.04277147 0.85100001 1.7525114e-38
0.024880476 0.04277147 0.85100001 1.8070684e-38
0.02780758 0.04277147 0.85100001 1.7978488e-38
-0.033364285 0.036312144 0.77600002 1.5667044e-38
-0.030695148 0.036312144 0.77600002 1.4658742e-38
-0.028098246 0.036405731 0.778 3.6874623e-39
-0.025585586 0.036639702 0.78299999 3.2285917e-42
-0.023009323 0.036826879 0.787 6.4895393e-40
-0.020431338 0.037060849 0.792 1.1981929e-39
-0.017796574 0.037248023 0.796 1.2903885e-39
-0.015115402 0.037388407 0.79900002 1.2903885e-39
-0.012398113 0.037481993 0.801 1.2903885e-39
-0.0096911173 0.037669171 0.80500001 9.2412411e-40
-0.0069394317 0.037762757 0.80699998 1.2929066e-39
-0.0041739885 0.037856348 0.80900002 1.7513666e-39
-0.0013982266 0.038043521 0.81300002 1.659171e-39
0.0013981734 0.038043521 0.81300002 3.7835059e-43
0.0042152638 0.038230695 0.81699997 2.7696524e-40
0.0070512192 0.038371082 0.81999999 1.0761972e-42
0.01011247 0.039306957 0.83999997 9.3629158e-41
0.013079131 0.039540932 0.84500003 6.3650367e-39
0.016023433 0.039634518 0.847 8.3933406e-39
0.018981494 0.039728105 0.84899998 1.8623167e-38
0.021953315 0.039821696 0.85100001 1.8254384e-38
0.024880476 0.039821696 0.85100001 1.779445e-38
0.02780758 0.039821696 0.85100001 1.7978841e-38
-0.033450272 0.033709031 0.778 1.9545814e-38
-0.03077426 0.033709031 0.778 1.9819524e-38
-0.028170476 0.033795685 0.77999997 1.8805372e-38
-0.025650941 0.034012329 0.78500003 9.4757203e-41
-0.023097035 0.034228966 0.79000002 4.0077136e-43
-0.020482935 0.034402277 0.79400003 1.0155995e-39
-0.017841289 0.034575589 0.79799998 8.3120821e-40
-0.015115402 0.034618918 0.79900002 1.1981929e-39
-0.012398113 0.034705572 0.801 1.2903885e-39
-0.0096911173 0.034878884 0.80500001 1.2903885e-39
-0.0069394317 0.034965537 0.80699998 1.5669754e-39
-0.0041739885 0.035052195 0.80900002 1.2925591e-39
-0.0013982266 0.035225507 0.81300002 1.9618179e-44
0.0013981734 0.035225507 0.81300002 8.5796362e-39
0.0042152638 0.035398815 0.81699997 1.798359e-38
0.0070512192 0.035528801 0.81999999 1.8438735e-38
0.015512651 0.035528801 0.81999999 1.8533445e-38
-0.031604927 0.031849388 0.79900002 1.862387e-38
-0.028856682 0.031849388 0.79900002 2.074437e-38
-0.02610841 0.031849388 0.79900002 1.9172766e-38
-0.023360165 0.031849388 0.79900002 1.0102269e-39
-0.020611919 0.031849388 0.79900002 1.4740735e-39
-0.017908363 0.031929109 0.801 1.2896822e-39
-0.015153238 0.031929109 0.801 8.3120821e-40
-0.012429069 0.032008834 0.80299997 9.2340384e-40
-0.0097151939 0.032168277 0.80699998 1.2903885e-39
-0.0069394317 0.032168277 0.80699998 1.4747798e-39
-0.0041739885 0.032248002 0.80900002 1.7506604e-39
-0.0013982266 0.032407451 0.81300002 1.9618179e-44
0.0014016129 0.032487173 0.815 1.6868576e-38
0.0042152638 0.032566894 0.81699997 1.9634445e-38
-0.028856682 0.029079858 0.79900002 2.0467417e-38
-0.02610841 0.029079858 0.79900002 2.1108493e-38
-0.023360165 0.029079858 0.79900002 9.1836757e-40
-0.020663513 0.029152649 0.801 1.3815303e-39
-0.017908363 0.029152649 0.801 1.2893347e-39
-0.015191073 0.029225441 0.80299997 8.3158096e-40
-0.012460027 0.029298229 0.80500001 8.3158096e-40
-0.0097151939 0.029371019 0.80699998 1.2903885e-39
-0.0069566299 0.029443812 0.80900002 1.3825841e-39
-0.0041843075 0.029516602 0.81099999 1.7503129e-39
-0.0013982266 0.029589394 0.81300002 9.1867726e-41
0.0014016129 0.029662183 0.815 1.3091391e-38
0.0042204238 0.029771371 0.81800002 1.9176303e-38
-0.028928913 0.026376227 0.801 1.613422e-38
-0.026173761 0.026376227 0.801 1.1975221e-38
-0.023418637 0.026376227 0.801 2.8479766e-39
-0.020663513 0.026376227 0.801 1.1982055e-39
-0.017953077 0.026442086 0.80299997 1.1060098e-39
-0.015191073 0.026442086 0.80299997 1.2903885e-39
-0.012460027 0.026507944 0.80500001 1.2903885e-39
-0.0097151939 0.0265738 0.80699998 1.0155995e-39
-0.0069566299 0.026639661 0.80900002 1.0155995e-39
-0.0041843075 0.026705517 0.81099999 1.569146e-39
-0.0013982266 0.026771378 0.81300002 1.8621155e-40
0.0014050524 0.026903091 0.81699997 1.0232954e-38
0.0042307423 0.02700188 0.81999999 1.9636908e-38
-0.028928913 0.023599803 0.801 1.4843481e-38
-0.026173761 0.023599803 0.801 2.1523944e-42
-0.023418637 0.023599803 0.801 1.1084957e-39
-0.020715106 0.023658732 0.80299997 1.3818779e-39
-0.017997792 0.023717657 0.80500001 1.105291e-39
-0.015228909 0.023717657 0.80500001 1.1981929e-39
-0.012490982 0.023776582 0.80699998 1.2903885e-39
-0.0097151939 0.023776582 0.80699998 1.2904011e-39
-0.0069566299 0.023835508 0.80900002 1.2904011e-39
-0.0041946266 0.02395336 0.81300002 1.569146e-39
-0.0014016661 0.024012286 0.815 1.2003635e-39
0.0014050524 0.024071211 0.81699997 2.4006583e-39
0.0042307423 0.024159601 0.81999999 1.8350502e-38
-0.026173761 0.020823343 0.801 1.0818024e-42
-0.023418637 0.020823343 0.801 1.93719e-39
-0.020715106 0.020875337 0.80299997 1.2903885e-39
-0.017997792 0.02092733 0.80500001 1.1981929e-39
-0.015266744 0.020979322 0.80699998 1.1059972e-39
-0.012490982 0.020979322 0.80699998 1.2903885e-39
-0.0097151939 0.020979322 0.80699998 1.0159722e-39
-0.0069566299 0.021031316 0.80900002 9.2377659e-40
-0.0041946266 0.021135304 0.81300002 2.0272473e-39
-0.0014016661 0.021187296 0.815 1.3818779e-39
0.0014067723 0.021265289 0.81800002 1.5035933e-42
0.0042410614 0.021369275 0.82200003 1.779526e-38
0.007102814 0.021473261 0.82599998 1.7979204e-38
-0.026239114 0.018091943 0.80299997 1.3778912e-39
-0.023477111 0.018091943 0.80299997 1.0101905e-39
-0.020715106 0.018091943 0.80299997 0
-0.017997792 0.018137002 0.80500001 9.2194229e-41
-0.015266744 0.018182063 0.80699998 0
-0.012490982 0.018182063 0.80699998 0
-0.0097392714 0.018227125 0.80900002 3.5873241e-43
-0.0069566299 0.018227125 0.80900002 3.5873241e-43
-0.0041946266 0.018317247 0.81300002 3.5873241e-43
-0.0014051058 0.018407367 0.81699997 4.6169421e-40
0.0014067723 0.0184299 0.81800002 8.6707669e-39
0.0042410614 0.018520022 0.82200003 1.7337156e-38
0.007102814 0.018610142 0.82599998 1.7978841e-38
-0.029001145 0.015308589 0.80299997 2.2957052e-38
-0.026239114 0.015308589 0.80299997 2.0373802e-38
-0.023477111 0.015308589 0.80299997 1.8622085e-38
-0.020715106 0.015308589 0.80299997 1.6963999e-38
-0.017997792 0.015346716 0.80500001 1.2815195e-38
-0.015266744 0.015384845 0.80699998 1.2170902e-38
-0.012490982 0.015384845 0.80699998 1.1064555e-38
-0.0097392714 0.015422974 0.80900002 1.0418094e-38
-0.0069566299 0.015422974 0.80900002 9.311746e-39
-0.0042049452 0.015537359 0.815 7.8402187e-39
-0.0014051058 0.015575487 0.81699997 1.309537e-38
0.0014067723 0.015594553 0.81800002 1.6962574e-38
0.0042410614 0.01567081 0.82200003 1.8068921e-38
0.0071372096 0.015823323 0.82999998 1.779445e-38
-0.029001145 0.012525194 0.80299997 2.286522e-38
-0.026239114 0.012525194 0.80299997 2.0189764e-38
-0.023477111 0.012525194 0.80299997 1.816146e-38
-0.020715106 0.012525194 0.80299997 1.8067116e-38
-0.017997792 0.01255639 0.80500001 1.4379291e-38
-0.015266744 0.012587585 0.80699998 1.392153e-38
-0.012490982 0.012587585 0.80699998 1.3644943e-38
-0.0097392714 0.012618782 0.80900002 1.4197761e-38
-0.0069738282 0.012649978 0.81099999 1.3644587e-38
-0.0042049452 0.01271237 0.815 1.3645304e-38
-0.0014051058 0.012743565 0.81699997 1.456726e-38
0.0014102117 0.01279036 0.81999999 1.5397749e-38
0.0042513805 0.012852753 0.824 1.7426053e-38
0.0071372096 0.01294634 0.82999998 1.7978125e-38
-0.029001145 0.00974184 0.80299997 7.0064923e-39
-0.026239114 0.00974184 0.80299997 1.5619209e-39
-0.023477111 0.00974184 0.80299997 5.7107214e-39
-0.020715106 0.00974184 0.80299997 7.8366285e-39
-0.017997792 0.0097661028 0.80500001 8.1132154e-39
-0.015266744 0.0097903665 0.80699998 8.5741936e-39
-0.012521939 0.0098146303 0.80900002 7.5600416e-39
-0.0097633488 0.009838894 0.81099999 7.3767294e-39
-0.0069910265 0.0098631578 0.81300002 8.2986857e-39
-0.0042152638 0.0099116843 0.81699997 9.8627618e-39
-0.0014068257 0.0099238176 0.81800002 3.6856546e-39
0.0014136513 0.0099723451 0.82200003 3.5873241e-43
0.0042720181 0.010045135 0.82800001 1.5397386e-38
0.0071372096 0.010069398 0.82999998 1.8069968e-38
-0.029001145 0.0069584455 0.80299997 3.8718409e-39
-0.026239114 0.0069584455 0.80299997 3.6949578e-40
-0.023477111 0.0069584455 0.80299997 8.3047393e-40
-0.020766702 0.0069757765 0.80500001 1.8439406e-40
-0.017997792 0.0069757765 0.80500001 2.8025969e-45
-0.015266744 0.0069931075 0.80699998 2.8025969e-45
-0.012521939 0.0070104389 0.80900002 9.2198432e-41
-0.0097633488 0.0070277699 0.81099999 7.2166871e-43
-0.0070082243 0.0070624324 0.815 3.61535e-43
-0.0042204238 0.0070884293 0.81800002 2.8025969e-45
-0.0014102653 0.0071057603 0.81999999 3.6878532e-40
0.0014136513 0.0071230917 0.82200003 3.5873241e-43
0.0042720181 0.0071750851 0.82800001 1.5212995e-38
0.0071544084 0.0072097466 0.83200002 1.7885937e-38
-0.029001145 0.0041750516 0.80299997 1.107051e-39
-0.026239114 0.0041750516 0.80299997 1.2925591e-39
-0.023477111 0.0041750516 0.80299997 1.2925591e-39
-0.020766702 0.0041854503 0.80500001 1.1059972e-39
-0.018042507 0.0041958485 0.80699998 1.1059972e-39
-0.015266744 0.0041958485 0.80699998 9.2160597e-40
-0.012521939 0.0042062472 0.80900002 1.1981929e-39
-0.0097874263 0.0042270445 0.81300002 1.0138114e-39
-0.0070082243 0.0042374432 0.815 1.0138114e-39
-0.0042204238 0.0042530415 0.81800002 9.2377659e-40
-0.0014137051 0.0042738388 0.82200003 1.2003635e-39
0.0014170909 0.0042842375 0.824 5.6051939e-45
0.0042823367 0.0043154331 0.82999998 1.4751667e-38
0.0071544084 0.0043258318 0.83200002 1.7886656e-38
-0.029001145 0.0013916971 0.80299997 1.8449692e-39
-0.026239114 0.0013916971 0.80299997 1.3840485e-39
-0.023535585 0.0013951632 0.80500001 1.2918529e-39
-0.020766702 0.0013951632 0.80500001 1.2903885e-39
-0.018042507 0.0013986295 0.80699998 1.1059972e-39
-0.015304581 0.0014020958 0.80900002 8.3120821e-40
-0.012521939 0.0014020958 0.80900002 9.2340384e-40
-0.0097874263 0.0014090283 0.81300002 6.4718689e-40
-0.0070082243 0.0014124945 0.815 9.2377378e-40
-0.0042152638 0.0014159607 0.81699997 1.2925591e-39
-0.0014137051 0.0014246264 0.82200003 1.569146e-39
0.0014205304 0.0014315589 0.82599998 5.6051939e-45
0.0042823367 0.0014384914 0.82999998 1.6042405e-38
0.0071544084 0.0014419575 0.83200002 1.7886656e-38
-0.029073378 -0.0013951632 0.80500001 1.8442433e-39
-0.026304469 -0.0013951632 0.80500001 1.5684369e-39
-0.023535585 -0.0013951632 0.80500001 1.7528282e-39
-0.020766702 -0.0013951632 0.80500001 1.659171e-39
-0.018042507 -0.0013986295 0.80699998 1.3825841e-39
-0.015304581 -0.0014020958 0.80900002 1.1981929e-39
-0.012521939 -0.0014020958 0.80900002 1.1981929e-39
-0.0097874263 -0.0014090283 0.81300002 1.1981929e-39
-0.0070082243 -0.0014124945 0.815 1.2903885e-39
-0.0042152638 -0.0014159607 0.81699997 1.200711e-39
-0.0014137051 -0.0014246264 0.82200003 1.4772979e-39
0.0014239699 -0.0014350251 0.82800001 5.6051939e-45
0.0042823367 -0.0014384914 0.82999998 1.6503383e-38
0.0071716062 -0.0014454239 0.83399999 1.742568e-38
-0.029073378 -0.0041854503 0.80500001 1.0144952e-39
-0.026304469 -0.0041854503 0.80500001 1.8450238e-39
-0.023535585 -0.0041854503 0.80500001 1.7528282e-39
-0.020766702 -0.0041854503 0.80500001 1.8435623e-39
-0.018042507 -0.0041958485 0.80699998 1.659171e-39
-0.015304581 -0.0042062472 0.80900002 1.3825841e-39
-0.012521939 -0.0042062472 0.80900002 1.2903885e-39
-0.0097874263 -0.0042270445 0.81300002 9.2340384e-40
-0.0070082243 -0.0042374432 0.815 1.1077951e-39
-0.0042152638 -0.0042478419 0.81699997 1.0163197e-39
-0.0014137051 -0.0042738388 0.82200003 7.3973285e-40
0.0014205304 -0.0042946357 0.82599998 2.1930321e-42
0.0042823367 -0.0043154331 0.82999998 1.5491059e-38
0.0071716062 -0.0043362305 0.83399999 1.760935e-38
-0.029073378 -0.0069757765 0.80500001 3.7021184e-40
-0.026304469 -0.0069757765 0.80500001 6.5007637e-40
-0.023535585 -0.0069757765 0.80500001 1.0188589e-39
-0.020766702 -0.0069757765 0.80500001 1.2929094e-39
-0.018042507 -0.0069931075 0.80699998 1.0163225e-39
-0.015304581 -0.0070104389 0.80900002 1.2903885e-39
-0.012521939 -0.0070104389 0.80900002 1.4747798e-39
-0.0097874263 -0.0070451014 0.81300002 1.1982055e-39
-0.0070082243 -0.0070624324 0.815 1.1982055e-39
-0.0042152638 -0.0070797629 0.81699997 1.2903885e-39
-0.0014137051 -0.0071230917 0.82200003 8.4077908e-45
0.0014205304 -0.0071577537 0.82599998 9.4994415e-39
0.0042720181 -0.0071750851 0.82800001 1.5953136e-38
0.0071716062 -0.0072270781 0.83399999 1.7426028e-38
-0.029145608 -0.0097903265 0.80699998 1.2447104e-38
-0.026369819 -0.0097903265 0.80699998 2.8348548e-40
-0.023594057 -0.0097903265 0.80699998 6.1783249e-42
-0.020818295 -0.0097903265 0.80699998 1.3825841e-39
-0.018042507 -0.0097903265 0.80699998 1.1059972e-39
-0.015304581 -0.0098145902 0.80900002 1.1059972e-39
-0.012552896 -0.009838854 0.81099999 1.1059972e-39
-0.0097874263 -0.0098631177 0.81300002 7.3938533e-40
-0.0070254221 -0.0099116443 0.81699997 4.6279844e-40
-0.0042307423 -0.0099480404 0.81999999 9.2160597e-40
-0.0014171447 -0.0099965669 0.824 8.4077908e-45
0.0014205304 -0.010020831 0.82599998 1.5211222e-38
0.004261699 -0.010020831 0.82599998 1.8069287e-38
-0.026369819 -0.012587585 0.80699998 7.387155e-40
-0.023594057 -0.012587585 0.80699998 3.6993299e-40
-0.02086989 -0.012618782 0.80900002 1.3818779e-39
-0.018087223 -0.012618782 0.80900002 1.105291e-39
-0.015380253 -0.012681174 0.81300002 6.4718689e-40
-0.012614809 -0.01271237 0.815 7.3938252e-40
-0.0098115029 -0.01271237 0.815 1.2903885e-39
-0.0070254221 -0.012743565 0.81699997 9.2160597e-40
-0.0042307423 -0.01279036 0.81999999 1.1042092e-39
-0.0014205844 -0.012883948 0.82599998 1.8368781e-40
0.0014205304 -0.012883948 0.82599998 1.4382859e-38
0.004261699 -0.012883948 0.82599998 1.7609706e-38
-0.023711005 -0.015461061 0.81099999 2.027976e-39
-0.020921484 -0.015461061 0.81099999 1.6584648e-39
-0.018176652 -0.01549919 0.81300002 1.4740735e-39
-0.015380253 -0.01549919 0.81300002 1.4740735e-39
-0.012614809 -0.015537319 0.815 1.7506604e-39
-0.0098115029 -0.015537319 0.815 1.3825841e-39
-0.0070254221 -0.015575446 0.81699997 1.1059972e-39
-0.0042204238 -0.015594512 0.81800002 1.1059972e-39
-0.001424024 -0.015785154 0.82800001 8.4077908e-45
0.0014239699 -0.015785154 0.82800001 1.3091401e-38
0.0042720181 -0.015785154 0.82800001 1.7701183e-38
-0.023827951 -0.018362308 0.815 1.8446441e-39
-0.020973079 -0.018317247 0.81300002 1.9347041e-39
-0.018176652 -0.018317247 0.81300002 1.8425085e-39
-0.015380253 -0.018317247 0.81300002 1.3847547e-39
-0.012614809 -0.018362308 0.815 1.2925591e-39
-0.0098115029 -0.018362308 0.815 1.200711e-39
-0.0070254221 -0.018407367 0.81699997 6.4753722e-40
-0.0042204238 -0.0184299 0.81800002 1.1059972e-39
-0.001424024 -0.018655205 0.82800001 8.4077908e-45
0.0014274094 -0.018700264 0.82999998 1.2262009e-38
-0.02663123 -0.021187257 0.815 7.6090507e-43
-0.023827951 -0.021187257 0.815 2.0290648e-39
-0.020973079 -0.021135263 0.81300002 2.3034838e-39
-0.018176652 -0.021135263 0.81300002 1.9347013e-39
-0.015380253 -0.021135263 0.81300002 1.2925591e-39
-0.012614809 -0.021187257 0.815 1.2925591e-39
-0.0098115029 -0.021187257 0.815 1.659171e-39
-0.0070254221 -0.021239249 0.81699997 1.1981929e-39
-0.0042307423 -0.02131724 0.81999999 1.1060098e-39
-0.001424024 -0.021525213 0.82800001 1.9618179e-44
0.0014274094 -0.021577207 0.82999998 1.2355647e-38
-0.023827951 -0.024012245 0.815 2.7684277e-39
-0.020973079 -0.02395332 0.81300002 2.1201618e-39
-0.018176652 -0.02395332 0.81300002 1.6591836e-39
-0.015380253 -0.02395332 0.81300002 1.2925591e-39
-0.012614809 -0.024012245 0.815 1.2925591e-39
-0.0098115029 -0.024012245 0.815 1.7506604e-39
-0.0070254221 -0.02407117 0.81699997 1.1974866e-39
-0.0042307423 -0.02415956 0.81999999 1.1060098e-39
-0.0014274637 -0.024454189 0.82999998 2.1019477e-44
0.0014308491 -0.024513114 0.83200002 1.3923691e-38
0.0043029748 -0.024572041 0.83399999 1.7058343e-38
-0.023769479 -0.026771378 0.81300002 1.4776917e-39
-0.020973079 -0.026771378 0.81300002 2.0272473e-39
-0.018176652 -0.026771378 0.81300002 1.842856e-39
-0.015380253 -0.026771378 0.81300002 1.2925591e-39
-0.012614809 -0.026837233 0.815 1.4769504e-39
-0.0098115029 -0.026837233 0.815 6.4681695e-40
-0.0070254221 -0.026903091 0.81699997 7.272739e-43
-0.0042410614 -0.027067741 0.82200003 1.8804304e-40
-0.0014274637 -0.027331172 0.82999998 2.3085425e-39
0.0014308491 -0.027397029 0.83200002 1.6684169e-38
0.0043029748 -0.027462889 0.83399999 1.751393e-38
-0.023769479 -0.029589394 0.81300002 6.475204e-40
-0.020973079 -0.029589394 0.81300002 8.308719e-40
-0.018176652 -0.029589394 0.81300002 6.4648064e-40
-0.015418088 -0.029662183 0.815 7.3867627e-40
-0.012614809 -0.029662183 0.815 5.5428501e-40
-0.0098115029 -0.029662183 0.815 2.8620302e-39
-0.0070254221 -0.029734973 0.81699997 1.0606463e-38
-0.0042410614 -0.029916953 0.82200003 1.4475445e-38
-0.0014309034 -0.030280903 0.83200002 1.4198858e-38
0.0014308491 -0.030280903 0.83200002 1.6871797e-38
0.0043029748 -0.030353695 0.83399999 1.6779602e-38
-0.02663123 -0.032487173 0.815 1.0498507e-38
-0.023769479 -0.032407451 0.81300002 2.0204552e-39
-0.020973079 -0.032407451 0.81300002 1.4349296e-42
-0.018176652 -0.032407451 0.81300002 1.5687578e-39
-0.015418088 -0.032487173 0.815 8.3405285e-40
-0.012614809 -0.032487173 0.815 2.1247875e-39
-0.0098115029 -0.032487173 0.815 7.287433e-39
-0.0070254221 -0.032566894 0.81699997 1.0422084e-38
-0.0042204238 -0.032606758 0.81800002 1.493461e-38
-0.0014309034 -0.033164818 0.83200002 1.2076546e-38
0.0014308491 -0.033164818 0.83200002 1.4569398e-38
0.0043029748 -0.033244543 0.83399999 1.6782093e-38
-0.02663123 -0.03531212 0.815 2.341769e-38
-0.023827951 -0.03531212 0.815 2.2587929e-38
-0.021024672 -0.03531212 0.815 1.8810429e-38
-0.018221367 -0.03531212 0.815 2.0008973e-38
-0.015418088 -0.03531212 0.815 1.6965791e-38
-0.012614809 -0.03531212 0.815 1.6965791e-38
-0.0098115029 -0.03531212 0.815 1.3554202e-38
-0.0070254221 -0.035398774 0.81699997 1.85836e-40
-0.0042204238 -0.035442106 0.81800002 1.0761972e-42
-0.0014309034 -0.036048692 0.83200002 2.7802182e-40
0.0014342886 -0.036135349 0.83399999 2.0466497e-39
0.0043132934 -0.036222003 0.83600003 1.384769e-38
-0.02663123 -0.038137108 0.815 2.341769e-38
-0.023769479 -0.038043521 0.81300002 2.3141103e-38
-0.020973079 -0.038043521 0.81300002 1.770446e-38
-0.018176652 -0.038043521 0.81300002 1.917959e-38
-0.015418088 -0.038137108 0.815 1.8804681e-38
-0.012614809 -0.038137108 0.815 1.7698334e-38
-0.0098115029 -0.038137108 0.815 1.5391988e-38
-0.0070254221 -0.038230695 0.81699997 9.1835496e-40
-0.0042152638 -0.038230695 0.81699997 2.124475e-39
-0.0014274637 -0.03883902 0.82999998 1.1251842e-38
0.0014342886 -0.039026197 0.83399999 1.5769428e-38
0.0043236124 -0.039213371 0.838 1.5861624e-38
-0.029434536 -0.040962059 0.815 1.2815533e-38
-0.02663123 -0.040962059 0.815 3.5873241e-42
-0.023769479 -0.04086154 0.81300002 2.8698593e-42
-0.020973079 -0.04086154 0.81300002 5.6051939e-45
-0.018176652 -0.04086154 0.81300002 1.84757e-40
-0.015418088 -0.040962059 0.815 2.8025969e-45
-0.012614809 -0.040962059 0.815 9.2558566e-41
-0.0098115029 -0.040962059 0.815 1.8654225e-40
-0.0070254221 -0.041062579 0.81699997 1.4349296e-42
-0.0042152638 -0.041062579 0.81699997 4.702015e-39
-0.001424024 -0.041615445 0.82800001 1.5581099e-38
0.0014308491 -0.04181648 0.83200002 1.7240946e-38
0.0043236124 -0.042118043 0.838 1.6872163e-38
-0.029506767 -0.0438945 0.81699997 1.6410078e-38
-0.026696583 -0.0438945 0.81699997 1.1056161e-39
-0.023711005 -0.043572139 0.81099999 1.8431811e-39
-0.020921484 -0.043572139 0.81099999 2.7947076e-40
-0.018131938 -0.043572139 0.81099999 3.967296e-39
-0.015418088 -0.043787047 0.815 1.5669754e-39
-0.012614809 -0.043787047 0.815 1.8435623e-39
-0.0098115029 -0.043787047 0.815 3.6878252e-39
-0.0070254221 -0.0438945 0.81699997 3.0424558e-39
-0.0042152638 -0.0438945 0.81699997 9.2447443e-40
-0.0014205844 -0.044378038 0.82599998 4.6349628e-40
0.0014205304 -0.044378038 0.82599998 4.6119297e-39
0.004261699 -0.044378038 0.82599998 1.4569058e-38
0.0071200118 -0.044485494 0.82800001 1.7240192e-38
-0.029217841 -0.046268839 0.80900002 8.2039467e-39
-0.026435172 -0.046268839 0.80900002 3.0511032e-39
-0.023652531 -0.046268839 0.80900002 4.2496464e-39
-0.02086989 -0.046268839 0.80900002 6.2721867e-39
-0.018087223 -0.046268839 0.80900002 5.8112086e-39
-0.015342416 -0.046383224 0.81099999 4.5193837e-39
-0.012583853 -0.046497613 0.81300002 3.8740143e-39
-0.0097874263 -0.046497613 0.81300002 1.7549414e-39
-0.0069910265 -0.046497613 0.81300002 1.2939632e-39
-0.0042152638 -0.04672638 0.81699997 1.8439126e-39
-0.0014171447 -0.047126733 0.824 2.489282e-39
0.0014170909 -0.047126733 0.824 3.2275533e-39
0.004261699 -0.047241118 0.82599998 1.2914451e-39
0.007102814 -0.047241118 0.82599998 1.8622773e-38
0.0099680061 -0.047355503 0.82800001 1.8622773e-38
0.012816 -0.047355503 0.82800001 1.8254719e-38
-0.031169813 -0.047799196 0.78799999 1.5305528e-38
-0.028459404 -0.047799196 0.78799999 1.0152127e-39
-0.026173761 -0.048587758 0.801 4.4275384e-39
-0.023418637 -0.048587758 0.801 6.6402335e-39
-0.020663513 -0.048587758 0.801 4.9828702e-39
-0.017908363 -0.048587758 0.801 4.2453052e-39
-0.015191073 -0.04870908 0.80299997 5.070031e-39
-0.012460027 -0.048830397 0.80500001 5.807596e-39
-0.0096911173 -0.048830397 0.80500001 7.2834772e-39
-0.0069222338 -0.048830397 0.80500001 6.4539183e-40
-0.0041533508 -0.048830397 0.80500001 1.0761972e-42
-0.0014102653 -0.049740281 0.81999999 1.4349296e-42
0.0014102117 -0.049740281 0.81999999 2.1523944e-42
0.0042410614 -0.049861602 0.82200003 2.3070389e-39
0.0070856158 -0.049982917 0.824 1.7422803e-38
0.0099680061 -0.050225556 0.82800001 1.8160368e-38
0.012816 -0.050225556 0.82800001 1.807105e-38
-0.031169813 -0.050530594 0.78799999 1.7608251e-38
-0.028459404 -0.050530594 0.78799999 1.0693579e-38
-0.025814323 -0.050658848 0.79000002 5.7156834e-39
-0.023213983 -0.050915349 0.79400003 4.0561873e-39
-0.02058612 -0.051171847 0.79799998 1.4349296e-42
-0.017908363 -0.051364221 0.801 1.4349296e-42
-0.015191073 -0.051492475 0.80299997 5.0222537e-42
-0.012460027 -0.051620722 0.80500001 5.2601676e-39
-0.0096911173 -0.051620722 0.80500001 1.5577464e-38
-0.0069222338 -0.051620722 0.80500001 1.5300877e-38
-0.0041533508 -0.051620722 0.80500001 1.4844906e-38
-0.0014102653 -0.052582603 0.81999999 1.5582471e-38
0.0014102117 -0.052582603 0.81999999 1.6043809e-38
0.0042410614 -0.052710854 0.82200003 1.687357e-38
0.0070856158 -0.052839104 0.824 1.9544382e-38
-0.031051148 -0.053059187 0.78500003 2.258792e-38
-0.028351057 -0.053059187 0.78500003 2.1389376e-38
-0.025716294 -0.05319437 0.787 2.0191544e-38
-0.023213983 -0.053667508 0.79400003 2.0191544e-38
-0.02058612 -0.053937871 0.79799998 1.9822398e-38
-0.017841289 -0.053937871 0.79799998 1.9822398e-38
-0.015266744 -0.054546189 0.80699998 1.9637644e-38
-0.012490982 -0.054546189 0.80699998 1.9361057e-38
-0.0097151939 -0.054546189 0.80699998 1.8531659e-38
-0.0069394317 -0.054546189 0.80699998 1.7978486e-38
