# .PCD v0.7 - Point Cloud Data file format
VERSION 0.7
FIELDS x y z rgb
SIZE 4 4 4 4
TYPE F F F F
COUNT 1 1 1 1
WIDTH 994
HEIGHT 1
VIEWPOINT 0 0 0 1 0 0 0
POINTS 994
DATA ascii
0.024980208 0.022296473 0.41499999 1.8457329e-39
0.026407644 0.022296473 0.41499999 1.4769504e-39
0.02783508 0.022296473 0.41499999 1.3847547e-39
0.029192006 0.022242747 0.414 1.4762441e-39
0.03061603 0.022242747 0.414 1.1996572e-39
0.031962637 0.022189019 0.41299999 1.2925591e-39
0.033383194 0.022189019 0.41299999 1.2925591e-39
0.034803752 0.022189019 0.41299999 1.9350516e-39
0.036224306 0.022189019 0.41299999 1.4740735e-39
0.037644863 0.022189019 0.41299999 8.3120821e-40
0.039065421 0.022189019 0.41299999 8.3120821e-40
0.040486008 0.022189019 0.41299999 1.1059972e-39
0.042008031 0.022242747 0.414 1.1981929e-39
0.043432031 0.022242747 0.414 1.0155995e-39
0.044856027 0.022242747 0.414 1.1999907e-39
0.045832872 0.022027841 0.41 1.2003635e-39
0.047012657 0.021920387 0.40799999 1.2925591e-39
0.048416045 0.021920387 0.40799999 1.3840485e-39
0.049697299 0.021866662 0.40700001 1.4762441e-39
0.050971668 0.021812934 0.40599999 7.3938533e-40
0.052239168 0.021759208 0.405 9.2377659e-40
0.053499784 0.021705482 0.40400001 1.5856907e-38
0.054753516 0.021651756 0.403 1.7239841e-38
0.056000374 0.02159803 0.40200001 1.6412605e-38
0.057097636 0.021490576 0.40000001 1.7334561e-38
0.058473479 0.021490576 0.40000001 6.1778457e-39
0.059699692 0.02143685 0.39899999 2.7732537e-40
0.060919035 0.021383123 0.398 1.2925591e-39
0.062287997 0.021383123 0.398 1.8457329e-39
0.063656963 0.021383123 0.398 1.1242787e-38
0.064862572 0.021329397 0.39700001 1.4469634e-38
0.066061273 0.021275669 0.396 1.4652907e-38
0.067423359 0.021275669 0.396 1.3085581e-38
-0.023724757 0.022365808 0.44499999 2.0833654e-38
-0.022194132 0.022365808 0.44499999 1.9450719e-38
-0.020663507 0.022365808 0.44499999 1.6034069e-38
-0.019046877 0.022265289 0.44299999 1.7448744e-39
-0.01752313 0.022265289 0.44299999 1.0761972e-42
-0.015963269 0.022215029 0.442 1.1525889e-38
-0.01444295 0.022215029 0.442 2.0371987e-38
-0.012864171 0.022114508 0.44 1.9081249e-38
-0.011350743 0.022114508 0.44 1.8532764e-38
-0.009814945 0.022064248 0.43900001 3.8736584e-39
-0.0082860393 0.022013986 0.43799999 9.2161578e-40
-0.0067640143 0.021963727 0.43700001 2.5811371e-39
-0.0052608922 0.021963727 0.43700001 1.6581172e-39
-0.0037577841 0.021963727 0.43700001 1.7503129e-39
-0.0022546763 0.021963727 0.43700001 1.5669754e-39
-0.0007515683 0.021963727 0.43700001 1.659171e-39
0.00075153972 0.021963727 0.43700001 1.2010613e-39
0.0022546763 0.021963727 0.43700001 1.2010613e-39
0.0037577841 0.021963727 0.43700001 1.3840485e-39
0.0052488535 0.021913467 0.43599999 1.9372223e-39
0.0067330436 0.021863207 0.435 2.3985535e-39
0.0081914365 0.021762686 0.433 3.6892924e-39
0.0096360706 0.021662164 0.43099999 3.9676645e-39
0.011066947 0.021561645 0.42899999 3.8754689e-39
0.012513329 0.021511385 0.428 4.4261315e-39
0.013952804 0.021461124 0.42699999 3.7807621e-39
0.015421515 0.021461124 0.42699999 2.6780047e-39
0.01669245 0.021209823 0.42199999 1.110679e-39
0.018100969 0.021159563 0.421 1.2925591e-39
0.019549044 0.021159563 0.421 1.3847547e-39
0.020997146 0.021159563 0.421 1.8457329e-39
0.022338592 0.021059042 0.419 1.9379285e-39
0.023723032 0.021008782 0.41800001 1.7535373e-39
0.025040401 0.020908261 0.41600001 1.569146e-39
0.026407644 0.020858003 0.41499999 2.0272473e-39
0.02783508 0.020858003 0.41499999 1.9350516e-39
0.029192006 0.020807743 0.414 1.3847547e-39
0.03061603 0.020807743 0.414 1.0159722e-39
0.032040026 0.020807743 0.414 1.3847547e-39
0.033464022 0.020807743 0.414 1.3847547e-39
0.034803752 0.020757481 0.41299999 1.2925591e-39
0.036224306 0.020757481 0.41299999 9.2377659e-40
0.037644863 0.020757481 0.41299999 8.3120821e-40
0.039065421 0.020757481 0.41299999 8.3120821e-40
0.040584035 0.020807743 0.414 8.3120821e-40
0.042008031 0.020807743 0.414 1.0155995e-39
0.043432031 0.020807743 0.414 8.3120821e-40
0.044856027 0.020807743 0.414 1.1077951e-39
0.046168234 0.020757481 0.41299999 1.2925591e-39
0.047243111 0.0206067 0.41 1.3847547e-39
0.048416045 0.020506181 0.40799999 1.3847547e-39
0.049697299 0.020455921 0.40700001 1.3847547e-39
0.051097218 0.020455921 0.40700001 9.2307033e-40
0.052368149 0.020405659 0.40599999 1.2918529e-39
0.053632207 0.0203554 0.405 1.5673598e-38
0.054889385 0.02030514 0.40400001 1.6779945e-38
0.056139678 0.020254878 0.403 1.6779595e-38
0.057240378 0.020154357 0.40099999 1.7609355e-38
0.058473479 0.020104099 0.40000001 6.1807099e-39
0.059849318 0.020104099 0.40000001 2.5223372e-42
0.061072096 0.020053837 0.39899999 2.0272473e-39
0.062287997 0.020003578 0.398 2.2116385e-39
0.063656963 0.020003578 0.398 3.2315134e-39
0.065025948 0.020003578 0.398 4.7988391e-39
0.06639491 0.020003578 0.398 1.1891391e-38
0.069296226 0.020455921 0.40700001 1.9451432e-38
0.070696145 0.020455921 0.40700001 1.9545464e-38
-0.020617073 0.020776536 0.44400001 2.2494639e-38
-0.019089872 0.020776536 0.44400001 1.3367272e-38
-0.01752313 0.020729743 0.44299999 1.9292629e-39
-0.015963269 0.02068295 0.442 3.1278019e-39
-0.01444295 0.02068295 0.442 1.7610748e-38
-0.012893408 0.020636156 0.44100001 2.0007835e-38
-0.011350743 0.020589361 0.44 1.9638019e-38
-0.0098373024 0.020589361 0.44 1.5489216e-38
-0.0083049582 0.020542568 0.43900001 2.183223e-42
-0.0067794924 0.020495772 0.43799999 1.9382915e-39
-0.0052608922 0.020448979 0.43700001 2.4882254e-39
-0.0037577841 0.020448979 0.43700001 1.842856e-39
-0.0022546763 0.020448979 0.43700001 1.2925591e-39
-0.0007515683 0.020448979 0.43700001 1.3847547e-39
0.00075153972 0.020448979 0.43700001 1.200711e-39
0.0022546763 0.020448979 0.43700001 1.4772979e-39
0.0037577841 0.020448979 0.43700001 2.1223198e-39
0.0052488535 0.020402184 0.43599999 2.4911023e-39
0.0067330436 0.02035539 0.435 2.6751404e-39
0.0081536006 0.020168213 0.43099999 2.9517273e-39
0.0096137132 0.02012142 0.43000001 3.1361158e-39
0.011066947 0.020074626 0.42899999 3.2283114e-39
0.012484092 0.019981038 0.42699999 3.687863e-39
0.013887453 0.019887451 0.42500001 3.5034718e-39
0.015313168 0.019840656 0.42399999 3.1361158e-39
0.01669245 0.019747067 0.42199999 2.582942e-39
0.018100969 0.019700274 0.421 1.8450238e-39
0.019549044 0.019700274 0.421 2.0294151e-39
0.02094727 0.019653479 0.41999999 1.9372195e-39
0.022338592 0.019606685 0.419 1.8450238e-39
0.023723032 0.019559892 0.41800001 2.3034838e-39
0.025040401 0.019466303 0.41600001 1.9347013e-39
0.026407644 0.01941951 0.41499999 1.9350516e-39
0.02783508 0.01941951 0.41499999 1.7506604e-39
0.029262517 0.01941951 0.41499999 1.3847547e-39
0.03061603 0.019372717 0.414 1.2003635e-39
0.032040026 0.019372717 0.414 1.842856e-39
0.033544853 0.01941951 0.41499999 1.842856e-39
0.034888022 0.019372717 0.414 1.2925591e-39
0.036312018 0.019372717 0.414 9.2377659e-40
0.037736014 0.019372717 0.414 1.1981929e-39
0.039160009 0.019372717 0.414 9.2160597e-40
0.040584035 0.019372717 0.414 1.1060098e-39
0.042109501 0.01941951 0.41499999 1.1060098e-39
0.043641847 0.019466303 0.41600001 1.1981929e-39
0.044964373 0.01941951 0.41499999 1.4747798e-39
0.046280023 0.019372717 0.414 1.0159722e-39
0.047473568 0.01927913 0.412 1.2925591e-39
0.048534714 0.019138748 0.40900001 1.4769504e-39
0.049819402 0.019091953 0.40799999 1.3847547e-39
0.051097218 0.019045159 0.40700001 1.3833464e-39
0.052368149 0.018998364 0.40599999 5.1848043e-44
0.053764626 0.018998364 0.40599999 1.4014086e-38
0.054889385 0.018904777 0.40400001 1.6872151e-38
0.056278985 0.018904777 0.40400001 1.6688115e-38
0.05738312 0.018811189 0.40200001 1.7149093e-38
0.058619659 0.018764393 0.40099999 9.4972317e-39
0.059998941 0.018764393 0.40099999 1.0818024e-42
0.061225161 0.0187176 0.40000001 2.1194429e-39
0.062444501 0.018670805 0.39899999 1.842856e-39
0.063816905 0.018670805 0.39899999 5.5424297e-40
0.065189332 0.018670805 0.39899999 1.0761972e-42
0.066561736 0.018670805 0.39899999 1.1804641e-38
0.069296226 0.019045159 0.40700001 1.9180291e-38
0.070696145 0.019045159 0.40700001 1.9361423e-38
-0.015963269 0.01915089 0.442 1.8529842e-38
-0.01444295 0.01915089 0.442 1.3280059e-38
-0.012922644 0.01915089 0.442 1.8627406e-38
-0.011376541 0.019107563 0.44100001 1.8993e-38
-0.0098596606 0.019107563 0.44100001 1.7333479e-38
-0.0083427941 0.019107563 0.44100001 8.0267581e-39
-0.0067949709 0.019020908 0.43900001 3.9460565e-42
-0.0052729305 0.018977579 0.43799999 1.8654085e-40
-0.003766383 0.018977579 0.43799999 9.4346623e-41
-0.0022546763 0.018934252 0.43700001 1.7488625e-39
-0.0007515683 0.018934252 0.43700001 2.0254494e-39
0.00075153972 0.018934252 0.43700001 2.0272473e-39
0.0022598356 0.018977579 0.43799999 2.3038342e-39
0.0037577841 0.018934252 0.43700001 2.029771e-39
0.0052488535 0.018890923 0.43599999 2.3063579e-39
0.0067330436 0.018847596 0.435 2.5832951e-39
0.0081536006 0.018674284 0.43099999 2.6754908e-39
0.0096137132 0.018630957 0.43000001 2.5832951e-39
0.011066947 0.018587628 0.42899999 2.6754908e-39
0.012484092 0.018500973 0.42699999 2.8598792e-39
0.013887453 0.018414319 0.42500001 2.5832923e-39
0.015313168 0.01837099 0.42399999 2.6751404e-39
0.01669245 0.018284334 0.42199999 2.6751404e-39
0.018100969 0.018241005 0.421 2.3067082e-39
0.019549044 0.018241005 0.421 2.0301213e-39
0.02094727 0.018197678 0.41999999 1.9379285e-39
0.022338592 0.018154349 0.419 1.8457329e-39
0.023666279 0.018067695 0.417 1.7528282e-39
0.025040401 0.018024366 0.41600001 1.5684369e-39
0.026471278 0.018024366 0.41600001 1.9350516e-39
0.02783508 0.017981039 0.41499999 1.9350516e-39
0.029262517 0.017981039 0.41499999 1.3847547e-39
0.030689981 0.017981039 0.41499999 1.3847547e-39
0.032117419 0.017981039 0.41499999 1.3847547e-39
0.033544853 0.017981039 0.41499999 1.3847547e-39
0.034972291 0.017981039 0.41499999 1.7506604e-39
0.036399726 0.017981039 0.41499999 1.3818779e-39
0.037736014 0.017937712 0.414 9.2340384e-40
0.039160009 0.017937712 0.414 6.4681695e-40
0.040682063 0.017981039 0.41499999 1.1060098e-39
0.042109501 0.017981039 0.41499999 1.1060098e-39
0.043641847 0.018024366 0.41600001 7.3938533e-40
0.044964373 0.017981039 0.41499999 1.0159722e-39
0.046280023 0.017937712 0.414 1.2925591e-39
0.047588792 0.017894384 0.41299999 1.2925591e-39
0.049009379 0.017894384 0.41299999 1.842856e-39
0.050063614 0.017764401 0.41 1.7506604e-39
0.05134831 0.017721074 0.40900001 2.026897e-39
0.052497137 0.017634418 0.40700001 9.1864923e-41
0.053764626 0.017591089 0.40599999 1.3368357e-38
0.05502525 0.017547762 0.405 1.6963986e-38
0.056278985 0.017504435 0.40400001 1.6687759e-38
0.057525866 0.017461106 0.403 1.6872151e-38
0.058765844 0.017417779 0.40200001 1.3276899e-38
0.060148563 0.017417779 0.40200001 3.6951119e-40
0.061378226 0.01737445 0.40099999 2.3038342e-39
0.062757507 0.01737445 0.40099999 1.7506604e-39
0.064136788 0.01737445 0.40099999 1.2903885e-39
0.065516099 0.01737445 0.40099999 2.7623656e-40
0.067395844 0.017504435 0.40400001 1.4754911e-38
0.069296226 0.017634418 0.40700001 1.835054e-38
0.070696145 0.017634418 0.40700001 1.8900442e-38
-0.0022598356 0.017459365 0.43799999 2.7622395e-40
-0.00075328804 0.017459365 0.43799999 1.8402972e-40
0.0007532594 0.017459365 0.43799999 9.2194229e-41
0.0022598356 0.017459365 0.43799999 4.6097535e-40
0.0037577841 0.017419502 0.43700001 7.3867627e-40
0.0052488535 0.01737964 0.43599999 1.8450238e-39
0.0067485217 0.01737964 0.43599999 2.9495595e-39
0.0082481895 0.01737964 0.43599999 3.1339508e-39
0.0097478582 0.01737964 0.43599999 2.8595289e-39
0.011066947 0.01710061 0.42899999 2.3985507e-39
0.012484092 0.017020887 0.42699999 2.2145154e-39
0.013887453 0.016941164 0.42500001 2.3989067e-39
0.015313168 0.016901301 0.42399999 2.9488504e-39
0.01669245 0.016821578 0.42199999 2.8566548e-39
0.018100969 0.016781718 0.421 2.2145154e-39
0.019502608 0.016741855 0.41999999 2.0301241e-39
0.020897396 0.016701994 0.419 2.1201618e-39
0.022285277 0.016662132 0.41800001 2.1201618e-39
0.023666279 0.016622271 0.417 2.1194429e-39
0.025040401 0.016582409 0.41600001 1.9350516e-39
0.026471278 0.016582409 0.41600001 1.9350516e-39
0.027902154 0.016582409 0.41600001 1.7506604e-39
0.029262517 0.016542548 0.41499999 1.2929094e-39
0.030689981 0.016542548 0.41499999 1.3851051e-39
0.032117419 0.016542548 0.41499999 1.842856e-39
0.033544853 0.016542548 0.41499999 1.842856e-39
0.034972291 0.016542548 0.41499999 1.7506604e-39
0.036399726 0.016542548 0.41499999 1.4740735e-39
0.037827164 0.016542548 0.41499999 8.3158096e-40
0.039254598 0.016542548 0.41499999 7.3938533e-40
0.040682063 0.016542548 0.41499999 1.1059972e-39
0.042109501 0.016542548 0.41499999 1.1059972e-39
0.043641847 0.016582409 0.41600001 3.643376e-44
0.045072723 0.016582409 0.41600001 3.643376e-44
0.046280023 0.016502688 0.414 3.5873241e-43
0.047704019 0.016502688 0.414 3.5873241e-43
0.049128044 0.016502688 0.414 5.6051939e-45
0.050185725 0.016383102 0.41100001 5.6051939e-45
0.051473852 0.01634324 0.41 1.0761972e-42
0.05275511 0.016303379 0.40900001 8.311956e-40
0.053764626 0.016183794 0.40599999 8.2129514e-39
0.055161107 0.016183794 0.40599999 1.4943232e-38
0.056418288 0.016143933 0.405 1.6042017e-38
0.057668611 0.016104072 0.40400001 1.6779582e-38
0.058912028 0.01606421 0.403 1.5028957e-38
0.060298186 0.01606421 0.403 3.6985311e-40
0.061531287 0.016024349 0.40200001 3.5873241e-43
0.062914006 0.016024349 0.40200001 3.5873241e-43
0.06429673 0.016024349 0.40200001 7.2166871e-43
0.066006243 0.016104072 0.40400001 7.3864684e-40
0.067395844 0.016104072 0.40400001 1.8714271e-38
0.0052608922 0.015904754 0.43700001 4.5917748e-40
0.0067485217 0.015868358 0.43599999 2.9495595e-39
0.0082481895 0.015868358 0.43599999 2.7651682e-39
0.0097478582 0.015868358 0.43599999 2.5829448e-39
0.011066947 0.01561359 0.42899999 2.3985535e-39
0.012513329 0.015577196 0.428 2.3989039e-39
0.013887453 0.01546801 0.42500001 2.2145126e-39
0.015277052 0.015395219 0.42300001 2.7644592e-39
0.016732005 0.015395219 0.42300001 2.5800679e-39
0.018100969 0.015322428 0.421 1.8450238e-39
0.019502608 0.015286032 0.41999999 1.9372195e-39
0.020897396 0.015249638 0.419 1.7535373e-39
0.022285277 0.015213243 0.41800001 1.6613416e-39
0.023666279 0.015176848 0.417 1.9350516e-39
0.025040401 0.015140451 0.41600001 1.842856e-39
0.026471278 0.015140451 0.41600001 1.842856e-39
0.027902154 0.015140451 0.41600001 1.842856e-39
0.029333031 0.015140451 0.41600001 1.2003635e-39
0.030763933 0.015140451 0.41600001 1.2925591e-39
0.032194812 0.015140451 0.41600001 1.2925591e-39
0.033625688 0.015140451 0.41600001 1.3847547e-39
0.035056561 0.015140451 0.41600001 1.2925591e-39
0.036399726 0.015104057 0.41499999 1.2003635e-39
0.037827164 0.015104057 0.41499999 1.2003635e-39
0.039254598 0.015104057 0.41499999 1.0159722e-39
0.040682063 0.015104057 0.41499999 6.4718689e-40
0.042109501 0.015104057 0.41499999 7.3708299e-43
0.043641847 0.015140451 0.41600001 7.9325012e-39
0.045072723 0.015140451 0.41600001 1.2726674e-38
0.046391811 0.015104057 0.41499999 1.4659433e-38
0.047704019 0.015067662 0.414 1.6134563e-38
0.049128044 0.015067662 0.414 1.7149816e-38
0.050185725 0.014958477 0.41100001 1.8624947e-38
0.051473852 0.014922081 0.41 1.9175577e-38
0.052884091 0.014922081 0.41 1.8438012e-38
0.053764626 0.014776499 0.40599999 1.8069965e-38
0.055161107 0.014776499 0.40599999 1.7516791e-38
0.056557588 0.014776499 0.40599999 1.7977757e-38
0.057668611 0.014703709 0.40400001 1.7516779e-38
0.059058212 0.014703709 0.40400001 1.622494e-38
0.060447816 0.014703709 0.40400001 1.1891745e-38
0.061837416 0.014703709 0.40400001 1.1890661e-38
0.063227013 0.014703709 0.40400001 1.0323335e-38
0.0052608922 0.014390027 0.43700001 2.580386e-39
0.0067485217 0.014357097 0.43599999 1.842856e-39
0.0082481895 0.014357097 0.43599999 2.7648123e-39
0.0097478582 0.014357097 0.43599999 2.4910995e-39
0.011247527 0.014357097 0.43599999 2.4910995e-39
0.012484092 0.014060735 0.42699999 2.2145154e-39
0.013887453 0.013994877 0.42500001 2.3989067e-39
0.015277052 0.013929019 0.42300001 2.3985535e-39
0.016732005 0.013929019 0.42300001 2.3063579e-39
0.018100969 0.01386316 0.421 1.9372195e-39
0.019502608 0.013830231 0.41999999 1.7528282e-39
0.020897396 0.013797302 0.419 2.1194429e-39
0.022285277 0.013764373 0.41800001 2.0272473e-39
0.023666279 0.013731444 0.417 2.0272473e-39
0.025040401 0.013698515 0.41600001 1.7506604e-39
0.026471278 0.013698515 0.41600001 1.9350516e-39
0.027902154 0.013698515 0.41600001 1.9350516e-39
0.029333031 0.013698515 0.41600001 1.2003635e-39
0.030763933 0.013698515 0.41600001 1.2925591e-39
0.032194812 0.013698515 0.41600001 1.2925591e-39
0.033625688 0.013698515 0.41600001 1.2925591e-39
0.035056561 0.013698515 0.41600001 1.2925591e-39
0.036487438 0.013698515 0.41600001 1.2003635e-39
0.037918314 0.013698515 0.41600001 1.5669754e-39
0.039254598 0.013665586 0.41499999 1.4747798e-39
0.040682063 0.013665586 0.41499999 6.4718689e-40
0.04221097 0.013698515 0.41600001 1.0972167e-42
0.043641847 0.013698515 0.41600001 1.6316854e-38
0.045072723 0.013698515 0.41600001 2.0557853e-38
0.0465036 0.013698515 0.41600001 2.0006064e-38
0.047934476 0.013698515 0.41600001 1.9360694e-38
0.060597438 0.013336295 0.405 1.9914231e-38
0.061990477 0.013336295 0.405 1.9912789e-38
0.0067485217 0.012845837 0.43599999 8.3158096e-40
0.0082481895 0.012845837 0.43599999 2.7676892e-39
0.0097478582 0.012845837 0.43599999 2.6754908e-39
0.011247527 0.012845837 0.43599999 2.5832951e-39
0.012484092 0.012580669 0.42699999 2.3063579e-39
0.013887453 0.012521745 0.42500001 2.3985535e-39
0.015277052 0.012462818 0.42300001 2.673358e-39
0.016732005 0.012462818 0.42300001 2.5811623e-39
0.018143963 0.012433355 0.42199999 2.0301241e-39
0.019502608 0.012374429 0.41999999 1.7535373e-39
0.020897396 0.012344967 0.419 2.1194429e-39
0.022285277 0.012315503 0.41800001 1.842856e-39
0.023666279 0.012286041 0.417 1.5684369e-39
0.025100594 0.012286041 0.417 1.4762413e-39
0.026471278 0.012256578 0.41600001 1.4772979e-39
0.027902154 0.012256578 0.41600001 1.4772979e-39
0.029333031 0.012256578 0.41600001 1.2925591e-39
0.030763933 0.012256578 0.41600001 1.0159722e-39
0.032194812 0.012256578 0.41600001 1.2925591e-39
0.033625688 0.012256578 0.41600001 1.0159722e-39
0.035056561 0.012256578 0.41600001 1.4740735e-39
0.036487438 0.012256578 0.41600001 1.4740735e-39
0.037918314 0.012256578 0.41600001 9.2412411e-40
0.039349191 0.012256578 0.41600001 8.3192848e-40
0.040780094 0.012256578 0.41600001 6.4718689e-40
0.04221097 0.012256578 0.41600001 1.8174841e-42
0.043641847 0.012256578 0.41600001 1.6411163e-38
0.04518107 0.012286041 0.417 1.9730205e-38
0.046615388 0.012286041 0.417 1.8992637e-38
0.0067485217 0.011334553 0.43599999 2.766023e-40
0.0082481895 0.011334553 0.43599999 3.4112537e-39
0.0097255008 0.011308557 0.435 2.9520748e-39
0.011221729 0.011308557 0.435 2.6754879e-39
0.012484092 0.011100584 0.42699999 2.4910995e-39
0.013887453 0.011048591 0.42500001 2.5832951e-39
0.015277052 0.010996597 0.42300001 2.6751404e-39
0.016732005 0.010996597 0.42300001 2.4907492e-39
0.018143963 0.0109706 0.42199999 1.7535373e-39
0.019502608 0.010918606 0.41999999 1.4769504e-39
0.020897396 0.01089261 0.419 1.9350516e-39
0.022285277 0.010866614 0.41800001 1.9350516e-39
0.023723032 0.010866614 0.41800001 1.4769504e-39
0.025100594 0.010840617 0.417 1.4769504e-39
0.026534911 0.010840617 0.417 1.3847547e-39
0.027969226 0.010840617 0.417 1.3847547e-39
0.029403543 0.010840617 0.417 1.2925591e-39
0.030837886 0.010840617 0.417 1.2925591e-39
0.032272201 0.010840617 0.417 1.2003635e-39
0.033706516 0.010840617 0.417 1.2003635e-39
0.035140835 0.010840617 0.417 1.0159722e-39
0.03657515 0.010840617 0.417 9.2377659e-40
0.038009465 0.010840617 0.417 1.0159722e-39
0.03944378 0.010840617 0.417 1.2003635e-39
0.040878125 0.010840617 0.417 5.5462132e-40
0.04231244 0.010840617 0.417 5.5462132e-40
0.043746755 0.010840617 0.417 1.622785e-38
0.04518107 0.010840617 0.417 1.9178111e-38
0.046615388 0.010840617 0.417 1.917595e-38
0.0067485217 0.0098232711 0.43599999 2.183223e-42
0.0082481895 0.0098232711 0.43599999 2.9524434e-39
0.0097255008 0.0098007414 0.435 3.0442705e-39
0.011221729 0.0098007414 0.435 2.9520748e-39
0.012484092 0.009620497 0.42699999 2.5832951e-39
0.013952804 0.009620497 0.42699999 2.6754908e-39
0.015277052 0.0095303757 0.42300001 2.6754908e-39
0.016732005 0.0095303757 0.42300001 2.2145126e-39
0.018143963 0.0095078452 0.42199999 1.5694935e-39
0.019502608 0.009462784 0.41999999 1.6616891e-39
0.020897396 0.0094402535 0.419 1.4762441e-39
0.022338592 0.0094402535 0.419 1.4762441e-39
0.023723032 0.0094177239 0.41800001 1.200711e-39
0.025160788 0.0094177239 0.41800001 1.3851023e-39
0.026598543 0.0094177239 0.41800001 1.9350516e-39
0.028036298 0.0094177239 0.41800001 1.6584648e-39
0.029403543 0.0093951933 0.417 1.7506604e-39
0.030837886 0.0093951933 0.417 1.6584648e-39
0.032272201 0.0093951933 0.417 1.2925591e-39
0.033706516 0.0093951933 0.417 1.2925591e-39
0.035140835 0.0093951933 0.417 1.7506604e-39
0.03657515 0.0093951933 0.417 1.6584648e-39
0.038009465 0.0093951933 0.417 1.2925591e-39
0.03944378 0.0093951933 0.417 1.2925591e-39
0.040878125 0.0093951933 0.417 5.5428501e-40
0.04231244 0.0093951933 0.417 1.8450238e-39
0.043746755 0.0093951933 0.417 1.8159274e-38
0.04518107 0.0093951933 0.417 2.0095382e-38
0.046727173 0.0094177239 0.41800001 1.9176303e-38
0.0082292724 0.008292946 0.435 1.3880142e-39
0.0097255008 0.008292946 0.435 3.2261464e-39
0.011221729 0.008292946 0.435 3.4105377e-39
0.012717986 0.008292946 0.435 2.9520748e-39
0.013952804 0.0081404317 0.42699999 2.8598792e-39
0.015349285 0.0081023043 0.42500001 3.1335976e-39
0.016732005 0.008064175 0.42300001 2.8570107e-39
0.018143963 0.0080451109 0.42199999 1.5694935e-39
0.019502608 0.0080069825 0.41999999 1.6616891e-39
0.020897396 0.0079879183 0.419 1.5684369e-39
0.022338592 0.0079879183 0.419 1.5684369e-39
0.023723032 0.0079688542 0.41800001 1.569146e-39
0.025160788 0.0079688542 0.41800001 1.569146e-39
0.026598543 0.0079688542 0.41800001 1.4772979e-39
0.028036298 0.0079688542 0.41800001 1.2929066e-39
0.029474054 0.0079688542 0.41800001 1.3847547e-39
0.030911837 0.0079688542 0.41800001 1.3847547e-39
0.032349594 0.0079688542 0.41800001 1.4769504e-39
0.033787347 0.0079688542 0.41800001 1.3847547e-39
0.035140835 0.00794979 0.417 1.2925591e-39
0.03657515 0.00794979 0.417 1.2925591e-39
0.038009465 0.00794979 0.417 1.7506604e-39
0.03944378 0.00794979 0.417 1.7506604e-39
0.040780094 0.0079307258 0.41600001 9.2377659e-40
0.04221097 0.0079307258 0.41600001 1.9618179e-44
0.043641847 0.0079307258 0.41600001 1.4197003e-38
0.04518107 0.00794979 0.417 2.0097523e-38
0.046615388 0.00794979 0.417 1.8808236e-38
0.0082292724 0.0067851301 0.435 4.7335862e-42
0.0097255008 0.0067851301 0.435 2.5811273e-39
0.011221729 0.0067851301 0.435 3.1343011e-39
0.012688749 0.0067695319 0.43399999 2.6754908e-39
0.014181538 0.0067695319 0.43399999 2.7676864e-39
0.015349285 0.0066291504 0.42500001 2.6754908e-39
0.016732005 0.0065979543 0.42300001 2.3067082e-39
0.018143963 0.0065823556 0.42199999 1.2929094e-39
0.019502608 0.0065511595 0.41999999 1.2929094e-39
0.020897396 0.0065355618 0.419 1.4762441e-39
0.022338592 0.0065355618 0.419 1.4762441e-39
0.023723032 0.006519964 0.41800001 1.9350516e-39
0.025160788 0.006519964 0.41800001 1.9350516e-39
0.026598543 0.006519964 0.41800001 1.3847547e-39
0.028036298 0.006519964 0.41800001 1.3847547e-39
0.029474054 0.006519964 0.41800001 1.9350516e-39
0.030911837 0.006519964 0.41800001 1.9350516e-39
0.032272201 0.0065043662 0.417 1.9350516e-39
0.033706516 0.0065043662 0.417 1.842856e-39
0.035140835 0.0065043662 0.417 1.7506604e-39
0.03657515 0.0065043662 0.417 1.7506604e-39
0.038009465 0.0065043662 0.417 1.7506604e-39
0.039349191 0.0064887679 0.41600001 1.6584648e-39
0.040780094 0.0064887679 0.41600001 1.0163197e-39
0.04221097 0.0064887679 0.41600001 3.671402e-43
0.043641847 0.0064887679 0.41600001 8.8518244e-39
0.04518107 0.0065043662 0.417 1.9546517e-38
0.046615388 0.0065043662 0.417 1.9268143e-38
0.0082292724 0.0052773356 0.435 1.8369341e-40
0.0097255008 0.0052773356 0.435 2.1223198e-39
0.011221729 0.0052773356 0.435 2.4911023e-39
0.012688749 0.0052652033 0.43399999 2.6754908e-39
0.014181538 0.0052652033 0.43399999 2.859882e-39
0.015349285 0.0051560174 0.42500001 2.6754908e-39
0.016771562 0.0051438855 0.42399999 2.3989039e-39
0.018100969 0.0051074899 0.421 2.0279535e-39
0.019502608 0.005095358 0.41999999 1.9357579e-39
0.02094727 0.005095358 0.41999999 2.0272473e-39
0.022338592 0.0050832261 0.419 2.2116385e-39
0.023779785 0.0050832261 0.419 1.569146e-39
0.025160788 0.0050710947 0.41800001 1.2925591e-39
0.026598543 0.0050710947 0.41800001 1.3840485e-39
0.027969226 0.0050589629 0.417 1.4762441e-39
0.029403543 0.0050589629 0.417 1.4762441e-39
0.030837886 0.0050589629 0.417 1.3840485e-39
0.032272201 0.0050589629 0.417 1.3847547e-39
0.033625688 0.005046831 0.41600001 1.3847547e-39
0.035056561 0.005046831 0.41600001 1.3847547e-39
0.036487438 0.005046831 0.41600001 1.3847547e-39
0.037918314 0.005046831 0.41600001 1.3847547e-39
0.039349191 0.005046831 0.41600001 1.2925591e-39
0.040780094 0.005046831 0.41600001 1.2929094e-39
0.04221097 0.005046831 0.41600001 1.8104776e-42
0.043641847 0.005046831 0.41600001 6.4558423e-39
0.04518107 0.0050589629 0.417 1.936323e-38
0.0082292724 0.0037695193 0.435 2.7658269e-40
0.0097255008 0.0037695193 0.435 2.3989039e-39
0.011221729 0.0037695193 0.435 2.2145126e-39
0.012688749 0.0037608533 0.43399999 3.1339508e-39
0.014148863 0.0037521881 0.433 3.4105377e-39
0.015638212 0.0037521881 0.433 2.8598792e-39
0.01669245 0.0036568667 0.42199999 2.4910967e-39
0.018100969 0.0036482012 0.421 1.9379285e-39
0.019549044 0.0036482012 0.421 1.4769504e-39
0.02094727 0.0036395355 0.41999999 2.1194429e-39
0.022391904 0.0036395355 0.41999999 2.2116385e-39
0.023779785 0.00363087 0.419 1.7535373e-39
0.025160788 0.0036222045 0.41800001 1.569146e-39
0.026598543 0.0036222045 0.41800001 1.6613416e-39
0.027969226 0.003613539 0.417 1.4769504e-39
0.029403543 0.003613539 0.417 1.4762441e-39
0.030837886 0.003613539 0.417 1.3840485e-39
0.032194812 0.0036048733 0.41600001 1.3851023e-39
0.033625688 0.0036048733 0.41600001 1.3851023e-39
0.035056561 0.0036048733 0.41600001 1.3847547e-39
0.036487438 0.0036048733 0.41600001 1.3847547e-39
0.037918314 0.0036048733 0.41600001 1.4762441e-39
0.039349191 0.0036048733 0.41600001 1.2918529e-39
0.040780094 0.0036048733 0.41600001 1.0163197e-39
0.04221097 0.0036048733 0.41600001 1.0874076e-42
0.043641847 0.0036048733 0.41600001 5.9016147e-39
0.04518107 0.003613539 0.417 1.9269981e-38
0.046727173 0.0036222045 0.41800001 1.8899713e-38
0.0082292724 0.0022617029 0.435 1.8438846e-40
0.0097255008 0.0022617029 0.435 2.3067082e-39
0.011221729 0.0022617029 0.435 2.0301213e-39
0.012688749 0.0022565036 0.43399999 2.3070586e-39
0.014116187 0.0022461049 0.43200001 2.7680367e-39
0.015602097 0.0022461049 0.43200001 2.9520748e-39
0.01669245 0.0021941117 0.42199999 2.5832923e-39
0.018143963 0.0021941117 0.42199999 2.0301241e-39
0.019549044 0.0021889124 0.421 1.569146e-39
0.02094727 0.002183713 0.41999999 2.3038342e-39
0.022391904 0.002183713 0.41999999 2.3038342e-39
0.023723032 0.0021733146 0.41800001 1.8460804e-39
0.025160788 0.0021733146 0.41800001 1.5694935e-39
0.026534911 0.0021681152 0.417 2.1194429e-39
0.027969226 0.0021681152 0.417 2.0272473e-39
0.029403543 0.0021681152 0.417 1.842856e-39
0.030763933 0.0021629159 0.41600001 1.7506604e-39
0.032194812 0.0021629159 0.41600001 1.2929094e-39
0.033625688 0.0021629159 0.41600001 1.3851051e-39
0.035056561 0.0021629159 0.41600001 1.200711e-39
0.036487438 0.0021629159 0.41600001 1.3851023e-39
0.037918314 0.0021629159 0.41600001 1.3847547e-39
0.039349191 0.0021629159 0.41600001 1.2925591e-39
0.040780094 0.0021629159 0.41600001 1.3829344e-39
0.04221097 0.0021629159 0.41600001 2.7658689e-40
0.043641847 0.0021629159 0.41600001 3.8733109e-39
0.04518107 0.0021681152 0.417 1.9269981e-38
0.046727173 0.0021733146 0.41800001 1.8991909e-38
0.04839538 0.002183713 0.41999999 1.8899713e-38
0.0082292724 0.00075390813 0.435 2.7873788e-40
0.0097255008 0.00075390813 0.435 2.3985535e-39
0.011195932 0.00075217499 0.43399999 2.3985535e-39
0.012688749 0.00075217499 0.43399999 2.7655186e-39
0.014083509 0.00074697559 0.43099999 3.410888e-39
0.01556598 0.00074697559 0.43099999 3.0442705e-39
0.01704845 0.00074697559 0.43099999 2.6754879e-39
0.018143963 0.00073137751 0.42199999 2.1223198e-39
0.019549044 0.00072964438 0.421 1.569146e-39
0.02094727 0.00072791125 0.41999999 2.0301241e-39
0.022338592 0.00072617811 0.419 1.8457329e-39
0.023723032 0.00072444504 0.41800001 1.7535373e-39
0.025100594 0.00072271196 0.417 1.7535373e-39
0.026534911 0.00072271196 0.417 1.6613416e-39
0.027969226 0.00072271196 0.417 1.4769504e-39
0.029403543 0.00072271196 0.417 1.9357579e-39
0.030763933 0.00072097877 0.41600001 1.7513666e-39
0.032194812 0.00072097877 0.41600001 1.200711e-39
0.033625688 0.00072097877 0.41600001 1.2929066e-39
0.035056561 0.00072097877 0.41600001 1.7506604e-39
0.036487438 0.00072097877 0.41600001 1.842856e-39
0.037918314 0.00072097877 0.41600001 1.9347041e-39
0.039349191 0.00072097877 0.41600001 1.8425085e-39
0.040780094 0.00072097877 0.41600001 1.4747798e-39
0.04221097 0.00072097877 0.41600001 4.6062782e-40
0.043641847 0.00072097877 0.41600001 3.0442705e-39
0.04518107 0.00072271196 0.417 1.8809723e-38
0.046838962 0.00072617811 0.419 1.8900069e-38
0.04839538 0.00072791125 0.41999999 1.8715678e-38
0.0082292724 -0.00075390813 0.435 1.2921737e-39
0.0097031426 -0.00075217499 0.43399999 1.4762441e-39
0.011195932 -0.00075217499 0.43399999 2.1216135e-39
0.012659513 -0.00075044186 0.433 2.8573639e-39
0.014083509 -0.00074697559 0.43099999 3.2261464e-39
0.015529864 -0.00074524252 0.43000001 3.0439201e-39
0.017008895 -0.00074524252 0.43000001 3.0439201e-39
0.018143963 -0.00073137751 0.42199999 2.3989039e-39
0.019549044 -0.00072964438 0.421 1.9379257e-39
0.020897396 -0.00072617811 0.419 1.9379285e-39
0.022338592 -0.00072617811 0.419 1.8457329e-39
0.023723032 -0.00072444504 0.41800001 1.4769504e-39
0.025100594 -0.00072271196 0.417 1.6613416e-39
0.026534911 -0.00072271196 0.417 2.1194429e-39
0.027969226 -0.00072271196 0.417 1.9350516e-39
0.029403543 -0.00072271196 0.417 1.3847547e-39
0.030763933 -0.00072097877 0.41600001 1.2925591e-39
0.032194812 -0.00072097877 0.41600001 1.5669754e-39
0.033625688 -0.00072097877 0.41600001 1.8435623e-39
0.035056561 -0.00072097877 0.41600001 1.842856e-39
0.036487438 -0.00072097877 0.41600001 1.7506604e-39
0.037918314 -0.00072097877 0.41600001 8.3017545e-40
0.039349191 -0.00072097877 0.41600001 1.8480604e-40
0.040780094 -0.00072097877 0.41600001 3.685415e-43
0.04221097 -0.00072097877 0.41600001 1.8511993e-40
0.043641847 -0.00072097877 0.41600001 2.8666082e-40
0.04528942 -0.00072444504 0.41800001 1.7158461e-38
0.046838962 -0.00072617811 0.419 1.8900076e-38
0.04839538 -0.00072791125 0.41999999 1.8623489e-38
0.0097031426 -0.0022565036 0.43399999 1.8402972e-40
0.011170136 -0.0022513042 0.433 9.1835496e-41
0.012659513 -0.0022513042 0.433 1.8476681e-40
0.014083509 -0.0022409055 0.43099999 9.2233185e-40
0.015529864 -0.0022357064 0.43000001 2.4907492e-39
0.017008895 -0.0022357064 0.43000001 3.1361186e-39
0.018143963 -0.0021941117 0.42199999 2.4910995e-39
0.019595478 -0.0021941117 0.42199999 2.122317e-39
0.020897396 -0.0021785137 0.419 2.0301241e-39
0.022338592 -0.0021785137 0.419 1.9379285e-39
0.023723032 -0.0021733146 0.41800001 1.6613416e-39
0.025100594 -0.0021681152 0.417 1.4769504e-39
0.026534911 -0.0021681152 0.417 1.9347041e-39
0.027969226 -0.0021681152 0.417 1.3815303e-39
0.029333031 -0.0021629159 0.41600001 1.8407877e-40
0.030763933 -0.0021629159 0.41600001 4.4841551e-44
0.032194812 -0.0021629159 0.41600001 3.0828566e-44
0.033625688 -0.0021629159 0.41600001 2.8025969e-44
0.035056561 -0.0021629159 0.41600001 5.6051939e-45
0.036487438 -0.0021629159 0.41600001 3.657389e-43
0.037827164 -0.0021577165 0.41499999 4.6529135e-40
0.039254598 -0.0021577165 0.41499999 5.6282466e-39
0.040682063 -0.0021577165 0.41499999 7.6554715e-39
0.04221097 -0.0021629159 0.41600001 1.0513536e-38
0.043641847 -0.0021629159 0.41600001 1.4566544e-38
0.04528942 -0.0021733146 0.41800001 1.9176325e-38
0.046838962 -0.0021785137 0.419 1.871569e-38
0.048280157 -0.0021785137 0.419 1.871569e-38
0.011170136 -0.0037521881 0.433 1.3088157e-38
0.012659513 -0.0037521881 0.433 1.0691081e-38
0.014083509 -0.0037348568 0.43099999 7.6486247e-39
0.015493749 -0.0037175256 0.42899999 7.3827129e-40
0.01696934 -0.0037175256 0.42899999 9.2911693e-41
0.018444931 -0.0037175256 0.42899999 1.0761972e-42
0.019595478 -0.0036568667 0.42199999 1.0761972e-42
0.020997146 -0.0036482012 0.421 5.6051939e-45
0.022338592 -0.00363087 0.419 5.6051939e-45
0.023723032 -0.0036222045 0.41800001 3.5873241e-43
0.025160788 -0.0036222045 0.41800001 3.5873241e-43
0.026534911 -0.003613539 0.417 3.5032462e-44
0.027969226 -0.003613539 0.417 2.3971214e-39
0.029333031 -0.0036048733 0.41600001 5.8148113e-39
0.030763933 -0.0036048733 0.41600001 8.8572671e-39
0.032194812 -0.0036048733 0.41600001 1.0973804e-38
0.033625688 -0.0036048733 0.41600001 1.3002108e-38
0.035056561 -0.0036048733 0.41600001 1.5674339e-38
0.036487438 -0.0036048733 0.41600001 1.6596295e-38
0.037827164 -0.0035962081 0.41499999 1.714874e-38
0.039254598 -0.0035962081 0.41499999 1.6872153e-38
0.040682063 -0.0035962081 0.41499999 1.6318248e-38
0.04221097 -0.0036048733 0.41600001 1.5488487e-38
0.043641847 -0.0036048733 0.41600001 1.6595188e-38
0.04518107 -0.003613539 0.417 1.8623492e-38
0.046727173 -0.0036222045 0.41800001 1.8898637e-38
0.04816493 -0.0036222045 0.41800001 1.8898637e-38
0.011170136 -0.0052530505 0.433 1.8900823e-38
0.012659513 -0.0052530505 0.433 1.9545827e-38
0.014083509 -0.0052287867 0.43099999 1.9545827e-38
0.015493749 -0.005204523 0.42899999 1.9636931e-38
0.01696934 -0.005204523 0.42899999 1.9175953e-38
0.018444931 -0.005204523 0.42899999 1.7239488e-38
0.019595478 -0.0051196008 0.42199999 1.2721903e-38
0.021047018 -0.0051196008 0.42199999 1.2354568e-38
0.022338592 -0.0050832056 0.419 1.3553111e-38
0.023723032 -0.0050710742 0.41800001 1.438395e-38
0.025160788 -0.0050710742 0.41800001 1.6412254e-38
0.026534911 -0.0050589424 0.417 1.733422e-38
0.027969226 -0.0050589424 0.417 1.7426416e-38
0.029403543 -0.0050589424 0.417 1.807105e-38
0.030763933 -0.0050468105 0.41600001 1.8163245e-38
0.032194812 -0.0050468105 0.41600001 1.8255088e-38
0.033625688 -0.0050468105 0.41600001 1.8439479e-38
0.035056561 -0.0050468105 0.41600001 1.8069625e-38
0.036487438 -0.0050468105 0.41600001 1.7700842e-38
0.037827164 -0.0050346786 0.41499999 1.6872151e-38
0.039254598 -0.0050346786 0.41499999 1.6411172e-38
0.040682063 -0.0050346786 0.41499999 1.595055e-38
0.04221097 -0.0050468105 0.41600001 1.5397376e-38
0.043641847 -0.0050468105 0.41600001 1.5120043e-38
0.04518107 -0.0050589424 0.417 1.8531281e-38
0.046727173 -0.0050710742 0.41800001 1.8623129e-38
0.04816493 -0.0050710742 0.41800001 1.8623129e-38
0.011195932 -0.0067695319 0.43399999 1.8624233e-38
0.012659513 -0.0067539341 0.433 1.9177054e-38
0.014083509 -0.006722738 0.43099999 1.9453641e-38
0.015493749 -0.006691542 0.42899999 1.9453275e-38
0.01696934 -0.006691542 0.42899999 2.0006449e-38
0.018444931 -0.006691542 0.42899999 1.8439839e-38
0.019595478 -0.0065823556 0.42199999 1.8439839e-38
0.021047018 -0.0065823556 0.42199999 1.9177044e-38
0.022338592 -0.0065355618 0.419 1.8347283e-38
0.023723032 -0.006519964 0.41800001 1.8346202e-38
0.025160788 -0.006519964 0.41800001 1.8438397e-38
0.026534911 -0.0065043662 0.417 1.7885942e-38
0.027969226 -0.0065043662 0.417 1.7885942e-38
0.029403543 -0.0065043662 0.417 1.7610079e-38
0.030763933 -0.0064887679 0.41600001 1.7425687e-38
0.032194812 -0.0064887679 0.41600001 1.7701911e-38
0.033625688 -0.0064887679 0.41600001 1.7794107e-38
0.034972291 -0.0064731701 0.41499999 1.7241302e-38
0.036399726 -0.0064731701 0.41499999 1.6964715e-38
0.037827164 -0.0064731701 0.41499999 1.6780311e-38
0.039254598 -0.0064731701 0.41499999 1.6134941e-38
0.040780094 -0.0064887679 0.41600001 1.539666e-38
0.04221097 -0.0064887679 0.41600001 1.539666e-38
0.043641847 -0.0064887679 0.41600001 1.6777772e-38
0.04518107 -0.0065043662 0.417 1.9359249e-38
0.046727173 -0.006519964 0.41800001 1.8346189e-38
0.04816493 -0.006519964 0.41800001 1.8622776e-38
0.049721379 -0.0065355618 0.419 1.8530933e-38
0.011195932 -0.0082738604 0.43399999 1.8899388e-38
0.012659513 -0.0082547963 0.433 1.9268534e-38
0.014083509 -0.0082166679 0.43099999 1.8899751e-38
0.015493749 -0.0081785396 0.42899999 1.8531312e-38
0.01696934 -0.0081785396 0.42899999 1.9453268e-38
0.018444931 -0.0081785396 0.42899999 1.8993016e-38
0.019595478 -0.0080450894 0.42199999 1.7610081e-38
0.021047018 -0.0080450894 0.42199999 1.8438407e-38
0.022338592 -0.0079878978 0.419 1.7793038e-38
0.023779785 -0.0079878978 0.419 1.7609355e-38
0.025160788 -0.0079688337 0.41800001 1.7609355e-38
0.026598543 -0.0079688337 0.41800001 1.7148021e-38
0.027969226 -0.0079497695 0.417 1.7424608e-38
0.029403543 -0.0079497695 0.417 1.7426043e-38
0.030837886 -0.0079497695 0.417 1.7057261e-38
0.032194812 -0.0079307053 0.41600001 1.7332047e-38
0.033625688 -0.0079307053 0.41600001 1.705546e-38
0.034972291 -0.0079116412 0.41499999 1.7794107e-38
0.036399726 -0.0079116412 0.41499999 1.8070694e-38
0.037827164 -0.0079116412 0.41499999 1.834511e-38
0.039349191 -0.0079307053 0.41600001 1.7515349e-38
0.040780094 -0.0079307053 0.41600001 1.6869632e-38
0.04221097 -0.0079307053 0.41600001 1.5947676e-38
0.043641847 -0.0079307053 0.41600001 1.0793337e-38
0.04518107 -0.0079497695 0.417 1.5679706e-38
0.046727173 -0.0079688337 0.41800001 1.9174871e-38
0.04816493 -0.0079688337 0.41800001 1.8713893e-38
0.049721379 -0.0079878978 0.419 1.8623129e-38
0.0097255008 -0.0098007414 0.435 1.3924071e-38
0.011195932 -0.00977821 0.43399999 1.5030418e-38
0.012688749 -0.00977821 0.43399999 1.6689226e-38
0.014083509 -0.0097106192 0.43099999 1.788777e-38
0.01556598 -0.0097106192 0.43099999 1.8163618e-38
0.01704845 -0.0097106192 0.43099999 1.8624596e-38
0.01853092 -0.0097106192 0.43099999 2.0097928e-38
0.019641913 -0.0095303757 0.42300001 1.8346211e-38
0.021096895 -0.0095303757 0.42300001 1.9175609e-38
0.022391904 -0.009462784 0.41999999 1.8161457e-38
0.02383654 -0.009462784 0.41999999 1.788594e-38
0.025160788 -0.0094177239 0.41800001 1.8254722e-38
0.026598543 -0.0094177239 0.41800001 1.825364e-38
0.027969226 -0.0093951933 0.417 1.8438032e-38
0.029403543 -0.0093951933 0.417 1.8806464e-38
0.030837886 -0.0093951933 0.417 1.7515725e-38
0.032194812 -0.0093726628 0.41600001 1.677816e-38
0.033625688 -0.0093726628 0.41600001 1.5487421e-38
0.035056561 -0.0093726628 0.41600001 1.484025e-38
0.036487438 -0.0093726628 0.41600001 1.2074381e-38
0.037918314 -0.0093726628 0.41600001 8.3847226e-39
0.039349191 -0.0093726628 0.41600001 3.9593324e-39
0.040780094 -0.0093726628 0.41600001 4.5953621e-40
0.04221097 -0.0093726628 0.41600001 2.7550649e-40
0.043641847 -0.0093726628 0.41600001 3.5873241e-43
0.04518107 -0.0093951933 0.417 1.152517e-38
0.046727173 -0.0094177239 0.41800001 1.9542925e-38
0.048280157 -0.0094402535 0.419 1.880536e-38
0.049840044 -0.009462784 0.41999999 1.8530933e-38
0.0097255008 -0.011308536 0.435 5.6051939e-45
0.011221729 -0.011308536 0.435 9.2561369e-41
0.012717986 -0.011308536 0.435 4.3440252e-44
0.014116187 -0.011230546 0.43200001 1.8407597e-40
0.01556598 -0.011204549 0.43099999 9.5117337e-41
0.017008895 -0.011178553 0.43000001 3.41416e-39
0.018487925 -0.011178553 0.43000001 8.8493708e-39
0.019641913 -0.010996576 0.42300001 1.2352805e-38
0.021096895 -0.010996576 0.42300001 1.6045652e-38
0.022445221 -0.010944583 0.421 1.4847109e-38
0.02383654 -0.010918586 0.41999999 1.5208676e-38
0.025220981 -0.01089259 0.419 1.1705242e-38
0.026598543 -0.010866593 0.41800001 8.0166688e-39
0.028036298 -0.010866593 0.41800001 4.2366479e-39
0.029403543 -0.010840597 0.417 1.5630195e-39
0.030837886 -0.010840597 0.417 6.4285688e-40
0.032194812 -0.0108146 0.41600001 5.6051939e-45
0.033625688 -0.0108146 0.41600001 5.6051939e-45
0.035056561 -0.0108146 0.41600001 5.6051939e-45
0.036487438 -0.0108146 0.41600001 5.6051939e-45
0.037918314 -0.0108146 0.41600001 1.8476681e-40
0.039349191 -0.0108146 0.41600001 5.5354933e-40
0.040780094 -0.0108146 0.41600001 1.1982055e-39
0.04221097 -0.0108146 0.41600001 1.566988e-39
0.043641847 -0.0108146 0.41600001 7.2166871e-43
0.04518107 -0.010840597 0.417 8.5752754e-39
0.046727173 -0.010866593 0.41800001 1.9176303e-38
0.048280157 -0.01089259 0.419 1.8346542e-38
0.049840044 -0.010918586 0.41999999 1.7978836e-38
0.0097255008 -0.012816352 0.435 2.3978501e-39
0.011221729 -0.012816352 0.435 2.5822413e-39
0.012717986 -0.012816352 0.435 2.4889317e-39
0.014116187 -0.012727964 0.43200001 2.0279535e-39
0.01556598 -0.0126985 0.43099999 1.7506604e-39
0.017008895 -0.012669038 0.43000001 1.2896822e-39
0.018487925 -0.012669038 0.43000001 4.6136911e-40
0.019688347 -0.01249226 0.42399999 2.9427268e-44
0.021146769 -0.01249226 0.42399999 3.0828566e-44
0.022445221 -0.012403872 0.421 2.9427268e-44
0.02383654 -0.012374408 0.41999999 5.6051939e-45
0.025220981 -0.012344945 0.419 5.6051939e-45
0.026598543 -0.012315483 0.41800001 3.6842939e-40
0.028036298 -0.012315483 0.41800001 8.2940754e-40
0.029403543 -0.01228602 0.417 1.3818779e-39
0.030837886 -0.01228602 0.417 1.9350516e-39
0.032194812 -0.012256557 0.41600001 1.9357579e-39
0.033625688 -0.012256557 0.41600001 1.9357579e-39
0.035056561 -0.012256557 0.41600001 2.026897e-39
0.036487438 -0.012256557 0.41600001 1.9347013e-39
0.037918314 -0.012256557 0.41600001 2.0272473e-39
0.039349191 -0.012256557 0.41600001 1.9350516e-39
0.040780094 -0.012256557 0.41600001 1.2003635e-39
0.04221097 -0.012256557 0.41600001 1.3847547e-39
0.043641847 -0.012256557 0.41600001 1.8439126e-40
0.04518107 -0.01228602 0.417 7.5600416e-39
0.046727173 -0.012315483 0.41800001 1.9084104e-38
0.048280157 -0.012344945 0.419 1.8254344e-38
0.049840044 -0.012374408 0.41999999 1.8346539e-38
0.0097255008 -0.014324169 0.435 3.2283114e-39
0.011221729 -0.014324169 0.435 2.582942e-39
0.012717986 -0.014324169 0.435 2.2145154e-39
0.014116187 -0.014225381 0.43200001 2.306711e-39
0.01556598 -0.014192452 0.43099999 2.0301241e-39
0.017008895 -0.014159523 0.43000001 1.9379285e-39
0.018401936 -0.014093664 0.428 2.0301241e-39
0.019781217 -0.014027806 0.426 2.2145154e-39
0.021246517 -0.014027806 0.426 2.1219666e-39
0.022445221 -0.01386316 0.421 1.9375754e-39
0.02383654 -0.013830231 0.41999999 1.8450238e-39
0.025220981 -0.013797302 0.419 1.5684369e-39
0.026598543 -0.013764373 0.41800001 1.6613416e-39
0.028036298 -0.013764373 0.41800001 1.569146e-39
0.029403543 -0.013731444 0.417 1.569146e-39
0.030837886 -0.013731444 0.417 1.4769504e-39
0.032194812 -0.013698515 0.41600001 1.569146e-39
0.033625688 -0.013698515 0.41600001 1.4769504e-39
0.035056561 -0.013698515 0.41600001 1.9350516e-39
0.036487438 -0.013698515 0.41600001 1.842856e-39
0.037918314 -0.013698515 0.41600001 1.842856e-39
0.039349191 -0.013698515 0.41600001 1.7506604e-39
0.040780094 -0.013698515 0.41600001 1.5669754e-39
0.04221097 -0.013698515 0.41600001 1.7513666e-39
0.043641847 -0.013698515 0.41600001 1.8439126e-40
0.04518107 -0.013731444 0.417 7.467846e-39
0.046727173 -0.013764373 0.41800001 1.9176303e-38
0.048280157 -0.013797302 0.419 1.8162151e-38
0.049840044 -0.013830231 0.41999999 1.8162148e-38
0.0097478582 -0.015868358 0.43599999 3.5949261e-39
0.011221729 -0.015831964 0.435 3.3183392e-39
0.012717986 -0.015831964 0.435 2.5832951e-39
0.014083509 -0.015686382 0.43099999 2.4910995e-39
0.01556598 -0.015686382 0.43099999 2.2145154e-39
0.017008895 -0.015649987 0.43000001 2.2145154e-39
0.018401936 -0.015577196 0.428 2.4882254e-39
0.019827651 -0.0155408 0.42699999 2.4882254e-39
0.021296391 -0.0155408 0.42699999 2.1219666e-39
0.022445221 -0.015322428 0.421 2.029771e-39
0.02383654 -0.015286032 0.41999999 1.8450238e-39
0.025220981 -0.015249638 0.419 1.6606326e-39
0.026598543 -0.015213243 0.41800001 1.4769504e-39
0.028036298 -0.015213243 0.41800001 1.569146e-39
0.029403543 -0.015176848 0.417 1.569146e-39
0.030837886 -0.015176848 0.417 1.569146e-39
0.032194812 -0.015140451 0.41600001 1.4762441e-39
0.033625688 -0.015140451 0.41600001 1.4762441e-39
0.035056561 -0.015140451 0.41600001 1.4769504e-39
0.036487438 -0.015140451 0.41600001 1.4769504e-39
0.037918314 -0.015140451 0.41600001 1.2925591e-39
0.039349191 -0.015140451 0.41600001 1.4769504e-39
0.040780094 -0.015140451 0.41600001 1.2929094e-39
0.04221097 -0.015140451 0.41600001 1.3851051e-39
0.043641847 -0.015140451 0.41600001 1.0818024e-42
0.04518107 -0.015176848 0.417 7.0079497e-39
0.046727173 -0.015213243 0.41800001 1.8991909e-38
0.048280157 -0.015249638 0.419 1.8162148e-38
0.049840044 -0.015286032 0.41999999 1.8161795e-38
0.0097478582 -0.01737964 0.43599999 2.8602323e-39
0.011221729 -0.017339779 0.435 2.8602323e-39
0.012717986 -0.017339779 0.435 2.6754908e-39
0.014083509 -0.017180333 0.43099999 2.4910995e-39
0.01556598 -0.017180333 0.43099999 2.3989039e-39
0.01696934 -0.01710061 0.42899999 2.4910995e-39
0.018401936 -0.017060749 0.428 2.3985535e-39
0.019874087 -0.017060749 0.428 2.3985535e-39
0.021296391 -0.017020887 0.42699999 2.3985535e-39
0.022765102 -0.017020887 0.42699999 2.029771e-39
0.02383654 -0.016741855 0.41999999 1.8450238e-39
0.025220981 -0.016701994 0.419 1.7528282e-39
0.026598543 -0.016662132 0.41800001 1.7535373e-39
0.028036298 -0.016662132 0.41800001 1.6613416e-39
0.029403543 -0.016622271 0.417 1.3851023e-39
0.030763933 -0.016582409 0.41600001 1.4772979e-39
0.032194812 -0.016582409 0.41600001 1.9347041e-39
0.033625688 -0.016582409 0.41600001 1.9347041e-39
0.035056561 -0.016582409 0.41600001 1.9350516e-39
0.036487438 -0.016582409 0.41600001 1.9350516e-39
0.037918314 -0.016582409 0.41600001 1.2003635e-39
0.039349191 -0.016582409 0.41600001 1.2925591e-39
0.040780094 -0.016582409 0.41600001 1.7506604e-39
0.04221097 -0.016582409 0.41600001 1.7506604e-39
0.043641847 -0.016582409 0.41600001 2.7623376e-40
0.04518107 -0.016622271 0.417 5.9923628e-39
0.046727173 -0.016662132 0.41800001 1.9267047e-38
0.048280157 -0.016701994 0.419 1.834509e-38
0.049840044 -0.016741855 0.41999999 1.8345463e-38
0.0097925728 -0.018977556 0.43799999 2.1223198e-39
0.01129912 -0.018977556 0.43799999 2.3989067e-39
0.012805697 -0.018977556 0.43799999 3.1339508e-39
0.014083509 -0.018674262 0.43099999 3.0417551e-39
0.01556598 -0.018674262 0.43099999 2.3067082e-39
0.01696934 -0.018587606 0.42899999 2.5832951e-39
0.018444931 -0.018587606 0.42899999 2.5829448e-39
0.019827651 -0.01850095 0.42699999 2.4907492e-39
0.021146769 -0.018370967 0.42399999 2.3067082e-39
0.022605162 -0.018370967 0.42399999 2.0301213e-39
0.02383654 -0.018197656 0.41999999 1.8450238e-39
0.025220981 -0.018154329 0.419 1.8450238e-39
0.026662176 -0.018154329 0.419 1.8450238e-39
0.028036298 -0.018111002 0.41800001 1.7528282e-39
0.029403543 -0.018067675 0.417 1.569146e-39
0.030763933 -0.018024346 0.41600001 1.4769504e-39
0.032194812 -0.018024346 0.41600001 1.9350516e-39
0.033625688 -0.018024346 0.41600001 1.842856e-39
0.035056561 -0.018024346 0.41600001 1.3847547e-39
0.036487438 -0.018024346 0.41600001 1.3847547e-39
0.037918314 -0.018024346 0.41600001 1.3847547e-39
0.039349191 -0.018024346 0.41600001 1.3847547e-39
0.040780094 -0.018024346 0.41600001 1.2925591e-39
0.04221097 -0.018024346 0.41600001 1.2925591e-39
0.043641847 -0.018024346 0.41600001 3.6842939e-40
0.04518107 -0.018067675 0.417 3.7796677e-39
0.046727173 -0.018111002 0.41800001 1.8347258e-38
0.048280157 -0.018154329 0.419 1.7978476e-38
0.049721379 -0.018154329 0.419 1.7885924e-38
0.0083427802 -0.020636156 0.44100001 3.6841818e-40
0.0097925728 -0.020495772 0.43799999 2.1216107e-39
0.011247527 -0.020402184 0.43599999 1.9372195e-39
0.012747223 -0.020402184 0.43599999 2.3985535e-39
0.014083509 -0.020168213 0.43099999 2.4907492e-39
0.01556598 -0.020168213 0.43099999 2.6754908e-39
0.01696934 -0.020074626 0.42899999 2.5832951e-39
0.018444931 -0.020074626 0.42899999 2.5829448e-39
0.019827651 -0.019981038 0.42699999 2.3985535e-39
0.021146769 -0.019840656 0.42399999 2.2148629e-39
0.022605162 -0.019840656 0.42399999 2.1226673e-39
0.023893295 -0.019700274 0.421 1.9372195e-39
0.025281174 -0.019653479 0.41999999 1.8450238e-39
0.026662176 -0.019606685 0.419 1.8457329e-39
