# .PCD v0.7 - Point Cloud Data file format
VERSION 0.7
FIELDS x y z rgb
SIZE 4 4 4 4
TYPE F F F F
COUNT 1 1 1 1
WIDTH 884
HEIGHT 1
VIEWPOINT 0 0 0 1 0 0 0
POINTS 884
DATA ascii
-0.015455923 0.07787735 0.81699997 1.8439504e-38
-0.012614809 0.077686712 0.815 2.0560004e-38
-0.0098115029 0.077686712 0.815 2.2125869e-38
-0.0070082243 0.077686712 0.815 2.0097566e-38
-0.015418088 0.074861765 0.815 2.341769e-38
-0.012552896 0.074494347 0.81099999 2.341769e-38
-0.0097633488 0.074494347 0.81099999 2.341769e-38
-0.0069910265 0.074678056 0.81300002 2.341769e-38
-0.0041946266 0.074678056 0.81300002 2.3417312e-38
-0.015418088 0.072036773 0.815 2.3233299e-38
-0.012521939 0.071506448 0.80900002 2.3325494e-38
-0.0097392714 0.071506448 0.80900002 2.3417687e-38
-0.0069738282 0.071683221 0.81099999 2.3417687e-38
-0.0041843075 0.071683221 0.81099999 2.3418038e-38
-0.0013982266 0.07186 0.81300002 2.0929114e-38
0.0013981734 0.07186 0.81300002 1.9085552e-38
-0.021076266 0.069381632 0.81699997 2.341769e-38
-0.018266082 0.069381632 0.81699997 2.3325494e-38
-0.015380253 0.069041945 0.81300002 2.3325494e-38
-0.012521939 0.068702251 0.80900002 2.341769e-38
-0.0097392714 0.068702251 0.80900002 2.2309149e-38
-0.0069566299 0.068702251 0.80900002 2.0004259e-38
-0.0041739885 0.068702251 0.80900002 1.8897156e-38
-0.0013913471 0.068702251 0.80900002 1.8436178e-38
0.0013947338 0.068872094 0.81099999 1.8714233e-38
0.0042049452 0.069211788 0.815 1.9083016e-38
-0.023886424 0.066549748 0.81699997 2.2958871e-38
-0.021076266 0.066549748 0.81699997 2.341769e-38
-0.018266082 0.066549748 0.81699997 2.3233299e-38
-0.015380253 0.066223927 0.81300002 2.341769e-38
-0.012521939 0.065898106 0.80900002 2.2495734e-38
-0.0097392714 0.065898106 0.80900002 1.936176e-38
-0.0069566299 0.065898106 0.80900002 1.7149065e-38
-0.0041739885 0.065898106 0.80900002 1.6227073e-38
-0.0013913471 0.065898106 0.80900002 1.5950486e-38
0.0013947338 0.066061012 0.81099999 1.7608234e-38
0.0041946266 0.066223927 0.81300002 1.9636538e-38
-0.023886424 0.063717827 0.81699997 2.3509167e-38
-0.021076266 0.063717827 0.81699997 2.3233299e-38
-0.018131938 0.063249886 0.81099999 2.3233299e-38
-0.015304581 0.063093908 0.80900002 2.341769e-38
-0.012490982 0.06293793 0.80699998 2.1758169e-38
-0.0097151939 0.06293793 0.80699998 2.0283013e-38
-0.0069394317 0.06293793 0.80699998 1.7517144e-38
-0.0041636694 0.06293793 0.80699998 1.6318179e-38
-0.0013913471 0.063093908 0.80900002 1.5580614e-38
0.0013912943 0.063093908 0.80900002 1.4755932e-38
0.0041946266 0.063405871 0.81300002 2.1209626e-38
-0.029542886 0.060960475 0.81800002 1.8900454e-38
-0.026794612 0.06110952 0.81999999 2.1573049e-38
-0.023886424 0.060885947 0.81699997 2.3509517e-38
-0.021076266 0.060885947 0.81699997 2.3325494e-38
-0.018042507 0.060140707 0.80699998 2.3233299e-38
-0.015266744 0.060140707 0.80699998 2.3325494e-38
-0.012490982 0.060140707 0.80699998 2.341769e-38
-0.0097151939 0.060140707 0.80699998 2.2402812e-38
-0.0069394317 0.060140707 0.80699998 2.0743291e-38
-0.0041533508 0.059991661 0.80500001 2.0833669e-38
-0.0013844678 0.059991661 0.80500001 2.1294647e-38
0.0013878547 0.060140707 0.80699998 2.3325845e-38
0.0041843075 0.060438804 0.81099999 2.3233649e-38
0.0070082243 0.060736902 0.815 2.0187591e-38
-0.032356486 0.05812509 0.81800002 2.0097919e-38
-0.029542886 0.05812509 0.81800002 1.9913527e-38
-0.026794612 0.058267202 0.81999999 1.926924e-38
-0.023974136 0.058267202 0.81999999 2.2772674e-38
-0.021153659 0.058267202 0.81999999 2.341769e-38
-0.017997792 0.057201337 0.80500001 2.341769e-38
-0.015228909 0.057201337 0.80500001 2.341769e-38
-0.012490982 0.057343449 0.80699998 2.341769e-38
-0.0097151939 0.057343449 0.80699998 2.341769e-38
-0.0069394317 0.057343449 0.80699998 2.341769e-38
-0.0041533508 0.057201337 0.80500001 2.341769e-38
-0.0013844678 0.057201337 0.80500001 2.341769e-38
0.0013809756 0.057059225 0.80299997 2.2676512e-38
0.0041430318 0.057059225 0.80299997 1.3733536e-38
0.0069910265 0.057769798 0.81300002 1.7056176e-38
0.036244933 0.059901524 0.84299999 1.8163243e-38
0.03914452 0.059901524 0.84299999 1.7978851e-38
-0.040647678 0.055086922 0.815 2.0467742e-38
-0.037844401 0.055086922 0.815 1.9634417e-38
-0.035127085 0.055222102 0.81699997 1.6684157e-38
-0.032316927 0.055222102 0.81699997 1.5212642e-38
-0.029506767 0.055222102 0.81699997 1.5304837e-38
-0.026729262 0.055289701 0.81800002 1.7427873e-38
-0.023886424 0.055222102 0.81699997 1.9640568e-38
-0.021024672 0.055086922 0.815 1.4112736e-38
-0.017997792 0.054411009 0.80500001 1.8077148e-38
-0.015228909 0.054411009 0.80500001 2.1019156e-38
-0.012490982 0.054546189 0.80699998 1.945183e-38
-0.0097151939 0.054546189 0.80699998 1.8344006e-38
-0.0069394317 0.054546189 0.80699998 1.677668e-38
-0.0041533508 0.054411009 0.80500001 1.4655806e-38
-0.0013844678 0.054411009 0.80500001 1.1521155e-38
0.0013809756 0.054275829 0.80299997 1.0788671e-38
0.0041430318 0.054275829 0.80299997 1.6043822e-38
0.0069910265 0.054951742 0.81300002 1.8809331e-38
0.0099680061 0.055965614 0.82800001 1.8717135e-38
0.012816 0.055965614 0.82800001 1.8715335e-38
0.024441924 0.056506343 0.83600003 1.8439116e-38
0.027317435 0.056506343 0.83600003 1.8162529e-38
0.030265177 0.056641523 0.838 1.7977772e-38
0.033147566 0.056641523 0.838 1.8162164e-38
0.036029957 0.056641523 0.838 1.8255088e-38
0.038912348 0.056641523 0.838 1.7978501e-38
0.041794792 0.056641523 0.838 1.8070318e-38
0.044677183 0.056641523 0.838 1.8254709e-38
-0.048696384 0.051877223 0.80900002 2.3324778e-38
-0.045913715 0.051877223 0.80900002 2.3140387e-38
-0.043237701 0.052005474 0.81099999 6.0073329e-39
-0.040547933 0.052133724 0.81300002 3.1493118e-39
-0.037844401 0.052261975 0.815 1.1031022e-39
-0.035127085 0.052390222 0.81699997 6.4284847e-40
-0.032316927 0.052390222 0.81699997 4.3440252e-44
-0.029506767 0.052390222 0.81699997 4.2038954e-44
-0.026696583 0.052390222 0.81699997 1.8482846e-40
-0.023886424 0.052390222 0.81699997 2.8585017e-39
-0.021024672 0.052261975 0.815 3.6734198e-40
-0.018176652 0.052133724 0.81300002 6.4392467e-40
-0.015342416 0.052005474 0.81099999 4.0555511e-39
-0.012552896 0.052005474 0.81099999 9.5872889e-39
-0.0097392714 0.051877223 0.80900002 9.9534903e-39
-0.0069566299 0.051877223 0.80900002 1.0045686e-38
-0.0041739885 0.051877223 0.80900002 8.2921402e-39
-0.0013913471 0.051877223 0.80900002 2.2072805e-39
0.0013912943 0.051877223 0.80900002 1.1060602e-38
0.0042513805 0.052839104 0.824 1.9542599e-38
0.0070856158 0.052839104 0.824 1.5859431e-38
0.0099439286 0.052967351 0.82599998 1.8717495e-38
0.012816 0.053095605 0.82800001 1.945183e-38
0.015663994 0.053095605 0.82800001 1.8068896e-38
0.018556703 0.053223852 0.82999998 1.6318967e-38
0.021463171 0.053352103 0.83200002 1.5397011e-38
0.02438345 0.053480353 0.83399999 1.6872867e-38
0.027252082 0.053480353 0.83399999 2.2220213e-38
0.030192945 0.053608604 0.83600003 2.1201417e-38
0.033068456 0.053608604 0.83600003 1.1889659e-38
0.035943966 0.053608604 0.83600003 1.613602e-38
0.038819477 0.053608604 0.83600003 1.9270672e-38
0.041695043 0.053608604 0.83600003 1.8439088e-38
0.044677183 0.053736851 0.838 1.8070306e-38
-0.057608429 0.049558342 0.81699997 1.9910278e-38
-0.054664101 0.049437024 0.815 1.9299803e-39
-0.051479027 0.049073074 0.80900002 5.8943896e-39
-0.048696384 0.049073074 0.80900002 2.341769e-38
-0.045913715 0.049073074 0.80900002 2.341769e-38
-0.043237701 0.049194388 0.81099999 6.4562276e-39
-0.040547933 0.04931571 0.81300002 3.7274539e-43
-0.037844401 0.049437024 0.815 1.3829344e-39
-0.035041094 0.049437024 0.815 2.6736733e-39
-0.032316927 0.049558342 0.81699997 3.4105713e-39
-0.029506767 0.049558342 0.81699997 4.240332e-39
-0.026696583 0.049558342 0.81699997 1.569146e-39
-0.023886424 0.049558342 0.81699997 1.2003635e-39
-0.021024672 0.049437024 0.815 2.0272473e-39
-0.018221367 0.049437024 0.815 9.2089972e-40
-0.015418088 0.049437024 0.815 2.7696244e-40
-0.012583853 0.04931571 0.81300002 1.4012985e-44
-0.0097874263 0.04931571 0.81300002 0
-0.0069910265 0.04931571 0.81300002 0
-0.0042152638 0.049558342 0.81699997 3.5873241e-43
-0.0014051058 0.049558342 0.81699997 9.2911693e-41
0.0014050524 0.049558342 0.81699997 7.1886611e-43
0.0042204238 0.049619004 0.81800002 1.0789998e-42
0.007068418 0.049861643 0.82200003 7.1886611e-43
0.0099198511 0.049982958 0.824 7.3828391e-40
0.012785044 0.050104275 0.82599998 1.0159722e-39
0.015663994 0.050225597 0.82800001 1.9618179e-44
0.018556703 0.050346911 0.82999998 1.2611686e-44
0.021411575 0.050346911 0.82999998 1.2611686e-44
0.024266502 0.050346911 0.82999998 8.3190045e-40
0.027186731 0.050468229 0.83200002 2.3050684e-38
0.030048482 0.050468229 0.83200002 2.3416971e-38
0.032910235 0.050468229 0.83200002 4.6025928e-40
0.035857975 0.050589547 0.83399999 7.0935746e-39
0.038726609 0.050589547 0.83399999 2.0185351e-38
0.041695043 0.050710864 0.83600003 1.861913e-38
0.044677183 0.050832178 0.838 1.9172304e-38
0.047559571 0.050832178 0.838 1.7977772e-38
-0.066038929 0.046726421 0.81699997 2.0188672e-38
-0.063228749 0.046726421 0.81699997 1.769939e-38
-0.060418587 0.046726421 0.81699997 2.0003552e-38
-0.057608429 0.046726421 0.81699997 1.4195228e-38
-0.054529957 0.046497654 0.81300002 0
-0.051479027 0.04626888 0.80900002 9.2194229e-41
-0.048696384 0.04626888 0.80900002 2.0465262e-38
-0.045913715 0.04626888 0.80900002 2.2032588e-38
-0.043237701 0.046383265 0.81099999 1.3553869e-38
-0.040547933 0.046497654 0.81300002 2.9427268e-44
-0.037751533 0.046497654 0.81300002 1.7538848e-39
-0.034955107 0.046497654 0.81300002 2.4914498e-39
-0.032237817 0.046612035 0.815 3.2283114e-39
-0.029434536 0.046612035 0.815 2.3985507e-39
-0.026696583 0.046726421 0.81699997 1.1960573e-39
-0.023886424 0.046726421 0.81699997 2.2102092e-39
-0.021024672 0.046612035 0.815 2.3985535e-39
-0.018221367 0.046612035 0.815 3.7024968e-40
-0.015380253 0.046497654 0.81300002 7.3938533e-40
-0.012552896 0.046383265 0.81099999 9.2377659e-40
-0.0097633488 0.046383265 0.81099999 1.1981929e-39
-0.0069738282 0.046383265 0.81099999 1.1059972e-39
-0.0042049452 0.046612035 0.815 8.2976067e-40
-0.0014016661 0.046612035 0.815 1.2907388e-39
0.0014050524 0.046726421 0.81699997 1.8457329e-39
0.0042152638 0.046726421 0.81699997 1.569146e-39
0.0070512192 0.046898 0.81999999 1.3825841e-39
0.0099198511 0.047126774 0.824 6.4501908e-40
0.012785044 0.047241159 0.82599998 1.4722756e-39
0.015663994 0.047355544 0.82800001 3.4083839e-39
0.018556703 0.047469929 0.82999998 3.8729577e-39
0.021411575 0.047469929 0.82999998 5.5391507e-40
0.024266502 0.047469929 0.82999998 1.0789998e-42
0.027121376 0.047469929 0.82999998 1.5950923e-38
0.029976249 0.047469929 0.82999998 1.8254745e-38
0.032831121 0.047469929 0.82999998 7.3757485e-40
0.035771988 0.047584314 0.83200002 2.7765888e-40
0.038726609 0.047698699 0.83399999 1.2078697e-38
0.041695043 0.047813084 0.83600003 8.4797166e-39
0.044677183 0.047927469 0.838 1.6131943e-38
0.047559571 0.047927469 0.838 1.7978135e-38
-0.063228749 0.0438945 0.81699997 1.6779239e-38
-0.060418587 0.0438945 0.81699997 1.8250007e-38
-0.057467405 0.043787047 0.815 1.3363638e-38
-0.054529957 0.043679595 0.81300002 2.7700167e-40
-0.05160629 0.043572139 0.81099999 4.9045446e-44
-0.048696384 0.04346469 0.80900002 1.4104808e-38
-0.045913715 0.04346469 0.80900002 1.8345807e-38
-0.043237701 0.043572139 0.81099999 1.1621707e-38
-0.040547933 0.043679595 0.81300002 2.1762165e-42
-0.037751533 0.043679595 0.81300002 1.9379285e-39
-0.034955107 0.043679595 0.81300002 2.0301241e-39
-0.032237817 0.043787047 0.815 2.1201618e-39
-0.029434536 0.043787047 0.815 9.2161859e-40
-0.026696583 0.0438945 0.81699997 1.1060098e-39
-0.023886424 0.0438945 0.81699997 2.2123574e-39
-0.021024672 0.043787047 0.815 2.582942e-39
-0.018176652 0.043679595 0.81300002 2.3063551e-39
-0.015342416 0.043572139 0.81099999 1.1996572e-39
-0.012521939 0.04346469 0.80900002 1.3840485e-39
-0.0097392714 0.04346469 0.80900002 1.0159722e-39
-0.0069566299 0.04346469 0.80900002 8.3158096e-40
-0.0041946266 0.043679595 0.81300002 1.2903885e-39
-0.0014016661 0.043787047 0.815 1.2903885e-39
0.0014016129 0.043787047 0.815 1.4740735e-39
0.0042152638 0.0438945 0.81699997 1.7506604e-39
0.0070340219 0.043948229 0.81800002 1.200711e-39
0.0098957745 0.044163138 0.82200003 6.4753722e-40
0.012754087 0.044270586 0.824 9.2160597e-40
0.015626159 0.044378038 0.82599998 1.7513666e-39
0.018556703 0.044592947 0.82999998 1.196395e-39
0.021359982 0.044485494 0.82800001 7.3541685e-40
0.02420803 0.044485494 0.82800001 1.6599291e-39
0.027121376 0.044592947 0.82999998 1.429073e-38
0.029976249 0.044592947 0.82999998 1.4655843e-38
0.032831121 0.044592947 0.82999998 1.4718791e-39
0.035771988 0.044700395 0.83200002 5.1848043e-44
0.038726609 0.044807851 0.83399999 5.716541e-39
0.041695043 0.044915304 0.83600003 1.1893211e-38
0.044677183 0.045022756 0.838 1.8346905e-38
0.047559571 0.045022756 0.838 1.7978854e-38
-0.060270686 0.0409621 0.815 1.8161422e-38
-0.057467405 0.0409621 0.815 1.8438009e-38
-0.054529957 0.040861581 0.81300002 7.1016391e-39
-0.05160629 0.040761057 0.81099999 5.3249342e-44
-0.04881677 0.040761057 0.81099999 1.0968707e-38
-0.046140734 0.040861581 0.81300002 1.8252162e-38
-0.043344334 0.040861581 0.81300002 1.4566932e-38
-0.040547933 0.040861581 0.81300002 2.1019477e-44
-0.037751533 0.040861581 0.81300002 1.569146e-39
-0.034955107 0.040861581 0.81300002 1.3847547e-39
-0.032237817 0.0409621 0.815 1.4747798e-39
-0.029434536 0.0409621 0.815 1.1059972e-39
-0.026696583 0.041062616 0.81699997 7.3938533e-40
-0.023886424 0.041062616 0.81699997 2.4911023e-39
-0.021024672 0.0409621 0.815 2.8577492e-39
-0.018176652 0.040861581 0.81300002 2.7655536e-39
-0.015304581 0.040660538 0.80900002 2.1219666e-39
-0.012521939 0.040660538 0.80900002 1.6609885e-39
-0.0097392714 0.040660538 0.80900002 1.2925591e-39
-0.0069566299 0.040660538 0.80900002 8.3158096e-40
-0.0041843075 0.040761057 0.81099999 1.0159722e-39
-0.0013982266 0.040861581 0.81300002 8.3158096e-40
0.0013981734 0.040861581 0.81300002 1.3825841e-39
0.0042049452 0.0409621 0.815 1.3825841e-39
0.0070254221 0.041062616 0.81699997 9.2412411e-40
0.0098716961 0.041213401 0.81999999 8.3192848e-40
0.01272313 0.041313924 0.82200003 8.2976067e-40
0.015588323 0.041414443 0.824 9.219563e-40
0.018467274 0.041514963 0.82599998 2.7623376e-40
0.021359982 0.041615486 0.82800001 1.8403813e-40
0.02420803 0.041615486 0.82800001 1.4849027e-39
0.027121376 0.041716006 0.82999998 1.0427879e-38
0.029976249 0.041716006 0.82999998 8.6710303e-39
0.032831121 0.041716006 0.82999998 2.8124621e-40
0.035685994 0.041716006 0.82999998 1.1340098e-38
0.038726609 0.041917045 0.83399999 1.8439161e-38
0.041695043 0.042017564 0.83600003 1.8255085e-38
0.044677183 0.042118084 0.838 1.7978498e-38
-0.057326388 0.038043521 0.81300002 2.046778e-38
-0.054529957 0.038043521 0.81300002 1.1713199e-38
-0.051479027 0.037856348 0.80900002 2.9132995e-42
-0.048696384 0.037856348 0.80900002 1.4884186e-39
-0.046140734 0.038043521 0.81300002 1.4027024e-38
-0.043450959 0.038137108 0.815 1.4847109e-38
-0.040647678 0.038137108 0.815 3.7239507e-40
-0.037844401 0.038137108 0.815 3.5873241e-43
-0.035041094 0.038137108 0.815 3.5873241e-43
-0.032237817 0.038137108 0.815 3.5873241e-43
-0.029506767 0.038230695 0.81699997 3.5873241e-43
-0.026696583 0.038230695 0.81699997 1.2611686e-44
-0.023886424 0.038230695 0.81699997 1.2611686e-44
-0.021024672 0.038137108 0.815 5.6051939e-45
-0.018131938 0.037949935 0.81099999 3.657389e-43
-0.015304581 0.037856348 0.80900002 3.5873241e-43
-0.012521939 0.037856348 0.80900002 7.1746481e-43
-0.0097392714 0.037856348 0.80900002 5.6051939e-45
-0.0069566299 0.037856348 0.80900002 9.2561369e-41
-0.0041843075 0.037949935 0.81099999 9.2198432e-41
-0.0013982266 0.038043521 0.81300002 1.8439406e-40
0.0013981734 0.038043521 0.81300002 1.0818024e-42
0.0042049452 0.038137108 0.815 1.0818024e-42
0.0070254221 0.038230695 0.81699997 7.1886611e-43
0.0098716961 0.038371082 0.81999999 9.327463e-41
0.01272313 0.038464673 0.82200003 3.5873241e-43
0.015588323 0.03855826 0.824 4.6169421e-40
0.018467274 0.038651846 0.82599998 7.4299227e-40
0.021359982 0.038745433 0.82800001 5.1683825e-39
0.02420803 0.038745433 0.82800001 1.1250018e-38
0.027121376 0.03883902 0.82999998 1.5306626e-38
0.029976249 0.03883902 0.82999998 1.6780311e-38
0.032831121 0.03883902 0.82999998 1.7241289e-38
0.035685994 0.03883902 0.82999998 1.8072141e-38
0.038819477 0.039119784 0.83600003 1.7979946e-38
-0.051479027 0.035052195 0.80900002 9.1270044e-39
-0.048696384 0.035052195 0.80900002 1.1066703e-38
-0.046140734 0.035225507 0.81300002 1.6414049e-38
-0.043450959 0.035312161 0.815 1.7516438e-38
-0.040647678 0.035312161 0.815 1.7516438e-38
-0.037844401 0.035312161 0.815 1.8623507e-38
-0.035041094 0.035312161 0.815 1.8070334e-38
-0.032237817 0.035312161 0.815 1.8066728e-38
-0.029506767 0.035398815 0.81699997 1.4194512e-38
-0.026696583 0.035398815 0.81699997 1.336913e-38
-0.023886424 0.035398815 0.81699997 1.4291086e-38
-0.021024672 0.035312161 0.815 1.5579642e-38
-0.018131938 0.035138849 0.81099999 1.4012316e-38
-0.015304581 0.035052195 0.80900002 1.0047859e-38
-0.012521939 0.035052195 0.80900002 1.0601033e-38
-0.0097392714 0.035052195 0.80900002 8.756787e-39
-0.0069566299 0.035052195 0.80900002 8.3880045e-39
-0.0041843075 0.035138849 0.81099999 7.6511457e-39
-0.0013982266 0.035225507 0.81300002 7.6511457e-39
0.0013981734 0.035225507 0.81300002 7.8366131e-39
0.0042049452 0.035312161 0.815 7.7444175e-39
0.0070254221 0.035398815 0.81699997 7.4678334e-39
0.0098476196 0.035442147 0.81800002 6.822464e-39
0.012692173 0.035528801 0.81999999 6.2754167e-39
0.015550487 0.035615459 0.82200003 1.7154501e-38
0.018422559 0.035702113 0.824 1.9085574e-38
0.021359982 0.035875425 0.82800001 1.8716792e-38
0.024324978 0.036048733 0.83200002 1.8991558e-38
0.027186731 0.036048733 0.83200002 1.8622776e-38
0.030048482 0.036048733 0.83200002 1.843875e-38
-0.032356486 0.032606758 0.81800002 1.9268874e-38
-0.029542886 0.032606758 0.81800002 2.0559613e-38
-0.026696583 0.032566894 0.81699997 2.2864166e-38
-0.023886424 0.032566894 0.81699997 2.2956362e-38
-0.021024672 0.032487173 0.815 2.304927e-38
-0.018176652 0.032407451 0.81300002 2.3233662e-38
-0.015342416 0.032327726 0.81099999 2.0283039e-38
-0.012521939 0.032248002 0.80900002 2.0375234e-38
-0.0097392714 0.032248002 0.80900002 1.7701564e-38
-0.0069566299 0.032248002 0.80900002 1.6871803e-38
-0.0041739885 0.032248002 0.80900002 1.4107361e-38
-0.0013947869 0.032327726 0.81099999 1.4199556e-38
0.0014016129 0.032487173 0.815 1.5027512e-38
0.0042049452 0.032487173 0.815 1.5396295e-38
0.0070254221 0.032566894 0.81699997 1.3922972e-38
0.0098355804 0.032566894 0.81699997 1.3646385e-38
0.012692173 0.032686479 0.81999999 1.4385771e-38
0.015550487 0.032766204 0.82200003 1.8257987e-38
0.018377844 0.032766204 0.82200003 1.7978851e-38
0.021359982 0.033005375 0.82800001 1.8071047e-38
-0.032316927 0.029734973 0.81699997 1.9176678e-38
-0.029506767 0.029734973 0.81699997 1.7148375e-38
-0.026696583 0.029734973 0.81699997 1.6965794e-38
-0.023886424 0.029734973 0.81699997 1.6873598e-38
-0.021024672 0.029662183 0.815 1.8532063e-38
-0.018176652 0.029589394 0.81300002 1.8900845e-38
-0.015342416 0.029516602 0.81099999 1.7332428e-38
-0.012521939 0.029443812 0.80900002 1.7240232e-38
-0.0097392714 0.029443812 0.80900002 1.5671106e-38
-0.0069566299 0.029443812 0.80900002 1.410378e-38
-0.0041739885 0.029443812 0.80900002 1.2630436e-38
-0.0013947869 0.029516602 0.81099999 1.2446044e-38
0.0013981734 0.029589394 0.81300002 1.2078707e-38
0.0042049452 0.029662183 0.815 1.3553837e-38
0.0070254221 0.029734973 0.81699997 1.2815195e-38
0.0098355804 0.029734973 0.81699997 1.2723e-38
0.012661218 0.029771371 0.81800002 1.6318617e-38
0.015512651 0.029844161 0.81999999 1.8807899e-38
0.018377844 0.029916953 0.82200003 1.8070328e-38
-0.029506767 0.026903091 0.81699997 1.226164e-38
-0.026696583 0.026903091 0.81699997 1.4349296e-42
-0.023886424 0.026903091 0.81699997 1.4349296e-42
-0.021024672 0.026837233 0.815 5.3249342e-44
-0.018221367 0.026837233 0.815 5.3249342e-44
-0.015342416 0.026705517 0.81099999 3.0828566e-44
-0.012521939 0.026639661 0.80900002 3.0828566e-44
-0.0097392714 0.026639661 0.80900002 1.2611686e-44
-0.0069566299 0.026639661 0.80900002 1.1210388e-44
-0.0041739885 0.026639661 0.80900002 2.8025969e-45
-0.0013947869 0.026705517 0.81099999 2.8025969e-45
0.0013981734 0.026771378 0.81300002 5.6051939e-45
0.0042049452 0.026837233 0.815 5.6051939e-45
0.0070254221 0.026903091 0.81699997 5.6051939e-45
0.0098355804 0.026903091 0.81699997 3.657389e-43
0.012661218 0.026936024 0.81800002 1.4475741e-38
0.015512651 0.02700188 0.81999999 1.8901131e-38
0.018377844 0.027067741 0.82200003 1.7702618e-38
-0.032237817 0.024012286 0.815 1.9730205e-38
-0.029434536 0.024012286 0.815 1.2538946e-38
-0.02663123 0.024012286 0.815 7.3848429e-43
-0.023827951 0.024012286 0.815 2.9509986e-39
-0.021024672 0.024012286 0.815 3.0439201e-39
-0.018221367 0.024012286 0.815 3.2283114e-39
-0.015342416 0.023894433 0.81099999 2.9517245e-39
-0.012521939 0.023835508 0.80900002 2.1219638e-39
-0.0097392714 0.023835508 0.80900002 1.9379285e-39
-0.0069566299 0.023835508 0.80900002 1.7535373e-39
-0.0041739885 0.023835508 0.80900002 1.7506604e-39
-0.0013947869 0.023894433 0.81099999 1.9350516e-39
0.0013981734 0.02395336 0.81300002 1.200711e-39
0.0042049452 0.024012286 0.815 1.4772979e-39
0.0070254221 0.024071211 0.81699997 1.4740735e-39
0.0098355804 0.024071211 0.81699997 1.9618179e-44
0.012661218 0.024100676 0.81800002 1.2724407e-38
0.015512651 0.024159601 0.81999999 1.8809318e-38
0.018377844 0.024218528 0.82200003 1.8070315e-38
0.021463171 0.024513155 0.83200002 1.8162511e-38
-0.029434536 0.021187296 0.815 1.097162e-38
-0.02663123 0.021187296 0.815 3.5873241e-43
-0.023827951 0.021187296 0.815 7.1746481e-43
-0.021024672 0.021187296 0.815 3.0828566e-44
-0.018221367 0.021187296 0.815 2.8025969e-44
-0.015380253 0.021135304 0.81300002 1.0761972e-42
-0.012521939 0.021031316 0.80900002 1.4349296e-42
-0.0097392714 0.021031316 0.80900002 9.2927108e-41
-0.0069566299 0.021031316 0.80900002 7.314778e-43
-0.0041739885 0.021031316 0.80900002 1.0818024e-42
-0.0013947869 0.02108331 0.81099999 1.0818024e-42
0.0013981734 0.021135304 0.81300002 2.8025969e-45
0.0042049452 0.021187296 0.815 9.2558566e-41
0.0070254221 0.02123929 0.81699997 1.8439126e-40
0.0098355804 0.02123929 0.81699997 2.7658689e-40
0.012661218 0.021265289 0.81800002 1.2539312e-38
0.015550487 0.021369275 0.82200003 1.8439832e-38
0.018467274 0.021473261 0.82599998 1.788629e-38
0.021463171 0.02162924 0.83200002 1.8070681e-38
-0.029434536 0.018362308 0.815 1.9268511e-38
-0.02663123 0.018362308 0.815 1.898906e-38
-0.023886424 0.018407367 0.81699997 1.6960756e-38
-0.021024672 0.018362308 0.815 1.7146602e-38
-0.018176652 0.018317247 0.81300002 1.5302689e-38
-0.015342416 0.018272186 0.81099999 1.1707753e-38
-0.012552896 0.018272186 0.81099999 1.1431166e-38
-0.0097392714 0.018227125 0.80900002 9.3092405e-39
-0.0069566299 0.018227125 0.80900002 8.5716754e-39
-0.0041739885 0.018227125 0.80900002 7.6518715e-39
-0.0013947869 0.018272186 0.81099999 7.1908934e-39
0.0013981734 0.018317247 0.81300002 7.6529435e-39
0.0042049452 0.018362308 0.815 7.7451392e-39
0.0070254221 0.018407367 0.81699997 9.036957e-39
0.0098355804 0.018407367 0.81699997 7.4696313e-39
0.012661218 0.0184299 0.81800002 1.4014455e-38
0.015550487 0.018520022 0.82200003 1.8347649e-38
0.018467274 0.018610142 0.82599998 1.7978488e-38
-0.029506767 0.015575487 0.81699997 2.1297897e-38
-0.026696583 0.015575487 0.81699997 2.2126601e-38
-0.023886424 0.015575487 0.81699997 2.2587579e-38
-0.021024672 0.015537359 0.815 2.3141466e-38
-0.018176652 0.01549923 0.81300002 2.304927e-38
-0.015342416 0.015461101 0.81099999 2.0377032e-38
-0.012552896 0.015461101 0.81099999 2.0284836e-38
-0.0097392714 0.015422974 0.80900002 1.8254006e-38
-0.0069566299 0.015422974 0.80900002 1.7239854e-38
-0.0041843075 0.015461101 0.81099999 1.4845647e-38
-0.0013947869 0.015461101 0.81099999 1.4937843e-38
0.0013981734 0.01549923 0.81300002 1.5580686e-38
0.0042049452 0.015537359 0.815 1.5211903e-38
0.0070254221 0.015575487 0.81699997 1.6318261e-38
0.0098355804 0.015575487 0.81699997 1.6318261e-38
0.012692173 0.015632682 0.81999999 1.6594132e-38
0.015550487 0.01567081 0.82200003 1.8714631e-38
0.018467274 0.015747067 0.82599998 1.7885937e-38
-0.029506767 0.012743565 0.81699997 1.2630057e-38
-0.026696583 0.012743565 0.81699997 1.1620993e-38
-0.023886424 0.012743565 0.81699997 1.3741493e-38
-0.021024672 0.01271237 0.815 1.687363e-38
-0.018221367 0.01271237 0.815 1.834876e-38
-0.015380253 0.012681174 0.81300002 1.5400989e-38
-0.012552896 0.012649978 0.81099999 1.5493185e-38
-0.0097392714 0.012618782 0.80900002 1.4473632e-38
-0.0069566299 0.012618782 0.80900002 1.5487784e-38
-0.0041843075 0.012649978 0.81099999 1.3829347e-38
-0.0013982266 0.012681174 0.81300002 1.4474717e-38
0.0013981734 0.012681174 0.81300002 1.3183609e-38
0.0042049452 0.01271237 0.815 1.4105566e-38
0.0070082243 0.01271237 0.815 1.2539685e-38
0.0098355804 0.012743565 0.81699997 1.263188e-38
0.012661218 0.012759165 0.81800002 1.4476824e-38
0.015512651 0.01279036 0.81999999 1.8349041e-38
0.018377844 0.012821557 0.82200003 1.7794813e-38
-0.029434536 0.0098874215 0.815 6.4607706e-40
-0.02663123 0.0098874215 0.815 3.0828566e-44
-0.023827951 0.0098874215 0.815 9.1867726e-41
-0.021024672 0.0098874215 0.815 5.3249342e-44
-0.018221367 0.0098874215 0.815 5.3249342e-44
-0.015380253 0.0098631578 0.81300002 3.0828566e-44
-0.012552896 0.009838894 0.81099999 3.0828566e-44
-0.0097633488 0.009838894 0.81099999 1.2611686e-44
-0.0069738282 0.009838894 0.81099999 9.2208242e-41
-0.0041843075 0.009838894 0.81099999 2.8025969e-45
-0.0013982266 0.0098631578 0.81300002 3.629363e-43
0.0013981734 0.0098631578 0.81300002 2.8025969e-45
0.0042049452 0.0098874215 0.815 2.8025969e-45
0.0070082243 0.0098874215 0.815 2.8025969e-45
0.0098355804 0.0099116843 0.81699997 3.629363e-43
0.012661218 0.0099238176 0.81800002 5.4451992e-39
0.015512651 0.0099480804 0.81999999 1.8629166e-38
0.018377844 0.0099723451 0.82200003 1.7702255e-38
-0.029434536 0.0070624324 0.815 3.6949438e-40
-0.02663123 0.0070624324 0.815 2.8574003e-39
-0.023827951 0.0070624324 0.815 2.7652047e-39
-0.021024672 0.0070624324 0.815 2.9495931e-39
-0.018221367 0.0070624324 0.815 3.4105713e-39
-0.015380253 0.0070451014 0.81300002 3.1346921e-39
-0.012552896 0.0070277699 0.81099999 2.2127358e-39
-0.0097633488 0.0070277699 0.81099999 1.569146e-39
-0.0069738282 0.0070277699 0.81099999 1.4769504e-39
-0.0041946266 0.0070451014 0.81300002 1.200711e-39
-0.0013982266 0.0070451014 0.81300002 1.2929066e-39
0.0013981734 0.0070451014 0.81300002 1.0159722e-39
0.0042049452 0.0070624324 0.815 1.0159722e-39
0.0070082243 0.0070624324 0.815 1.2929094e-39
0.0098355804 0.0070797629 0.81699997 9.4366241e-41
0.012661218 0.0070884293 0.81800002 4.887069e-39
0.015512651 0.0071057603 0.81999999 1.8624218e-38
0.018377844 0.0071230917 0.82200003 1.7701539e-38
0.021256793 0.0071404227 0.824 1.7793734e-38
-0.02663123 0.0042374432 0.815 3.0417888e-39
-0.023827951 0.0042374432 0.815 2.7652019e-39
-0.021024672 0.0042374432 0.815 2.9495931e-39
-0.018221367 0.0042374432 0.815 3.22618e-39
-0.015380253 0.0042270445 0.81300002 3.0410461e-39
-0.012552896 0.0042166458 0.81099999 2.1190898e-39
-0.0097633488 0.0042166458 0.81099999 1.2929094e-39
-0.0069738282 0.0042166458 0.81099999 1.2929094e-39
-0.0041946266 0.0042270445 0.81300002 1.2925591e-39
-0.0014016661 0.0042374432 0.815 1.2925591e-39
0.0014016129 0.0042374432 0.815 1.4740735e-39
0.0042049452 0.0042374432 0.815 1.3818779e-39
0.0070082243 0.0042374432 0.815 1.200711e-39
0.0098355804 0.0042478419 0.81699997 1.8655907e-40
0.012661218 0.0042530415 0.81800002 4.7008953e-39
0.015512651 0.0042634401 0.81999999 1.8899022e-38
0.018377844 0.0042738388 0.82200003 1.7701539e-38
0.021256793 0.0042842375 0.824 1.7609343e-38
-0.02663123 0.0014124945 0.815 3.0417888e-39
-0.023827951 0.0014124945 0.815 2.7652019e-39
-0.021024672 0.0014124945 0.815 2.9499449e-39
-0.018221367 0.0014124945 0.815 2.8577492e-39
-0.015380253 0.0014090283 0.81300002 2.0301241e-39
-0.012552896 0.0014055619 0.81099999 1.7535373e-39
-0.0097633488 0.0014055619 0.81099999 1.2925591e-39
-0.0069738282 0.0014055619 0.81099999 1.2003635e-39
-0.0041946266 0.0014090283 0.81300002 1.3847547e-39
-0.0014016661 0.0014124945 0.815 1.2925591e-39
0.0014016129 0.0014124945 0.815 1.4740735e-39
0.0042049452 0.0014124945 0.815 1.4740735e-39
0.0070254221 0.0014159607 0.81699997 1.200711e-39
0.0098355804 0.0014159607 0.81699997 4.6314596e-40
0.012661218 0.0014176939 0.81800002 1.8692481e-40
0.015550487 0.0014246264 0.82200003 1.779629e-38
0.018377844 0.0014246264 0.82200003 1.7609337e-38
0.0212052 0.0014246264 0.82200003 1.7609337e-38
-0.026696583 -0.0014159607 0.81699997 2.8602744e-39
-0.023827951 -0.0014124945 0.815 2.3992962e-39
-0.021024672 -0.0014124945 0.815 2.582942e-39
-0.018221367 -0.0014124945 0.815 2.4907464e-39
-0.015380253 -0.0014090283 0.81300002 2.0301241e-39
-0.012552896 -0.0014055619 0.81099999 1.6613416e-39
-0.0097633488 -0.0014055619 0.81099999 1.4769504e-39
-0.0069910265 -0.0014090283 0.81300002 1.2925591e-39
-0.0041946266 -0.0014090283 0.81300002 1.8425085e-39
-0.0014016661 -0.0014124945 0.815 1.8425085e-39
0.0014016129 -0.0014124945 0.815 1.4740735e-39
0.0042049452 -0.0014124945 0.815 1.2896822e-39
0.0070254221 -0.0014159607 0.81699997 1.4740735e-39
0.0098355804 -0.0014159607 0.81699997 1.1974866e-39
0.012661218 -0.0014176939 0.81800002 4.5991176e-40
0.015550487 -0.0014246264 0.82200003 1.8161473e-38
0.018377844 -0.0014246264 0.82200003 1.7609337e-38
0.0212052 -0.0014246264 0.82200003 1.7517142e-38
-0.026696583 -0.0042478419 0.81699997 2.1209143e-39
-0.023827951 -0.0042374432 0.815 2.5818924e-39
-0.021024672 -0.0042374432 0.815 2.3063579e-39
-0.018221367 -0.0042374432 0.815 2.1219666e-39
-0.015380253 -0.0042270445 0.81300002 1.7528282e-39
-0.012583853 -0.0042270445 0.81300002 1.3840457e-39
-0.0097874263 -0.0042270445 0.81300002 1.2925591e-39
-0.0069910265 -0.0042270445 0.81300002 1.2925591e-39
-0.0041946266 -0.0042270445 0.81300002 1.8425085e-39
-0.0014016661 -0.0042374432 0.815 1.7503129e-39
0.0014016129 -0.0042374432 0.815 1.4747798e-39
0.0042049452 -0.0042374432 0.815 1.2903885e-39
0.0070254221 -0.0042478419 0.81699997 9.2377659e-40
0.0098355804 -0.0042478419 0.81699997 8.3158096e-40
0.012661218 -0.0042530415 0.81800002 0
0.015512651 -0.0042634401 0.81999999 1.7332778e-38
0.018377844 -0.0042738388 0.82200003 1.7609706e-38
0.0212052 -0.0042738388 0.82200003 1.7056532e-38
-0.02663123 -0.0070624324 0.815 7.7772065e-43
-0.023827951 -0.0070624324 0.815 2.3056685e-39
-0.020973079 -0.0070451014 0.81300002 1.9372195e-39
-0.018176652 -0.0070451014 0.81300002 1.7528282e-39
-0.015380253 -0.0070451014 0.81300002 1.4769504e-39
-0.012583853 -0.0070451014 0.81300002 1.2925591e-39
-0.0097874263 -0.0070451014 0.81300002 1.4740735e-39
-0.0069910265 -0.0070451014 0.81300002 1.4740735e-39
-0.0041946266 -0.0070451014 0.81300002 1.7506604e-39
-0.0014016661 -0.0070624324 0.815 1.7506604e-39
0.0014016129 -0.0070624324 0.815 1.0163197e-39
0.0042049452 -0.0070624324 0.815 4.6314596e-40
0.0070254221 -0.0070797629 0.81699997 4.0637655e-44
0.0098355804 -0.0070797629 0.81699997 3.6882316e-40
0.012661218 -0.0070884293 0.81800002 1.9443296e-40
0.015512651 -0.0071057603 0.81999999 1.448475e-38
0.018377844 -0.0071230917 0.82200003 1.7241283e-38
0.0212052 -0.0071230917 0.82200003 1.7333479e-38
-0.02663123 -0.0098873805 0.815 3.7835059e-43
-0.023769479 -0.0098631177 0.81300002 2.8584429e-39
-0.020973079 -0.0098631177 0.81300002 1.8457329e-39
-0.018176652 -0.0098631177 0.81300002 1.3847547e-39
-0.015380253 -0.0098631177 0.81300002 1.3840485e-39
-0.012583853 -0.0098631177 0.81300002 1.015266e-39
-0.0097874263 -0.0098631177 0.81300002 5.5497165e-40
-0.0070082243 -0.0098873805 0.815 6.4716727e-40
-0.0042049452 -0.0098873805 0.815 9.2377659e-40
-0.0014016661 -0.0098873805 0.815 1.4769504e-39
0.0014050524 -0.0099116443 0.81699997 1.0159722e-39
0.0042152638 -0.0099116443 0.81699997 7.3988559e-43
0.0070254221 -0.0099116443 0.81699997 6.0817068e-39
0.0098476196 -0.0099237766 0.81800002 1.9081291e-38
0.012661218 -0.0099237766 0.81800002 1.8254707e-38
0.015550487 -0.0099723041 0.82200003 1.7793729e-38
0.018377844 -0.0099723041 0.82200003 1.7241276e-38
0.021256793 -0.0099965669 0.824 1.7333472e-38
-0.02663123 -0.01271237 0.815 3.7835059e-43
-0.023769479 -0.012681174 0.81300002 3.1350298e-39
-0.020973079 -0.012681174 0.81300002 2.3960298e-39
-0.018176652 -0.012681174 0.81300002 2.0272473e-39
-0.015380253 -0.012681174 0.81300002 1.4762441e-39
-0.012583853 -0.012681174 0.81300002 8.308747e-40
-0.0098115029 -0.01271237 0.815 8.2976067e-40
-0.0070082243 -0.01271237 0.815 7.3756504e-40
-0.0042152638 -0.012743565 0.81699997 1.4740735e-39
-0.0014051058 -0.012743565 0.81699997 2.4882254e-39
0.0014050524 -0.012743565 0.81699997 1.5659216e-39
0.0042152638 -0.012743565 0.81699997 3.6737842e-40
0.0070254221 -0.012743565 0.81699997 2.9495595e-39
0.0098476196 -0.012759165 0.81800002 1.8438425e-38
0.012661218 -0.012759165 0.81800002 1.7516794e-38
0.015550487 -0.012821557 0.82200003 1.7332403e-38
0.018422559 -0.012852753 0.824 1.7148725e-38
0.021256793 -0.012852753 0.824 1.724092e-38
-0.023769479 -0.01549919 0.81300002 3.1346738e-39
-0.020921484 -0.015461061 0.81099999 1.7535373e-39
-0.018131938 -0.015461061 0.81099999 1.569146e-39
-0.015342416 -0.015461061 0.81099999 1.2003635e-39
-0.012583853 -0.01549919 0.81300002 7.3938533e-40
-0.0098115029 -0.015537319 0.815 6.4536941e-40
-0.0070082243 -0.015537319 0.815 7.3756504e-40
-0.0042152638 -0.015575446 0.81699997 1.4740735e-39
-0.0014051058 -0.015575446 0.81699997 2.4882254e-39
0.0014050524 -0.015575446 0.81699997 1.9347041e-39
0.0042152638 -0.015575446 0.81699997 6.4396531e-40
0.0070254221 -0.015575446 0.81699997 7.3867627e-40
0.0098476196 -0.015594512 0.81800002 1.7610477e-38
0.01272313 -0.015670769 0.82200003 1.7240207e-38
-0.02656588 -0.018317247 0.81300002 7.3578259e-40
-0.023711005 -0.018272186 0.81099999 3.2250646e-39
-0.020921484 -0.018272186 0.81099999 1.9372195e-39
-0.018131938 -0.018272186 0.81099999 1.4762413e-39
-0.015342416 -0.018272186 0.81099999 1.3818779e-39
-0.012583853 -0.018317247 0.81300002 1.1974866e-39
-0.0098115029 -0.018362308 0.815 3.7058039e-40
-0.0070254221 -0.018407367 0.81699997 3.7058039e-40
-0.0042204238 -0.0184299 0.81800002 1.1996572e-39
-0.0014068257 -0.0184299 0.81800002 1.9372223e-39
0.0014050524 -0.018407367 0.81699997 2.2112882e-39
0.0042152638 -0.018407367 0.81699997 7.3615814e-40
0.0070254221 -0.018407367 0.81699997 2.8169042e-40
0.0098476196 -0.0184299 0.81800002 1.6600317e-38
-0.02656588 -0.021135263 0.81300002 6.4358696e-40
-0.023711005 -0.021083269 0.81099999 3.132869e-39
-0.020921484 -0.021083269 0.81099999 2.3038342e-39
-0.018131938 -0.021083269 0.81099999 1.7506604e-39
-0.015342416 -0.021083269 0.81099999 7.3721471e-40
-0.012583853 -0.021135263 0.81300002 5.8079744e-39
-0.0098115029 -0.021187257 0.815 4.0487394e-39
-0.0070254221 -0.021239249 0.81699997 1.1939035e-39
-0.0042204238 -0.021265248 0.81800002 1.4769504e-39
-0.0014068257 -0.021265248 0.81800002 2.0301241e-39
0.0014050524 -0.021239249 0.81699997 1.9372195e-39
0.0042152638 -0.021239249 0.81699997 3.0828566e-44
0.0070254221 -0.021239249 0.81699997 8.20473e-39
0.0098476196 -0.021265248 0.81800002 1.770088e-38
-0.026500525 -0.023894394 0.81099999 1.0761972e-42
-0.023711005 -0.023894394 0.81099999 1.0761972e-42
-0.020921484 -0.023894394 0.81099999 1.7528282e-39
-0.018131938 -0.023894394 0.81099999 9.2306753e-40
-0.015380253 -0.02395332 0.81300002 2.8025969e-45
-0.012583853 -0.02395332 0.81300002 1.0695056e-38
-0.0098115029 -0.024012245 0.815 7.9281431e-39
-0.0070254221 -0.02407117 0.81699997 3.3631163e-44
-0.0042307423 -0.02415956 0.81999999 1.9379285e-39
-0.0014068257 -0.024100635 0.81800002 2.3989067e-39
0.0014050524 -0.02407117 0.81699997 2.3960298e-39
0.0042152638 -0.02407117 0.81699997 1.8369341e-40
0.0070254221 -0.02407117 0.81699997 8.9415314e-39
0.0098476196 -0.024100635 0.81800002 1.7976703e-38
0.012661218 -0.024100635 0.81800002 1.6964334e-38
-0.026500525 -0.026705517 0.81099999 1.5115427e-38
-0.023711005 -0.026705517 0.81099999 6.3568419e-39
-0.020921484 -0.026705517 0.81099999 9.2921502e-41
-0.018131938 -0.026705517 0.81099999 3.657389e-43
-0.015380253 -0.026771378 0.81300002 3.2285917e-42
-0.012614809 -0.026837233 0.815 1.3555985e-38
-0.0098115029 -0.026837233 0.815 1.2445341e-38
-0.0070254221 -0.026903091 0.81699997 1.836808e-40
-0.0042307423 -0.02700188 0.81999999 1.8450238e-39
-0.0014068257 -0.026936024 0.81800002 2.2138063e-39
0.0014050524 -0.026903091 0.81699997 1.8443204e-39
0.0042152638 -0.026903091 0.81699997 1.8479904e-40
0.0070254221 -0.026903091 0.81699997 2.9538321e-39
0.0098476196 -0.026936024 0.81800002 1.733635e-38
0.012661218 -0.026936024 0.81800002 1.6780658e-38
-0.026500525 -0.029516602 0.81099999 2.3326213e-38
-0.023711005 -0.029516602 0.81099999 1.9546192e-38
-0.020973079 -0.029589394 0.81300002 1.9912458e-38
-0.018176652 -0.029589394 0.81300002 1.3919742e-38
-0.015380253 -0.029589394 0.81300002 7.1047472e-39
-0.012614809 -0.029662183 0.815 1.6693093e-38
-0.0098115029 -0.029662183 0.815 1.3092508e-38
-0.0070254221 -0.029734973 0.81699997 3.685415e-43
-0.0042307423 -0.029844161 0.81999999 9.3326478e-41
-0.0014068257 -0.029771371 0.81800002 1.4762609e-39
0.0014050524 -0.029734973 0.81699997 5.5358856e-40
0.0042152638 -0.029734973 0.81699997 5.0446745e-44
0.0070254221 -0.029734973 0.81699997 1.3944629e-39
0.0098476196 -0.029771371 0.81800002 1.5316003e-38
0.012692173 -0.029844161 0.81999999 1.6779945e-38
0.015550487 -0.029916953 0.82200003 1.6779945e-38
-0.02656588 -0.032407451 0.81300002 2.0373805e-38
-0.023711005 -0.032327726 0.81099999 1.816111e-38
-0.020921484 -0.032327726 0.81099999 1.8897959e-38
-0.018131938 -0.032327726 0.81099999 1.4472569e-38
-0.015380253 -0.032407451 0.81300002 1.2815165e-38
-0.012614809 -0.032487173 0.815 1.8254707e-38
-0.0098115029 -0.032487173 0.815 1.4198858e-38
-0.0070254221 -0.032566894 0.81699997 1.4758616e-39
-0.0042307423 -0.032686479 0.81999999 5.6229539e-39
-0.0014068257 -0.032606758 0.81800002 5.0697801e-39
0.0014050524 -0.032566894 0.81699997 2.9502602e-39
0.0042152638 -0.032566894 0.81699997 2.3048907e-39
0.0070254221 -0.032566894 0.81699997 1.1065258e-38
0.0098476196 -0.032606758 0.81800002 1.6873583e-38
0.012692173 -0.032686479 0.81999999 1.6779942e-38
0.015550487 -0.032766204 0.82200003 1.6687747e-38
-0.02656588 -0.035225466 0.81300002 3.7134409e-43
-0.023711005 -0.035138808 0.81099999 3.7134409e-43
-0.020921484 -0.035138808 0.81099999 3.5006089e-39
-0.018131938 -0.035138808 0.81099999 5.9898909e-39
-0.015380253 -0.035225466 0.81300002 9.497547e-39
-0.012614809 -0.03531212 0.815 1.7979545e-38
-0.0098115029 -0.03531212 0.815 1.6502652e-38
-0.0070254221 -0.035398774 0.81699997 7.7440672e-39
-0.0042307423 -0.03552876 0.81999999 1.834482e-38
-0.0014068257 -0.035442106 0.81800002 2.1571654e-38
0.0014050524 -0.035398774 0.81699997 2.0097578e-38
0.0042152638 -0.035398774 0.81699997 1.604097e-38
0.0070254221 -0.035398774 0.81699997 1.65048e-38
0.0098476196 -0.035442106 0.81800002 1.6320409e-38
0.01272313 -0.035615418 0.82200003 1.6595904e-38
0.015626159 -0.035788726 0.82599998 1.6595904e-38
-0.02656588 -0.038043521 0.81300002 4.1513761e-39
-0.023711005 -0.037949935 0.81099999 1.8525166e-42
-0.020921484 -0.037949935 0.81099999 6.4464354e-40
-0.018131938 -0.037949935 0.81099999 6.4464354e-40
-0.015380253 -0.038043521 0.81300002 7.1044459e-39
-0.012614809 -0.038137108 0.815 1.6692791e-38
-0.0098115029 -0.038137108 0.815 1.6503355e-38
-0.007068418 -0.038464673 0.82200003 4.7945105e-39
-0.0042307423 -0.038371082 0.81999999 1.5858392e-38
-0.0014068257 -0.038277496 0.81800002 2.1021348e-38
0.0014050524 -0.038230695 0.81699997 2.0556051e-38
0.0042152638 -0.038230695 0.81699997 1.677603e-38
0.0070254221 -0.038230695 0.81699997 1.5028944e-38
0.0098476196 -0.038277496 0.81800002 1.6872857e-38
0.012661218 -0.038277496 0.81800002 1.6687384e-38
-0.023711005 -0.040761016 0.81099999 1.843935e-39
-0.020921484 -0.040761016 0.81099999 2.7838195e-40
-0.018131938 -0.040761016 0.81099999 6.6398804e-39
-0.015418088 -0.040962059 0.815 1.640904e-38
-0.012645765 -0.041062579 0.81699997 1.7330996e-38
-0.0098355804 -0.041062579 0.81699997 1.7242365e-38
-0.007068418 -0.041313883 0.82200003 7.3934749e-40
-0.0042307423 -0.04121336 0.81999999 2.1523944e-42
-0.0014102653 -0.04121336 0.81999999 2.1523944e-42
0.0014050524 -0.041062579 0.81699997 6.3058431e-44
0.0042152638 -0.041062579 0.81699997 6.0255834e-44
0.0070254221 -0.041062579 0.81699997 3.5869653e-39
0.0098355804 -0.041062579 0.81699997 1.9352412e-38
0.012645738 -0.041062579 0.81699997 1.7056179e-38
-0.020973079 -0.043679595 0.81300002 3.6917068e-40
-0.018176652 -0.043679595 0.81300002 5.0711478e-39
-0.015380253 -0.043679595 0.81300002 1.7147668e-38
-0.012645765 -0.0438945 0.81699997 1.7239864e-38
-0.0098355804 -0.0438945 0.81699997 1.7239839e-38
-0.007068418 -0.044163138 0.82200003 1.5119339e-38
-0.0042307423 -0.044055682 0.81999999 1.1058809e-38
-0.0014102653 -0.044055682 0.81999999 3.2221807e-39
0.0014050524 -0.0438945 0.81699997 1.017026e-39
0.0042152638 -0.0438945 0.81699997 3.7165658e-40
0.0070254221 -0.0438945 0.81699997 5.5747016e-40
0.0098355804 -0.0438945 0.81699997 7.0111586e-39
0.012645738 -0.0438945 0.81699997 1.6042743e-38
0.015455897 -0.0438945 0.81699997 1.6411526e-38
-0.018087223 -0.046268839 0.80900002 4.3440252e-44
-0.015304581 -0.046268839 0.80900002 2.4885267e-39
-0.012521939 -0.046268839 0.80900002 1.8069583e-38
-0.0097392714 -0.046268839 0.80900002 1.751787e-38
-0.0070512192 -0.046897963 0.81999999 1.8808609e-38
-0.0042307423 -0.046897963 0.81999999 1.3367287e-38
-0.0014051058 -0.04672638 0.81699997 7.3648604e-40
0.0014016129 -0.046611995 0.815 1.5687424e-39
0.0042049452 -0.046611995 0.815 7.5614584e-39
0.0070082243 -0.046611995 0.815 7.190515e-39
0.0098355804 -0.04672638 0.81699997 3.8714724e-39
0.012645738 -0.04672638 0.81699997 4.4206594e-39
0.015455897 -0.04672638 0.81699997 2.0370494e-38
-0.020818295 -0.048951712 0.80699998 5.5358856e-40
-0.018042507 -0.048951712 0.80699998 9.2610414e-41
-0.015266744 -0.048951712 0.80699998 2.1523944e-42
-0.012490982 -0.048951712 0.80699998 1.6966144e-38
-0.0097392714 -0.049073033 0.80900002 1.9823114e-38
-0.0069566299 -0.049073033 0.80900002 1.926994e-38
-0.0041946266 -0.049315669 0.81300002 3.8276748e-40
-0.0013947869 -0.049194347 0.81099999 1.1479437e-41
0.0013947338 -0.049194347 0.81099999 9.4346623e-41
0.0041843075 -0.049194347 0.81099999 9.4346623e-41
0.0069910265 -0.049315669 0.81300002 1.0761972e-42
0.0098355804 -0.049558301 0.81699997 1.0761972e-42
0.012645738 -0.049558301 0.81699997 2.8877959e-40
0.015455897 -0.049558301 0.81699997 1.6423009e-38
-0.020818295 -0.051748972 0.80699998 7.2855679e-39
-0.018042507 -0.051748972 0.80699998 8.760698e-39
-0.015266744 -0.051748972 0.80699998 7.6640909e-39
-0.012490982 -0.051748972 0.80699998 1.4117785e-38
-0.0097392714 -0.051877223 0.80900002 1.7608241e-38
-0.0069566299 -0.051877223 0.80900002 1.742385e-38
-0.0041946266 -0.052133724 0.81300002 1.382532e-38
-0.0013947869 -0.052005474 0.81099999 1.4470689e-38
0.0013947338 -0.052005474 0.81099999 1.2078669e-38
0.0041843075 -0.052005474 0.81099999 1.1986473e-38
0.0069910265 -0.052133724 0.81300002 1.1990792e-38
-0.018042507 -0.054546189 0.80699998 1.9545448e-38
-0.015266744 -0.054546189 0.80699998 1.9456505e-38
-0.012521939 -0.054681376 0.80900002 2.231457e-38
-0.0097392714 -0.054681376 0.80900002 2.2404244e-38
0.0013981734 -0.054951742 0.81300002 1.9821685e-38
0.0041946266 -0.054951742 0.81300002 1.9637294e-38
0.0069910265 -0.054951742 0.81300002 1.9638373e-38
