# .PCD v0.7 - Point Cloud Data file format
VERSION 0.7
FIELDS x y z rgb
SIZE 4 4 4 4
TYPE F F F F
COUNT 1 1 1 1
WIDTH 390
HEIGHT 1
VIEWPOINT 0 0 0 1 0 0 0
POINTS 390
DATA ascii
-0.015342416 0.077305429 0.81099999 2.0835493e-38
-0.012552896 0.077305429 0.81099999 2.1665254e-38
-0.0097392714 0.077114791 0.80900002 1.9818795e-38
-0.0069566299 0.077114791 0.80900002 1.9173426e-38
-0.026435172 0.074310638 0.80900002 1.9361433e-38
-0.023769479 0.074678056 0.81300002 1.8900454e-38
-0.020973079 0.074678056 0.81300002 1.8071808e-38
-0.018087223 0.074310638 0.80900002 2.2958155e-38
-0.015304581 0.074310638 0.80900002 2.341769e-38
-0.012490982 0.074126922 0.80699998 2.341769e-38
-0.0097151939 0.074126922 0.80699998 2.341769e-38
-0.0069394317 0.074126922 0.80699998 2.1850364e-38
-0.0041843075 0.074494347 0.81099999 1.8624571e-38
-0.026435172 0.071506448 0.80900002 1.8347984e-38
-0.023652531 0.071506448 0.80900002 1.9823114e-38
-0.02086989 0.071506448 0.80900002 2.341769e-38
-0.018042507 0.071329661 0.80699998 2.341769e-38
-0.015228909 0.071152888 0.80500001 2.3325494e-38
-0.012460027 0.071152888 0.80500001 2.341769e-38
-0.0096911173 0.071152888 0.80500001 2.3417687e-38
-0.0069222338 0.071152888 0.80500001 2.31411e-38
-0.0041739885 0.071506448 0.80900002 2.0283364e-38
-0.0013913471 0.071506448 0.80900002 1.9177016e-38
-0.026369819 0.068532407 0.80699998 2.1849636e-38
-0.023594057 0.068532407 0.80699998 2.3509517e-38
-0.020766702 0.068362564 0.80500001 2.3325494e-38
-0.017953077 0.06819272 0.80299997 2.3325494e-38
-0.015191073 0.06819272 0.80299997 2.341769e-38
-0.012429069 0.06819272 0.80299997 2.0744017e-38
-0.0096670389 0.06819272 0.80299997 1.9727292e-38
-0.0069050356 0.06819272 0.80299997 1.7883379e-38
-0.0041430318 0.06819272 0.80299997 1.8623109e-38
-0.0013844678 0.068362564 0.80500001 1.9268479e-38
0.0013912943 0.068702251 0.80900002 1.8992287e-38
-0.026304469 0.065572277 0.80500001 2.341769e-38
-0.023535585 0.065572277 0.80500001 2.341769e-38
-0.020715106 0.065409362 0.80299997 2.341769e-38
-0.017953077 0.065409362 0.80299997 2.341769e-38
-0.015191073 0.065409362 0.80299997 2.2863425e-38
-0.012429069 0.065409362 0.80299997 2.0927316e-38
-0.0096429624 0.065246448 0.801 1.8069569e-38
-0.0068878378 0.065246448 0.801 1.6963221e-38
-0.0041430318 0.065409362 0.80299997 1.7149054e-38
-0.0013810281 0.065409362 0.80299997 1.8255402e-38
0.0013912943 0.065898106 0.80900002 1.8992284e-38
-0.026304469 0.062781952 0.80500001 1.6688829e-38
-0.023535585 0.062781952 0.80500001 1.982348e-38
-0.020715106 0.062625974 0.80299997 2.0836197e-38
-0.017953077 0.062625974 0.80299997 2.0190828e-38
-0.015153238 0.062469989 0.801 2.0189379e-38
-0.012398113 0.062469989 0.801 1.9451814e-38
-0.0096429624 0.062469989 0.801 1.9360341e-38
-0.0068878378 0.062469989 0.801 1.8807167e-38
-0.0041327132 0.062469989 0.801 1.8714599e-38
-0.0013810281 0.062625974 0.80299997 1.8714599e-38
0.0013844152 0.062781952 0.80500001 1.9544745e-38
-0.023535585 0.059991661 0.80500001 1.6595551e-38
-0.020715106 0.059842616 0.80299997 2.0832221e-38
-0.017953077 0.059842616 0.80299997 1.7420983e-38
-0.015153238 0.059693567 0.801 1.3734561e-38
-0.012398113 0.059693567 0.801 1.3365778e-38
-0.0096429624 0.059693567 0.801 1.4382127e-38
-0.0068878378 0.059693567 0.801 1.5211888e-38
-0.0041327132 0.059693567 0.801 1.5118636e-38
-0.0013810281 0.059842616 0.80299997 1.4749853e-38
0.0013809756 0.059842616 0.80299997 1.6229655e-38
0.0041533508 0.059991661 0.80500001 1.761259e-38
-0.023652531 0.057485566 0.80900002 2.0096075e-38
-0.020818295 0.057343449 0.80699998 2.1017695e-38
-0.017997792 0.057201337 0.80500001 1.8897195e-38
-0.015191073 0.057059225 0.80299997 1.5666358e-38
-0.012429069 0.057059225 0.80299997 1.1794142e-38
-0.0096429624 0.056917105 0.801 8.381424e-39
-0.0068878378 0.056917105 0.801 7.3672874e-39
-0.0041430318 0.057059225 0.80299997 7.0104524e-39
-0.0013810281 0.057059225 0.80299997 1.0882669e-38
0.0013809756 0.057059225 0.80299997 1.2169408e-38
0.0041533508 0.057201337 0.80500001 1.2538191e-38
-0.023652531 0.054681376 0.80900002 1.8900429e-38
-0.020818295 0.054546189 0.80699998 2.1473994e-38
-0.018042507 0.054546189 0.80699998 1.797056e-38
-0.015228909 0.054411009 0.80500001 8.5704759e-39
-0.012460027 0.054411009 0.80500001 7.371951e-39
-0.0096911173 0.054411009 0.80500001 1.2921541e-39
-0.0069222338 0.054411009 0.80500001 4.6240607e-40
-0.0041533508 0.054411009 0.80500001 1.1520141e-38
-0.0013844678 0.054411009 0.80500001 1.4378205e-38
0.0013844152 0.054411009 0.80500001 1.1983903e-38
0.0041533508 0.054411009 0.80500001 1.1061947e-38
-0.023652531 0.051877223 0.80900002 1.7237321e-38
-0.020766702 0.051620722 0.80500001 1.5205401e-38
-0.017997792 0.051620722 0.80500001 5.5248602e-39
-0.015228909 0.051620722 0.80500001 6.5920443e-40
-0.012460027 0.051620722 0.80500001 1.8176252e-38
-0.0096911173 0.051620722 0.80500001 2.0091782e-38
-0.0069222338 0.051620722 0.80500001 3.1277879e-39
-0.0041636694 0.051748972 0.80699998 1.410554e-38
-0.0013879074 0.051748972 0.80699998 2.0559234e-38
-0.023711005 0.049194388 0.81099999 5.9732561e-39
-0.020663513 0.048587799 0.801 1.0109121e-39
-0.017908363 0.048587799 0.801 8.2652087e-40
-0.015153238 0.048587799 0.801 2.2675115e-38
-0.020663513 0.045811336 0.801 2.3960718e-39
-0.017908363 0.045811336 0.801 1.2897243e-39
-0.015153238 0.045811336 0.801 1.9173513e-38
-0.020663513 0.043034878 0.801 3.0417888e-39
-0.017863648 0.042927425 0.79900002 4.7644148e-44
-0.015115402 0.042927425 0.79900002 1.935827e-38
-0.012367156 0.042927425 0.79900002 1.0323098e-38
-0.020663513 0.040258456 0.801 3.1346921e-39
-0.017863648 0.040157937 0.79900002 3.9236357e-44
-0.015115402 0.040157937 0.79900002 1.7700842e-38
-0.012367156 0.040157937 0.79900002 7.3684617e-40
-0.0096188849 0.040157937 0.79900002 8.665561e-39
-0.020663513 0.037481993 0.801 3.1346921e-39
-0.017863648 0.037388407 0.79900002 8.2980131e-40
-0.015115402 0.037388407 0.79900002 1.2718315e-38
-0.012351678 0.03734161 0.79799998 1.6590532e-38
-0.0096068457 0.03734161 0.79799998 3.2285917e-42
-0.0068706395 0.037388407 0.79900002 1.793662e-42
-0.0041327132 0.037481993 0.801 3.7134409e-43
-0.0013775885 0.037481993 0.801 3.69514e-40
0.0013912943 0.037856348 0.80900002 1.8345839e-38
-0.020663513 0.034705572 0.801 2.6751404e-39
-0.017863648 0.034618918 0.79900002 2.8595317e-39
-0.015115402 0.034618918 0.79900002 3.7134409e-43
-0.012351678 0.034575589 0.79799998 1.0603229e-38
-0.0096068457 0.034575589 0.79799998 1.1706712e-38
-0.0068706395 0.034618918 0.79900002 5.0686269e-39
-0.0041327132 0.034705572 0.801 7.196294e-39
-0.0013775885 0.034705572 0.801 7.933859e-39
0.0013844152 0.034878884 0.80500001 1.9911725e-38
-0.020766702 0.032088555 0.80500001 2.6751404e-39
-0.017953077 0.032008834 0.80299997 2.3063579e-39
-0.015115402 0.031849388 0.79900002 6.4648064e-40
-0.012367156 0.031849388 0.79900002 8.2065223e-39
-0.0096068457 0.031809524 0.79799998 1.5579655e-38
-0.0068620401 0.031809524 0.79799998 1.4473307e-38
-0.0041223941 0.031849388 0.79900002 1.4566171e-38
-0.0013775885 0.031929109 0.801 1.438178e-38
0.0013809756 0.032008834 0.80299997 1.9083757e-38
-0.020818295 0.029371019 0.80699998 3.2268877e-39
-0.018042507 0.029371019 0.80699998 3.2268877e-39
-0.015115402 0.029079858 0.79900002 2.0287116e-39
-0.012351678 0.029043462 0.79799998 7.1916669e-39
-0.0096068457 0.029043462 0.79799998 1.1253297e-38
-0.0068620401 0.029043462 0.79799998 1.1345493e-38
-0.0041223941 0.029079858 0.79900002 1.1065273e-38
-0.0013775885 0.029152649 0.801 1.1434056e-38
0.0013809756 0.029225441 0.80299997 1.9910634e-38
-0.020921484 0.026705517 0.81099999 3.5953171e-39
-0.018087223 0.026639661 0.80900002 3.5031214e-39
-0.015153238 0.026376227 0.801 3.0450146e-39
-0.012351678 0.02627744 0.79799998 6.4792818e-40
-0.0096068457 0.02627744 0.79799998 3.7835059e-43
-0.0068620401 0.02627744 0.79799998 1.6815582e-44
-0.0041223941 0.026310369 0.79900002 5.6051939e-45
-0.0013775885 0.026376227 0.801 3.657389e-43
0.0013844152 0.026507944 0.80500001 1.8807871e-38
0.0041739885 0.026639661 0.80900002 1.8531284e-38
-0.020921484 0.023894433 0.81099999 3.2287038e-39
-0.018042507 0.023776582 0.80699998 2.7677256e-39
-0.015115402 0.023540879 0.79900002 3.2268877e-39
-0.012351678 0.023511415 0.79799998 1.659562e-39
-0.0096068457 0.023511415 0.79799998 1.569146e-39
-0.0068620401 0.023511415 0.79799998 1.569146e-39
-0.0041223941 0.023540879 0.79900002 1.4762441e-39
-0.0013775885 0.023599803 0.801 3.0828566e-44
0.0013844152 0.023717657 0.80500001 1.7792993e-38
0.0041739885 0.023835508 0.80900002 1.889934e-38
-0.020921484 0.02108331 0.81099999 2.1209143e-39
-0.017953077 0.020875337 0.80299997 5.5358856e-40
-0.015115402 0.020771351 0.79900002 2.7667377e-40
-0.012351678 0.020745352 0.79799998 7.7071416e-44
-0.0096068457 0.020745352 0.79799998 0
-0.0068620401 0.020745352 0.79799998 9.219563e-41
-0.0041223941 0.020771351 0.79900002 7.1886611e-43
-0.0013775885 0.020823343 0.801 6.4608828e-40
0.0013809756 0.020875337 0.80299997 1.7516438e-38
0.0041739885 0.021031316 0.80900002 1.8438394e-38
-0.020818295 0.018182063 0.80699998 1.8452578e-40
-0.017953077 0.018091943 0.80299997 7.8367631e-39
-0.015153238 0.018046882 0.801 1.3731789e-38
-0.012367156 0.018001821 0.79900002 1.0320551e-38
-0.0096068457 0.01797929 0.79799998 1.0602851e-38
-0.0068620401 0.01797929 0.79799998 1.1063829e-38
-0.0041223941 0.018001821 0.79900002 1.0233702e-38
-0.0013775885 0.018046882 0.801 8.7585722e-39
0.0013809756 0.018091943 0.80299997 1.8989413e-38
0.0041533508 0.018137002 0.80500001 1.8620631e-38
-0.020766702 0.015346716 0.80500001 2.2315305e-38
-0.017953077 0.015308589 0.80299997 2.2683366e-38
-0.015153238 0.015270459 0.801 2.341769e-38
-0.012367156 0.015232331 0.79900002 1.8900104e-38
-0.0096068457 0.015213267 0.79799998 1.7424611e-38
-0.0068620401 0.015213267 0.79799998 1.5672894e-38
-0.0041223941 0.015232331 0.79900002 1.521155e-38
-0.0013775885 0.015270459 0.801 1.5488137e-38
0.0013809756 0.015308589 0.80299997 1.8623502e-38
0.0041533508 0.015346716 0.80500001 1.7885937e-38
-0.020766702 0.01255639 0.80500001 2.3326213e-38
-0.017953077 0.012525194 0.80299997 2.3326213e-38
-0.015153238 0.012493998 0.801 2.2954561e-38
-0.012367156 0.012462802 0.79900002 1.6593062e-38
-0.0096068457 0.012447204 0.79799998 1.4660187e-38
-0.0068620401 0.012447204 0.79799998 1.3646035e-38
-0.0041223941 0.012462802 0.79900002 1.198758e-38
-0.0013775885 0.012493998 0.801 1.5030036e-38
0.0013809756 0.012525194 0.80299997 1.9174511e-38
0.0041533508 0.01255639 0.80500001 1.8529141e-38
-0.020766702 0.0097661028 0.80500001 1.3092797e-38
-0.017953077 0.00974184 0.80299997 1.8449608e-39
-0.015153238 0.0097175753 0.801 1.8367239e-40
-0.012351678 0.0096811801 0.79799998 1.8367239e-40
-0.0096068457 0.0096811801 0.79799998 1.2611686e-44
-0.0068620401 0.0096811801 0.79799998 1.1210388e-44
-0.0041223941 0.0096933125 0.79900002 7.1746481e-43
-0.0013775885 0.0097175753 0.801 7.9295402e-39
0.0013809756 0.00974184 0.80299997 1.9451097e-38
0.0041533508 0.0097661028 0.80500001 1.8436946e-38
-0.017953077 0.0069584455 0.80299997 3.5873241e-42
-0.015153238 0.0069411141 0.801 3.0439201e-39
-0.012351678 0.0069151176 0.79799998 1.2922032e-39
-0.0096068457 0.0069151176 0.79799998 2.4882254e-39
-0.0068620401 0.0069151176 0.79799998 2.3960298e-39
-0.0041172346 0.0069151176 0.79799998 8.3120821e-40
-0.0013775885 0.0069411141 0.801 4.2424465e-39
0.0013809756 0.0069584455 0.80299997 1.8808249e-38
-0.015115402 0.0041542542 0.79900002 3.5034746e-39
-0.012351678 0.0041490546 0.79799998 1.5673663e-39
-0.0095827691 0.0041386564 0.796 1.7535373e-39
-0.0068448423 0.0041386564 0.796 1.7535373e-39
-0.0041172346 0.0041490546 0.79799998 7.3938533e-40
-0.0013741488 0.0041542542 0.79900002 5.1647756e-39
0.0013809756 0.0041750516 0.80299997 1.8808246e-38
-0.015096484 0.0013830314 0.79799998 3.4112789e-39
-0.012351678 0.0013830314 0.79799998 2.6737139e-39
-0.0095827691 0.0013795652 0.796 2.3038342e-39
-0.0068448423 0.0013795652 0.796 2.3038342e-39
-0.0041172346 0.0013830314 0.79799998 4.6242569e-40
-0.0013741488 0.0013847646 0.79900002 7.100511e-39
0.0013775361 0.0013882307 0.801 1.8900442e-38
-0.015096484 -0.0013830314 0.79799998 3.3212483e-39
-0.012351678 -0.0013830314 0.79799998 2.3070964e-39
-0.0095827691 -0.0013795652 0.796 2.4882254e-39
-0.0068448423 -0.0013795652 0.796 2.3038342e-39
-0.0041172346 -0.0013830314 0.79799998 7.3721471e-40
-0.0013741488 -0.0013847646 0.79900002 7.7440826e-39
0.0013740966 -0.0013847646 0.79900002 1.8531662e-38
-0.015058648 -0.0041386564 0.796 3.2268877e-39
-0.012320722 -0.0041386564 0.796 2.8581052e-39
-0.0095827691 -0.0041386564 0.796 2.4882254e-39
-0.0068448423 -0.0041386564 0.796 2.2116385e-39
-0.0041172346 -0.0041490546 0.79799998 3.7023006e-40
-0.0013741488 -0.0041542542 0.79900002 7.100511e-39
0.0013740966 -0.0041542542 0.79900002 1.8255441e-38
-0.015020813 -0.0068804557 0.79400003 1.8450238e-39
-0.012289765 -0.0068804557 0.79400003 2.4903932e-39
-0.0095827691 -0.0068977866 0.796 1.8457329e-39
-0.0068448423 -0.0068977866 0.796 1.2925591e-39
-0.0041172346 -0.0069151176 0.79799998 2.8025969e-45
-0.0013741488 -0.0069237831 0.79900002 9.5883483e-39
0.0013740966 -0.0069237831 0.79900002 1.7980293e-38
-0.015020813 -0.0096326144 0.79400003 9.5830598e-41
-0.012289765 -0.0096326144 0.79400003 1.8475476e-39
-0.0096068457 -0.009681141 0.79799998 1.2925591e-39
-0.0068620401 -0.009681141 0.79799998 1.0159722e-39
-0.0041223941 -0.0096932733 0.79900002 7.1886611e-43
-0.0013741488 -0.0096932733 0.79900002 1.3645672e-38
0.0013740966 -0.0096932733 0.79900002 1.8622779e-38
-0.012351678 -0.012447204 0.79799998 2.9510211e-39
-0.0096068457 -0.012447204 0.79799998 2.1216107e-39
-0.0068706395 -0.012462802 0.79900002 1.5684369e-39
-0.0041223941 -0.012462802 0.79900002 7.2166871e-43
-0.0013741488 -0.012462802 0.79900002 9.8660142e-39
0.0013740966 -0.012462802 0.79900002 1.8253993e-38
-0.012367156 -0.015232292 0.79900002 3.1357753e-39
-0.0096188849 -0.015232292 0.79900002 2.4889667e-39
-0.0068706395 -0.015232292 0.79900002 1.7514017e-39
-0.0041223941 -0.015232292 0.79900002 4.6171663e-40
-0.0013741488 -0.015232292 0.79900002 5.4402806e-39
0.0013775361 -0.015270419 0.801 1.8714249e-38
0.0041430318 -0.015308549 0.80299997 1.7607901e-38
-0.012367156 -0.018001821 0.79900002 3.2279779e-39
-0.0096188849 -0.018001821 0.79900002 2.582942e-39
-0.0068706395 -0.018001821 0.79900002 1.845377e-39
-0.0041223941 -0.018001821 0.79900002 1.0159722e-39
-0.0013741488 -0.018001821 0.79900002 7.3988559e-43
0.0013775361 -0.018046882 0.801 1.8345453e-38
0.0041430318 -0.018091943 0.80299997 1.7607888e-38
-0.012367156 -0.02077131 0.79900002 3.4120132e-39
-0.0096188849 -0.02077131 0.79900002 3.0424964e-39
-0.0068706395 -0.02077131 0.79900002 2.4893226e-39
-0.0041223941 -0.02077131 0.79900002 1.7535373e-39
-0.0013741488 -0.02077131 0.79900002 1.9618179e-44
0.0013775361 -0.020823304 0.801 1.6502603e-38
0.0041430318 -0.020875297 0.80299997 1.7608951e-38
-0.012367156 -0.02354084 0.79900002 3.5953171e-39
-0.0096188849 -0.02354084 0.79900002 3.0439201e-39
-0.0068706395 -0.02354084 0.79900002 2.4907464e-39
-0.0041223941 -0.02354084 0.79900002 1.9347041e-39
-0.0013775885 -0.023599764 0.801 9.1867726e-41
0.0013775361 -0.023599764 0.801 1.4104801e-38
0.0041430318 -0.023658691 0.80299997 1.8161408e-38
-0.012398113 -0.026376227 0.801 4.6312634e-40
-0.0096188849 -0.026310369 0.79900002 1.1911037e-43
-0.0068706395 -0.026310369 0.79900002 1.1350518e-43
-0.0041223941 -0.026310369 0.79900002 1.4349296e-42
-0.0013775885 -0.026376227 0.801 2.6751054e-39
0.0013775361 -0.026376227 0.801 1.3184666e-38
0.0041327132 -0.026376227 0.801 1.7517861e-38
0.0069050356 -0.026442086 0.80299997 1.6964684e-38
-0.0096429624 -0.029152649 0.801 2.2221678e-38
-0.0068878378 -0.029152649 0.801 2.1852895e-38
-0.0041223941 -0.029079858 0.79900002 1.7888473e-38
-0.0013741488 -0.029079858 0.79900002 1.6597734e-38
0.0013740966 -0.029079858 0.79900002 1.6687759e-38
0.0041327132 -0.029152649 0.801 1.6687759e-38
0.0069050356 -0.029225441 0.80299997 1.6780295e-38
-0.0096429624 -0.031929109 0.801 2.341769e-38
-0.0068878378 -0.031929109 0.801 2.3325494e-38
-0.0041223941 -0.031849388 0.79900002 1.8624233e-38
-0.0013741488 -0.031849388 0.79900002 1.7702277e-38
0.0013740966 -0.031849388 0.79900002 1.7240573e-38
0.0041327132 -0.031929109 0.801 1.6963986e-38
0.0068878378 -0.031929109 0.801 1.668775e-38
-0.0096429624 -0.034705531 0.801 1.6681651e-38
-0.0068878378 -0.034705531 0.801 8.3840444e-39
-0.0041223941 -0.034618877 0.79900002 3.2153186e-39
-0.0013741488 -0.034618877 0.79900002 2.1122164e-39
0.0013740966 -0.034618877 0.79900002 1.0761972e-42
0.0041223941 -0.034618877 0.79900002 1.678104e-38
0.0068878378 -0.034705531 0.801 1.6872504e-38
-0.0096429624 -0.037481993 0.801 1.2611686e-44
-0.0068878378 -0.037481993 0.801 1.1063602e-39
-0.0041327132 -0.037481993 0.801 1.9346663e-39
-0.0013741488 -0.037388407 0.79900002 7.361231e-40
0.0013740966 -0.037388407 0.79900002 1.8839477e-40
0.0041223941 -0.037388407 0.79900002 1.5124087e-38
0.0068878378 -0.037481993 0.801 1.6872128e-38
-0.0096429624 -0.040258415 0.801 3.226847e-39
-0.0068878378 -0.040258415 0.801 3.9644121e-39
-0.0041327132 -0.040258415 0.801 1.2903885e-39
-0.0013741488 -0.040157896 0.79900002 3.7796705e-39
0.0013740966 -0.040157896 0.79900002 1.6777482e-38
0.0041223941 -0.040157896 0.79900002 1.7054069e-38
0.0069050356 -0.040358938 0.80299997 1.641151e-38
-0.0096670389 -0.04314233 0.80299997 1.293257e-39
-0.0069050356 -0.04314233 0.80299997 4.0591258e-39
-0.0041327132 -0.043034878 0.801 2.3030929e-39
-0.0013775885 -0.043034878 0.801 2.4874841e-39
0.0013775361 -0.043034878 0.801 1.6686343e-38
0.0041327132 -0.043034878 0.801 1.7423908e-38
-0.015020813 -0.045410953 0.79400003 6.7335054e-39
-0.012289765 -0.045410953 0.79400003 4.7052015e-39
-0.0096188849 -0.045696914 0.79900002 2.9499098e-39
-0.0068878378 -0.045811299 0.801 2.4889317e-39
-0.0041327132 -0.045811299 0.801 1.8464307e-39
-0.0013775885 -0.045811299 0.801 4.6349628e-40
0.0013775361 -0.045811299 0.801 2.9567243e-39
0.0041327132 -0.045811299 0.801 1.3190439e-38
-0.017863648 -0.048466444 0.79900002 6.8217479e-39
-0.015020813 -0.048163153 0.79400003 5.9022775e-39
-0.012289765 -0.048163153 0.79400003 4.0583649e-39
-0.0096188849 -0.048466444 0.79900002 3.9644121e-39
-0.0068706395 -0.048466444 0.79900002 3.5034339e-39
-0.0041327132 -0.048587758 0.801 3.1346514e-39
-0.0013775885 -0.048587758 0.801 3.4112383e-39
0.0013775361 -0.048587758 0.801 8.3800731e-40
0.0041327132 -0.048587758 0.801 7.5333805e-42
0.0068878378 -0.048587758 0.801 1.853347e-38
-0.017863648 -0.051235974 0.79900002 4.7639664e-40
-0.015096484 -0.051171847 0.79799998 1.0761972e-42
-0.012351678 -0.051171847 0.79799998 1.0761972e-42
-0.0096188849 -0.051235974 0.79900002 3.5873241e-43
-0.0068706395 -0.051235974 0.79900002 3.5873241e-43
-0.0041327132 -0.051364221 0.801 3.5873241e-43
-0.0013775885 -0.051364221 0.801 1.8510732e-40
0.0013775361 -0.051364221 0.801 2.8734466e-40
0.0041327132 -0.051364221 0.801 9.0459239e-39
0.0068878378 -0.051364221 0.801 1.852698e-38
-0.015191073 -0.054275829 0.80299997 1.8532754e-38
-0.012398113 -0.054140642 0.801 1.8071776e-38
-0.0096429624 -0.054140642 0.801 1.8716782e-38
-0.0068878378 -0.054140642 0.801 1.8716782e-38
-0.0041327132 -0.054140642 0.801 1.899265e-38
-0.0013775885 -0.054140642 0.801 1.8808259e-38
0.0013775361 -0.054140642 0.801 1.9179209e-38
0.0041327132 -0.054140642 0.801 1.9179209e-38
0.0068878378 -0.054140642 0.801 2.1389386e-38
