# .PCD v0.7 - Point Cloud Data file format
VERSION 0.7
FIELDS x y z rgb
SIZE 4 4 4 4
TYPE F F F F
COUNT 1 1 1 1
WIDTH 1006
HEIGHT 1
VIEWPOINT 0 0 0 1 0 0 0
POINTS 1006
DATA ascii
0.026598543 0.054333027 0.41800001 2.3325494e-38
0.027969226 0.054203045 0.417 2.341769e-38
0.029403543 0.054203045 0.417 2.3418043e-38
0.030911837 0.054333027 0.41800001 2.1666326e-38
0.032349594 0.054333027 0.41800001 2.028266e-38
0.019409738 0.052884158 0.41800001 2.341769e-38
0.020847522 0.052884158 0.41800001 2.3233299e-38
0.022285277 0.052884158 0.41800001 2.3233299e-38
0.023723032 0.052884158 0.41800001 2.3233299e-38
0.025100594 0.052757643 0.417 2.3233299e-38
0.026534911 0.052757643 0.417 2.3233299e-38
0.027969226 0.052757643 0.417 2.3233299e-38
0.029403543 0.052757643 0.417 2.3233299e-38
0.030837886 0.052757643 0.417 2.341769e-38
0.032349594 0.052884158 0.41800001 2.2126573e-38
0.033868179 0.053010672 0.419 2.028266e-38
0.035393644 0.053137187 0.41999999 2.0559247e-38
0.019409738 0.051435288 0.41800001 2.3233299e-38
0.020847522 0.051435288 0.41800001 2.3233299e-38
0.022231963 0.051312238 0.417 2.3233299e-38
0.023666279 0.051312238 0.417 2.3418043e-38
0.025040401 0.051189184 0.41600001 2.3049261e-38
0.026471278 0.051189184 0.41600001 2.3417687e-38
0.027902154 0.051189184 0.41600001 2.3417687e-38
0.029333031 0.051189184 0.41600001 2.3418043e-38
0.030837886 0.051312238 0.417 2.3418043e-38
0.032349594 0.051435288 0.41800001 2.3418028e-38
0.033868179 0.051558338 0.419 2.1113137e-38
0.035309374 0.051558338 0.419 2.0375938e-38
0.036838278 0.051681388 0.41999999 2.0375938e-38
0.013626041 0.049866814 0.417 2.1574478e-38
0.015060357 0.049866814 0.417 2.341769e-38
0.016494673 0.049866814 0.417 2.3325494e-38
0.017928988 0.049866814 0.417 2.3233296e-38
0.019409738 0.0499864 0.41800001 2.3233296e-38
0.020797648 0.049866814 0.417 2.314109e-38
0.022231963 0.049866814 0.417 2.2772308e-38
0.023609526 0.049747229 0.41600001 2.2033288e-38
0.025040401 0.049747229 0.41600001 2.1480115e-38
0.026471278 0.049747229 0.41600001 2.2126936e-38
0.02783508 0.049627647 0.41499999 2.2311327e-38
0.029262517 0.049627647 0.41499999 2.230951e-38
0.030763933 0.049747229 0.41600001 2.2401705e-38
0.032272201 0.049866814 0.417 2.221802e-38
0.033787347 0.0499864 0.41800001 2.1757042e-38
0.035225105 0.0499864 0.41800001 2.0652159e-38
0.03675057 0.050105982 0.419 2.0375572e-38
0.012220962 0.048537508 0.41800001 2.2588636e-38
0.013626041 0.04842139 0.417 2.3418038e-38
0.015060357 0.04842139 0.417 2.3325494e-38
0.016494673 0.04842139 0.417 2.3233299e-38
0.017928988 0.04842139 0.417 2.3048895e-38
0.019363305 0.04842139 0.417 2.2680112e-38
0.020797648 0.04842139 0.417 2.2679001e-38
0.02217865 0.048305269 0.41600001 2.2125827e-38
0.023552772 0.048189152 0.41499999 2.08358e-38
0.024980208 0.048189152 0.41499999 1.9637257e-38
0.026407644 0.048189152 0.41499999 2.0742184e-38
0.02783508 0.048189152 0.41499999 2.0373401e-38
0.029262517 0.048189152 0.41499999 2.065106e-38
0.030689981 0.048189152 0.41499999 2.0282278e-38
0.032194812 0.048305269 0.41600001 2.0558132e-38
0.033706516 0.04842139 0.417 2.0834719e-38
0.035225105 0.048537508 0.41800001 2.0835821e-38
0.03675057 0.048653625 0.419 2.0282648e-38
0.038282912 0.048769742 0.41999999 2.0283732e-38
0.012220962 0.047088619 0.41800001 2.2957062e-38
0.013626041 0.046975967 0.417 2.341804e-38
0.015060357 0.046975967 0.417 2.3417687e-38
0.016455118 0.046863314 0.41600001 2.3417687e-38
0.017885994 0.046863314 0.41600001 2.3326201e-38
0.019316871 0.046863314 0.41600001 2.2865222e-38
0.020697897 0.046750661 0.41499999 2.2033992e-38
0.022125334 0.046750661 0.41499999 2.0927644e-38
0.023496017 0.046638012 0.414 2.0466652e-38
0.024920015 0.046638012 0.414 1.9913478e-38
0.026344011 0.046638012 0.414 2.0281912e-38
0.027768008 0.046638012 0.414 1.9728738e-38
0.029192006 0.046638012 0.414 2.0005325e-38
0.03061603 0.046638012 0.414 1.9452151e-38
0.032194812 0.046863314 0.41600001 2.0189352e-38
0.033706516 0.046975967 0.417 1.9912765e-38
0.035225105 0.047088619 0.41800001 2.0374108e-38
0.03675057 0.047201268 0.419 2.074289e-38
0.038282912 0.047313917 0.41999999 2.01919e-38
0.012191725 0.045530565 0.417 2.1388998e-38
0.013626041 0.045530565 0.417 2.0467042e-38
0.015024241 0.045421377 0.41600001 2.065143e-38
0.016455118 0.045421377 0.41600001 2.0282648e-38
0.017885994 0.045421377 0.41600001 1.9913139e-38
0.019316871 0.045421377 0.41600001 2.0835096e-38
0.020697897 0.045312192 0.41499999 2.1665945e-38
0.022018706 0.045093819 0.41299999 2.1665945e-38
0.023439264 0.045093819 0.41299999 2.2125837e-38
0.024799628 0.044984635 0.412 2.2033642e-38
0.026216745 0.044984635 0.412 2.1296067e-38
0.027566792 0.04487545 0.41100001 2.0835089e-38
0.028980469 0.04487545 0.41100001 2.0005661e-38
0.030468127 0.044984635 0.412 1.9913466e-38
0.032194812 0.045421377 0.41600001 2.0097156e-38
0.033706516 0.045530565 0.417 1.9451787e-38
0.035225105 0.04563975 0.41800001 1.9913469e-38
0.036662858 0.04563975 0.41800001 2.0835425e-38
0.038282912 0.045858119 0.41999999 2.0191183e-38
0.039727546 0.045858119 0.41999999 2.0191183e-38
0.012191725 0.04408516 0.417 2.0560306e-38
0.013626041 0.04408516 0.417 2.0191524e-38
0.015024241 0.04397944 0.41600001 1.9914581e-38
0.016455118 0.04397944 0.41600001 1.9545799e-38
0.017885994 0.04397944 0.41600001 1.9268123e-38
0.019316871 0.04397944 0.41600001 1.8714949e-38
0.020548275 0.043556564 0.412 1.8346167e-38
0.021912079 0.043450844 0.41100001 1.8807145e-38
0.023325758 0.043450844 0.41100001 1.8532366e-38
0.024679242 0.04334512 0.41 1.9638713e-38
0.02608948 0.04334512 0.41 2.1759225e-38
0.027499719 0.04334512 0.41 2.1574834e-38
0.028909957 0.04334512 0.41 2.2493877e-38
0.030320222 0.04334512 0.41 2.1203138e-38
0.031730462 0.04334512 0.41 2.0189705e-38
0.033059869 0.043239404 0.40900001 1.9728727e-38
0.034466669 0.043239404 0.40900001 1.9084787e-38
0.036662858 0.04419088 0.41800001 2.028333e-38
0.038282912 0.044402316 0.41999999 2.0190465e-38
0.039727546 0.044402316 0.41999999 2.0467051e-38
0.012220962 0.042741988 0.41800001 1.8437607e-38
0.013626041 0.042639736 0.417 1.7331259e-38
0.015060357 0.042639736 0.417 1.7883742e-38
0.016455118 0.042537481 0.41600001 1.8160329e-38
0.017885994 0.042537481 0.41600001 1.8346523e-38
0.019316871 0.042537481 0.41600001 1.8623109e-38
0.020548275 0.04212847 0.412 1.8347246e-38
0.021912079 0.042026218 0.41100001 1.8347246e-38
0.023325758 0.042026218 0.41100001 1.8069583e-38
0.024679242 0.041923963 0.41 1.8069583e-38
0.02608948 0.041923963 0.41 1.7792633e-38
0.027499719 0.041923963 0.41 1.7977024e-38
0.028909957 0.041923963 0.41 1.8623109e-38
0.030246273 0.041821711 0.40900001 2.0282631e-38
0.031653073 0.041821711 0.40900001 2.1388269e-38
0.033059869 0.041821711 0.40900001 2.1111682e-38
0.034466669 0.041821711 0.40900001 2.0280483e-38
0.035961177 0.041923963 0.41 2.0649265e-38
0.037462566 0.042026218 0.41100001 2.028266e-38
0.013756746 0.041589461 0.421 1.2721115e-38
0.015168704 0.04149067 0.41999999 1.456469e-38
0.016613338 0.04149067 0.41999999 1.456469e-38
0.017928988 0.041194312 0.417 1.4655434e-38
0.019316871 0.041095525 0.41600001 1.4563238e-38
0.020697897 0.040996738 0.41499999 1.4381368e-38
0.022125334 0.040996738 0.41499999 1.5211128e-38
0.023325758 0.040601593 0.41100001 1.5857973e-38
0.024679242 0.040502802 0.41 1.6872125e-38
0.02608948 0.040502802 0.41 1.7701539e-38
0.027499719 0.040502802 0.41 1.7332756e-38
0.028909957 0.040502802 0.41 1.779228e-38
0.030246273 0.040404014 0.40900001 1.7607888e-38
0.031653073 0.040404014 0.40900001 1.742421e-38
0.0331407 0.040502802 0.41 1.7792993e-38
0.034550939 0.040502802 0.41 1.8716041e-38
0.035961177 0.040502802 0.41 2.0191171e-38
0.037462566 0.040601593 0.41100001 2.1018776e-38
0.038970832 0.040700376 0.412 2.1018776e-38
0.040387977 0.040700376 0.412 2.0282294e-38
0.041906565 0.040799163 0.41299999 2.0282294e-38
0.043432031 0.040897951 0.414 1.9914962e-38
0.013756746 0.040130191 0.421 1.0605676e-38
0.015168704 0.040034868 0.41999999 1.5118227e-38
0.016573783 0.039939549 0.419 1.5302618e-38
0.017971983 0.03984423 0.41800001 1.5208977e-38
0.019363305 0.039748911 0.417 1.3641652e-38
0.020747773 0.039653588 0.41600001 1.2167588e-38
0.02217865 0.039653588 0.41600001 1.0876849e-38
0.023552772 0.039558265 0.41499999 1.004423e-38
0.024980208 0.039558265 0.41499999 1.0136426e-38
0.026407644 0.039558265 0.41499999 1.0972334e-38
0.027768008 0.039462946 0.414 1.2724051e-38
0.029192006 0.039462946 0.414 1.4569764e-38
0.030246273 0.03898634 0.40900001 1.6229285e-38
0.031653073 0.03898634 0.40900001 1.7792645e-38
0.0331407 0.039081663 0.41 1.7239472e-38
0.034550939 0.039081663 0.41 1.7423843e-38
0.035961177 0.039081663 0.41 1.7331648e-38
0.037462566 0.039176986 0.41100001 1.7241247e-38
0.038970832 0.039272305 0.412 1.7886616e-38
0.040387977 0.039272305 0.412 1.936177e-38
0.041906565 0.039367624 0.41299999 2.0283727e-38
0.043432031 0.039462946 0.414 2.0375575e-38
0.044964373 0.039558265 0.41499999 2.0191183e-38
0.013789422 0.038762778 0.42199999 1.5394798e-38
0.015168704 0.038579069 0.41999999 1.649828e-38
0.016534228 0.03839536 0.41800001 1.7235845e-38
0.017971983 0.03839536 0.41800001 1.5855066e-38
0.019363305 0.038303506 0.417 1.4472131e-38
0.020747773 0.038211651 0.41600001 1.2628579e-38
0.02217865 0.038211651 0.41600001 1.1522231e-38
0.023552772 0.038119797 0.41499999 1.1057666e-38
0.024980208 0.038119797 0.41499999 9.8591226e-39
0.026407644 0.038119797 0.41499999 9.6761635e-39
0.02783508 0.038119797 0.41499999 8.4776203e-39
0.029262517 0.038119797 0.41499999 7.8365697e-39
0.030763933 0.038211651 0.41600001 9.0351129e-39
0.032272201 0.038303506 0.417 1.143511e-38
0.0331407 0.037660521 0.41 1.4293174e-38
0.034550939 0.037660521 0.41 1.6503346e-38
0.035961177 0.037660521 0.41 1.6964324e-38
0.037462566 0.037752379 0.41100001 1.7331287e-38
0.038970832 0.037844233 0.412 1.6593722e-38
0.040486008 0.037936084 0.41299999 1.6225641e-38
0.042008031 0.038027942 0.414 1.6686619e-38
0.043536935 0.038119797 0.41499999 1.7980637e-38
0.044964373 0.038119797 0.41499999 1.9732353e-38
0.013789422 0.037300024 0.42199999 1.6592615e-38
0.015204821 0.037211634 0.421 1.7328028e-38
0.016534228 0.036946472 0.41800001 1.7512419e-38
0.017971983 0.036946472 0.41800001 1.6316026e-38
0.019363305 0.036858082 0.417 1.5394069e-38
0.020747773 0.036769692 0.41600001 1.3918955e-38
0.02217865 0.036769692 0.41600001 1.1798455e-38
0.023552772 0.036681306 0.41499999 1.0599209e-38
0.024980208 0.036681306 0.41499999 9.5850567e-39
0.026407644 0.036681306 0.41499999 1.032118e-38
0.02783508 0.036681306 0.41499999 1.0044593e-38
0.029333031 0.036769692 0.41600001 9.9531035e-39
0.030763933 0.036769692 0.41600001 8.9389516e-39
0.032272201 0.036858082 0.417 7.2844371e-39
0.033787347 0.036946472 0.41800001 9.6815234e-39
0.034550939 0.03623936 0.41 1.2908076e-38
0.035961177 0.03623936 0.41 1.3922228e-38
0.037462566 0.036327753 0.41100001 1.5579568e-38
0.038970832 0.036416139 0.412 1.6317133e-38
0.040486008 0.036504526 0.41299999 1.6685905e-38
0.042008031 0.036592916 0.414 1.6685905e-38
0.043432031 0.036592916 0.414 1.576323e-38
0.044964373 0.036681306 0.41499999 1.5302252e-38
0.015204821 0.035752345 0.421 1.7327662e-38
0.016573783 0.035582501 0.419 1.7327662e-38
0.018014979 0.035582501 0.419 1.6499697e-38
0.019409738 0.03549758 0.41800001 1.5393349e-38
0.020797648 0.035412658 0.417 1.382532e-38
0.022231963 0.035412658 0.417 1.2073603e-38
0.023552772 0.035242815 0.41499999 1.1059475e-38
0.024980208 0.035242815 0.41499999 9.3999535e-39
0.026407644 0.035242815 0.41499999 1.0505945e-38
0.02783508 0.035242815 0.41499999 1.0044967e-38
0.029333031 0.035327736 0.41600001 1.1058396e-38
0.030763933 0.035327736 0.41600001 1.0320831e-38
0.032272201 0.035412658 0.417 8.4793971e-39
0.033787347 0.03549758 0.41800001 1.2167222e-38
0.035393644 0.035667423 0.41999999 1.3550901e-38
0.036136597 0.034988046 0.412 1.3919683e-38
0.037553716 0.034988046 0.412 1.4105504e-38
0.038970832 0.034988046 0.412 1.502746e-38
0.040486008 0.035072967 0.41299999 1.5118952e-38
0.042008031 0.035157893 0.414 1.5395539e-38
0.043432031 0.035157893 0.414 1.5763233e-38
0.015204821 0.034293078 0.421 1.7143634e-38
0.016613338 0.034211621 0.41999999 1.6682656e-38
0.018014979 0.034130167 0.419 1.6311362e-38
0.019409738 0.03404871 0.41800001 1.5389406e-38
0.020847522 0.03404871 0.41800001 1.2165433e-38
0.02217865 0.033885796 0.41600001 9.4917596e-39
0.023552772 0.033804342 0.41499999 7.7426126e-39
0.024980208 0.033804342 0.41499999 6.5440694e-39
0.026407644 0.033804342 0.41499999 4.660004e-40
0.027902154 0.033885796 0.41600001 4.3047889e-42
0.029333031 0.033885796 0.41600001 5.0725323e-39
0.030763933 0.033885796 0.41600001 7.9305968e-39
0.032349594 0.03404871 0.41800001 8.2057263e-39
0.033868179 0.034130167 0.419 1.6226746e-38
0.035393644 0.034211621 0.41999999 1.6407518e-38
0.039160009 0.033722889 0.414 1.456647e-38
0.040584035 0.033722889 0.414 1.502675e-38
0.042008031 0.033722889 0.414 1.5487728e-38
0.015204821 0.032833789 0.421 1.6497536e-38
0.016613338 0.0327558 0.41999999 1.6128753e-38
0.018057974 0.0327558 0.41999999 1.4010814e-38
0.019456174 0.032677811 0.419 1.0599576e-38
0.020847522 0.032599822 0.41800001 5.0725323e-39
0.02217865 0.03244384 0.41600001 4.150576e-39
0.023609526 0.03244384 0.41600001 4.7115718e-40
0.015204821 0.031374522 0.421 1.3910955e-38
0.016613338 0.031299997 0.41999999 1.0407545e-38
0.018057974 0.031299997 0.41999999 5.1603853e-39
0.019456174 0.031225475 0.419 2.85551e-39
0.020897396 0.031225475 0.419 1.9092692e-40
0.017585028 0.029062545 0.40900001 3.318342e-39
0.018991826 0.029062545 0.40900001 7.3686439e-40
0.020398652 0.029062545 0.40900001 1.865239e-39
0.021858765 0.029133601 0.41 1.8918111e-38
0.017585028 0.02764485 0.40900001 2.4910995e-39
0.018991826 0.02764485 0.40900001 1.0972167e-42
0.020398652 0.02764485 0.40900001 1.9268222e-38
0.021858765 0.02771244 0.41 2.3048197e-38
0.017585028 0.026227176 0.40900001 2.0301241e-39
0.018991826 0.026227176 0.40900001 2.7840718e-40
0.020448525 0.026291301 0.41 2.2216645e-38
0.021858765 0.026291301 0.41 1.6039538e-38
0.017671017 0.024930822 0.41100001 1.7535373e-39
0.019084696 0.024930822 0.41100001 4.6279844e-40
0.020498401 0.024930822 0.41100001 2.0373041e-38
0.017714012 0.023563387 0.412 1.9372195e-39
0.01913113 0.023563387 0.412 5.5428501e-40
0.020548275 0.023563387 0.412 1.8157092e-38
0.015096473 0.022457652 0.41800001 2.8595289e-39
0.016455118 0.022350198 0.41600001 2.582942e-39
0.017714012 0.022135293 0.412 2.6754908e-39
0.01913113 0.022135293 0.412 3.7694929e-43
0.020548275 0.022135293 0.412 1.2168332e-38
0.022018706 0.022189019 0.41299999 2.1756678e-38
0.02461905 0.021974115 0.40900001 6.3651474e-39
0.026025848 0.021974115 0.40900001 1.7880858e-38
0.015024241 0.020908261 0.41600001 2.8595289e-39
0.016455118 0.020908261 0.41600001 2.4907464e-39
0.017800003 0.020807743 0.414 2.6754908e-39
0.019177565 0.020757481 0.41299999 1.0159694e-39
0.020598149 0.020757481 0.41299999 3.5051743e-39
0.021965394 0.020707222 0.412 2.0008182e-38
0.023269003 0.0206067 0.41 9.8693101e-39
0.024558855 0.020506181 0.40799999 1.4965868e-42
0.025962215 0.020506181 0.40799999 9.1237296e-39
0.015024241 0.019466303 0.41600001 2.9520748e-39
0.016455118 0.019466303 0.41600001 2.6754879e-39
0.017885994 0.019466303 0.41600001 2.6754908e-39
0.019177565 0.019325923 0.41299999 2.0301213e-39
0.020598149 0.019325923 0.41299999 1.0761972e-42
0.021965394 0.01927913 0.412 1.3922975e-38
0.023269003 0.019185541 0.41 1.8620318e-38
0.024558855 0.019091953 0.40799999 1.3797353e-39
0.025962215 0.019091953 0.40799999 3.5873241e-43
0.016455118 0.018024366 0.41600001 2.9495595e-39
0.017885994 0.018024366 0.41600001 2.5832951e-39
0.019177565 0.017894384 0.41299999 2.2145126e-39
0.020548275 0.017851057 0.412 5.5499126e-40
0.021912079 0.01780773 0.41100001 3.1364689e-39
0.023269003 0.017764401 0.41 2.0921574e-38
0.024558855 0.017677745 0.40799999 1.7971314e-38
0.025962215 0.017677745 0.40799999 1.8546465e-40
0.013822099 0.016861441 0.42300001 2.1269861e-39
0.015277052 0.016861441 0.42300001 2.6754908e-39
0.016494673 0.016622271 0.417 2.3989039e-39
0.017928988 0.016622271 0.417 2.8595289e-39
0.019177565 0.016462825 0.41299999 2.2141595e-39
0.020548275 0.016422965 0.412 1.8457329e-39
0.021912079 0.016383102 0.41100001 7.3988559e-43
0.02321225 0.016303379 0.40900001 8.7614589e-39
0.024558855 0.016263517 0.40799999 1.8718587e-38
0.025962215 0.016263517 0.40799999 1.6685974e-38
0.013822099 0.015395219 0.42300001 3.3201245e-39
0.015277052 0.015395219 0.42300001 3.2261464e-39
0.016613338 0.015286032 0.41999999 2.9495595e-39
0.017928988 0.015176848 0.417 2.7676864e-39
0.019316871 0.015140451 0.41600001 2.5832951e-39
0.020548275 0.014994871 0.412 2.3989039e-39
0.021912079 0.014958477 0.41100001 2.2145126e-39
0.02321225 0.014885685 0.40900001 1.0789998e-42
0.024558855 0.014849289 0.40799999 2.0293829e-39
0.025898581 0.014812895 0.40700001 1.4194868e-38
0.027231427 0.014776499 0.40599999 1.5024628e-38
0.028627908 0.014776499 0.40599999 6.544721e-39
0.030024415 0.014776499 0.40599999 1.6584199e-39
0.03157568 0.014849289 0.40799999 1.0761972e-42
0.033059869 0.014885685 0.40900001 5.5460591e-40
0.013854776 0.013961948 0.42399999 3.8711347e-39
0.015277052 0.013929019 0.42300001 3.0442705e-39
0.016613338 0.013830231 0.41999999 2.4910967e-39
0.018014979 0.013797302 0.419 2.5836454e-39
0.019456174 0.013797302 0.419 2.6758411e-39
0.021912079 0.013533871 0.41100001 2.3067082e-39
0.02321225 0.013468012 0.40900001 1.4769504e-39
0.024558855 0.013435082 0.40799999 1.8202867e-42
0.025898581 0.013402154 0.40700001 1.2997025e-38
0.027231427 0.013369223 0.40599999 1.520972e-38
0.028627908 0.013369223 0.40599999 1.4751273e-38
0.030024415 0.013369223 0.40599999 1.4013708e-38
0.03157568 0.013435082 0.40799999 1.2355611e-38
0.033059869 0.013468012 0.40900001 1.3922937e-38
0.013854776 0.01249228 0.42399999 3.7807397e-39
0.015313168 0.01249228 0.42399999 2.8598792e-39
0.01669245 0.012433355 0.42199999 2.6754879e-39
0.018057974 0.012374429 0.41999999 2.4910995e-39
0.019502608 0.012374429 0.41999999 2.3989039e-39
0.020847522 0.012315503 0.41800001 2.3989039e-39
0.022285277 0.012315503 0.41800001 2.122317e-39
0.02321225 0.012050338 0.40900001 2.6704685e-39
0.024558855 0.012020875 0.40799999 1.0109472e-39
0.025898581 0.011991412 0.40700001 1.2908094e-38
0.027298501 0.011991412 0.40700001 1.5581768e-38
0.028698422 0.011991412 0.40700001 1.5213336e-38
0.030098367 0.011991412 0.40700001 1.5397727e-38
0.03157568 0.012020875 0.40799999 1.6133857e-38
0.033059869 0.012050338 0.40900001 1.6226053e-38
0.013854776 0.011022594 0.42399999 3.4119698e-39
0.015313168 0.011022594 0.42399999 3.318342e-39
0.01669245 0.0109706 0.42199999 3.1339508e-39
0.018100969 0.010944604 0.421 2.3989039e-39
0.019502608 0.010918606 0.41999999 2.0301213e-39
0.020847522 0.010866614 0.41800001 2.1223198e-39
0.022285277 0.010866614 0.41800001 1.9379285e-39
0.023269003 0.01065864 0.41 2.3956795e-39
0.02461905 0.010632644 0.40900001 2.8025969e-44
0.025898581 0.010580651 0.40700001 1.1894666e-38
0.027298501 0.010580651 0.40700001 1.5582491e-38
0.028698422 0.010580651 0.40700001 1.5396648e-38
0.030098367 0.010580651 0.40700001 1.5304452e-38
0.03157568 0.010606647 0.40799999 1.5672519e-38
0.033059869 0.010632644 0.40900001 1.5488127e-38
0.034550939 0.01065864 0.41 1.5028576e-38
0.015313168 0.0095529063 0.42399999 2.6758411e-39
0.01669245 0.0095078452 0.42199999 2.3070586e-39
0.018100969 0.0094853146 0.421 2.1223198e-39
0.019502608 0.009462784 0.41999999 2.0301241e-39
0.020897396 0.0094402535 0.419 2.3067082e-39
0.022338592 0.0094402535 0.419 2.0301213e-39
0.023269003 0.0092374803 0.41 2.5804211e-39
0.024679242 0.0092374803 0.41 1.8369341e-40
0.025962215 0.0091924192 0.40799999 1.401301e-38
0.027298501 0.0091698887 0.40700001 1.6871074e-38
0.028698422 0.0091698887 0.40700001 1.6226408e-38
0.030172318 0.0091924192 0.40799999 1.6871778e-38
0.03157568 0.0091924192 0.40799999 1.7330958e-38
0.033059869 0.0092149498 0.40900001 1.6962176e-38
0.034466669 0.0092149498 0.40900001 1.6870333e-38
0.015349285 0.0081023043 0.42500001 3.1339508e-39
0.016652895 0.0080260467 0.421 3.0417551e-39
0.018100969 0.0080260467 0.421 2.6754908e-39
0.019502608 0.0080069825 0.41999999 2.6754908e-39
0.020847522 0.0079688542 0.41800001 2.6754908e-39
0.02217865 0.0079307258 0.41600001 2.6754908e-39
0.023609526 0.0079307258 0.41600001 2.3067082e-39
0.02461905 0.0077972766 0.40900001 7.3938252e-40
0.025962215 0.007778212 0.40799999 8.8504301e-39
0.027365573 0.007778212 0.40799999 1.0141169e-38
0.028768932 0.007778212 0.40799999 8.9447614e-39
0.030172318 0.007778212 0.40799999 7.4696313e-39
0.03157568 0.007778212 0.40799999 7.0997445e-39
0.033059869 0.0077972766 0.40900001 7.3763314e-39
0.034382395 0.007778212 0.40799999 2.5954822e-39
0.035785757 0.007778212 0.40799999 1.0524306e-38
0.015421515 0.0066603459 0.42699999 2.9520748e-39
0.016652895 0.0065667578 0.421 3.0442705e-39
0.018100969 0.0065667578 0.421 3.0442705e-39
0.019363305 0.0065043662 0.417 2.8598792e-39
0.020797648 0.0065043662 0.417 2.582942e-39
0.022125334 0.0064731701 0.41499999 2.6751376e-39
0.023325758 0.0064107785 0.41100001 2.0301241e-39
0.02461905 0.0063795825 0.40900001 1.2925591e-39
0.025962215 0.0063639842 0.40799999 2.766023e-40
0.027365573 0.0063639842 0.40799999 9.2211044e-41
0.028768932 0.0063639842 0.40799999 1.8476681e-40
0.030172318 0.0063639842 0.40799999 4.613537e-40
0.03157568 0.0063639842 0.40799999 4.6242569e-40
0.033059869 0.0063795825 0.40900001 9.3643171e-41
0.034382395 0.0063639842 0.40799999 3.5873241e-43
0.035785757 0.0063639842 0.40799999 5.993432e-39
0.017928988 0.0050589629 0.417 3.0442705e-39
0.019363305 0.0050589629 0.417 2.8598792e-39
0.020747773 0.005046831 0.41600001 2.6754908e-39
0.022125334 0.0050346991 0.41499999 2.4910995e-39
0.023325758 0.0049861725 0.41100001 2.0301241e-39
0.024558855 0.0049497765 0.40799999 1.3847547e-39
0.025962215 0.0049497765 0.40799999 1.200711e-39
0.027365573 0.0049497765 0.40799999 1.200711e-39
0.028768932 0.0049497765 0.40799999 1.2929094e-39
0.030172318 0.0049497765 0.40799999 1.5694963e-39
0.03157568 0.0049497765 0.40799999 1.5694935e-39
0.032979038 0.0049497765 0.40799999 1.3851023e-39
0.034466669 0.0049619088 0.40900001 5.5462132e-40
0.018057974 0.0036395355 0.41999999 2.6758411e-39
0.019316871 0.0036048733 0.41600001 2.5836454e-39
0.020697897 0.0035962081 0.41499999 2.4910995e-39
0.022125334 0.0035962081 0.41499999 2.4910995e-39
0.023552772 0.0035962081 0.41499999 1.9379285e-39
0.024558855 0.0035355489 0.40799999 1.0159722e-39
0.025962215 0.0035355489 0.40799999 1.2929094e-39
0.027365573 0.0035355489 0.40799999 1.2929094e-39
0.028768932 0.0035355489 0.40799999 1.4772979e-39
0.030172318 0.0035355489 0.40799999 1.5694935e-39
0.03157568 0.0035355489 0.40799999 2.0279535e-39
0.032979038 0.0035355489 0.40799999 1.7513666e-39
0.015277052 0.002199311 0.42300001 3.504178e-39
0.016652895 0.0021889124 0.421 3.1353955e-39
0.018057974 0.002183713 0.41999999 2.3992542e-39
0.019316871 0.0021629159 0.41600001 2.3070586e-39
0.020697897 0.0021577165 0.41499999 2.4910995e-39
0.022125334 0.0021577165 0.41499999 2.3989039e-39
0.023552772 0.0021577165 0.41499999 1.8457329e-39
0.024558855 0.0021213214 0.40799999 1.2003635e-39
0.025962215 0.0021213214 0.40799999 1.200711e-39
0.027365573 0.0021213214 0.40799999 1.4772979e-39
0.028768932 0.0021213214 0.40799999 1.8435623e-39
0.030172318 0.0021213214 0.40799999 2.3045404e-39
0.03157568 0.0021213214 0.40799999 1.7538848e-39
0.032979038 0.0021213214 0.40799999 1.4772979e-39
0.015277052 0.00073311065 0.42300001 3.6871217e-39
0.016652895 0.00072964438 0.421 3.0417523e-39
0.018057974 0.00072791125 0.41999999 2.1223198e-39
0.019363305 0.00072271196 0.417 2.2145154e-39
0.020747773 0.00072097877 0.41600001 2.7676864e-39
0.022125334 0.0007192457 0.41499999 2.3989039e-39
0.023155496 0.00070711382 0.40799999 1.8457329e-39
0.024558855 0.00070711382 0.40799999 1.2925591e-39
0.025962215 0.00070711382 0.40799999 1.2925591e-39
0.027365573 0.00070711382 0.40799999 1.569146e-39
0.028768932 0.00070711382 0.40799999 1.9357579e-39
0.030172318 0.00070711382 0.40799999 2.3967361e-39
0.03157568 0.00070711382 0.40799999 1.8460804e-39
0.032979038 0.00070711382 0.40799999 1.5694935e-39
0.015277052 -0.00073311065 0.42300001 3.6871217e-39
0.016613338 -0.00072791125 0.41999999 2.6729698e-39
0.018014979 -0.00072617811 0.419 2.3067082e-39
0.019409738 -0.00072444504 0.41800001 2.2145126e-39
0.020797648 -0.00072271196 0.417 3.2261464e-39
0.02217865 -0.00072097877 0.41600001 1.8432119e-39
0.023155496 -0.00070711382 0.40799999 1.9350516e-39
0.024558855 -0.00070711382 0.40799999 6.4431283e-40
0.025962215 -0.00070711382 0.40799999 2.7697505e-40
0.027365573 -0.00070711382 0.40799999 1.8477942e-40
0.028768932 -0.00070711382 0.40799999 1.8476681e-40
0.030172318 -0.00070711382 0.40799999 4.613537e-40
0.03157568 -0.00070711382 0.40799999 9.2921502e-41
0.032979038 -0.00070711382 0.40799999 7.258726e-43
0.034466669 -0.00070884696 0.40900001 7.1886611e-43
0.015349285 -0.0022097097 0.42500001 4.6103981e-40
0.016613338 -0.002183713 0.41999999 5.8854536e-44
0.018014979 -0.0021785137 0.419 3.0828566e-44
0.019409738 -0.0021733146 0.41800001 9.1867726e-41
0.020797648 -0.0021681152 0.417 3.5873241e-43
0.021912079 -0.0021369194 0.41100001 7.1746481e-43
0.02321225 -0.0021265207 0.40900001 5.567527e-40
0.024558855 -0.0021213214 0.40799999 2.2162698e-39
0.025962215 -0.0021213214 0.40799999 4.0594566e-39
0.027365573 -0.0021213214 0.40799999 6.7331298e-39
0.028768932 -0.0021213214 0.40799999 7.102641e-39
0.030172318 -0.0021213214 0.40799999 8.1167929e-39
0.03157568 -0.0021213214 0.40799999 1.0142207e-38
0.032979038 -0.0021213214 0.40799999 1.0418794e-38
0.034466669 -0.0021265207 0.40900001 9.778122e-39
0.015349285 -0.0036828637 0.42500001 7.7494678e-39
0.016652895 -0.0036482012 0.421 1.0884119e-38
0.018014979 -0.00363087 0.419 1.3556017e-38
0.019409738 -0.0036222045 0.41800001 1.7243842e-38
0.020847522 -0.0036222045 0.41800001 1.8532391e-38
0.021912079 -0.0035615459 0.41100001 1.8532391e-38
0.02321225 -0.0035442146 0.40900001 1.779446e-38
0.02461905 -0.0035442146 0.40900001 1.7425677e-38
0.025962215 -0.0035355489 0.40799999 1.7701539e-38
0.027365573 -0.0035355489 0.40799999 1.7332756e-38
0.028768932 -0.0035355489 0.40799999 1.7423507e-38
0.030172318 -0.0035355489 0.40799999 1.7423507e-38
0.03157568 -0.0035355489 0.40799999 1.7886653e-38
0.032979038 -0.0035355489 0.40799999 1.8071044e-38
0.034466669 -0.0035442146 0.40900001 1.8531659e-38
0.015277052 -0.0051317327 0.42300001 2.0191549e-38
0.016652895 -0.0051074694 0.421 2.0929114e-38
0.018014979 -0.0050832056 0.419 2.2312421e-38
0.019409738 -0.0050710742 0.41800001 2.0284118e-38
0.020548275 -0.0049982835 0.412 1.9546543e-38
0.021965394 -0.0049982835 0.412 1.8440195e-38
0.023269003 -0.0049740202 0.41 1.8163252e-38
0.02461905 -0.0049618883 0.40900001 1.7425687e-38
0.025962215 -0.0049497564 0.40799999 1.7241286e-38
0.027365573 -0.0049497564 0.40799999 1.6688112e-38
0.028768932 -0.0049497564 0.40799999 1.6503718e-38
0.030172318 -0.0049497564 0.40799999 1.6227132e-38
0.03157568 -0.0049497564 0.40799999 1.7424959e-38
0.032979038 -0.0049497564 0.40799999 1.760935e-38
0.034466669 -0.0049618883 0.40900001 1.7609706e-38
0.015240936 -0.0065823556 0.42199999 2.0559623e-38
0.016652895 -0.0065667578 0.421 2.1850361e-38
0.018100969 -0.0065667578 0.421 2.1942913e-38
0.019223999 -0.0064575723 0.414 2.0467783e-38
0.020548275 -0.0064263763 0.412 1.8993013e-38
0.021965394 -0.0064263763 0.412 1.8071057e-38
0.023269003 -0.0063951802 0.41 1.7978138e-38
0.02461905 -0.0063795825 0.40900001 1.7056182e-38
0.025962215 -0.0063639842 0.40799999 1.6595198e-38
0.027365573 -0.0063639842 0.40799999 1.6687394e-38
0.028768932 -0.0063639842 0.40799999 1.6411163e-38
0.030172318 -0.0063639842 0.40799999 1.6226771e-38
0.03157568 -0.0063639842 0.40799999 1.6595901e-38
0.032979038 -0.0063639842 0.40799999 1.6872488e-38
0.034382395 -0.0063639842 0.40799999 1.7243084e-38
0.015240936 -0.0080450894 0.42199999 2.046743e-38
0.016652895 -0.0080260262 0.421 2.0928408e-38
0.017842997 -0.0079116412 0.41499999 2.0284105e-38
0.019223999 -0.007892577 0.414 2.0745083e-38
0.020598149 -0.0078735128 0.41299999 2.046777e-38
0.021912079 -0.0078353845 0.41100001 1.9084836e-38
0.023269003 -0.0078163203 0.41 2.0004268e-38
0.02461905 -0.0077972561 0.40900001 1.8805725e-38
0.025962215 -0.0077781915 0.40799999 1.7793378e-38
0.027365573 -0.0077781915 0.40799999 1.73324e-38
0.028768932 -0.0077781915 0.40799999 1.7978498e-38
0.030172318 -0.0077781915 0.40799999 1.8255085e-38
0.03157568 -0.0077781915 0.40799999 1.8163243e-38
0.032979038 -0.0077781915 0.40799999 1.7517873e-38
0.034382395 -0.0077781915 0.40799999 1.8163974e-38
0.015240936 -0.0095078452 0.42199999 2.1758159e-38
0.01669245 -0.0095078452 0.42199999 2.1204985e-38
0.017842997 -0.0093501322 0.41499999 2.00972e-38
0.019223999 -0.0093276026 0.414 1.7792309e-38
0.020548275 -0.0092825415 0.412 1.6039493e-38
0.021912079 -0.0092600109 0.41100001 1.4103385e-38
0.023269003 -0.0092374803 0.41 1.0049283e-38
0.02461905 -0.0092149498 0.40900001 7.0068272e-39
0.025962215 -0.0091924192 0.40799999 4.5107013e-39
0.027365573 -0.0091924192 0.40799999 3.8653417e-39
0.028768932 -0.0091924192 0.40799999 1.6577235e-39
0.030172318 -0.0091924192 0.40799999 1.1045497e-39
0.03157568 -0.0091924192 0.40799999 3.6841818e-40
0.032979038 -0.0091924192 0.40799999 9.1835496e-41
0.034382395 -0.0091924192 0.40799999 7.1886611e-43
0.017842997 -0.010788604 0.41499999 2.8025969e-45
0.019223999 -0.010762607 0.414 2.8025969e-45
0.020548275 -0.010710614 0.412 0
0.021912079 -0.010684618 0.41100001 0
0.023269003 -0.01065862 0.41 1.0818024e-42
0.02461905 -0.010632624 0.40900001 2.7766869e-40
0.025962215 -0.010606627 0.40799999 5.5317378e-40
0.027365573 -0.010606627 0.40799999 1.1063476e-39
0.028768932 -0.010606627 0.40799999 8.3158096e-40
0.030172318 -0.010606627 0.40799999 1.2925591e-39
0.03157568 -0.010606627 0.40799999 1.7513666e-39
0.032979038 -0.010606627 0.40799999 1.659171e-39
0.034382395 -0.010606627 0.40799999 2.8025969e-45
0.017842997 -0.012227095 0.41499999 3.1343011e-39
0.019223999 -0.012197632 0.414 3.0421055e-39
0.020548275 -0.012138707 0.412 2.9495595e-39
0.021912079 -0.012109244 0.41100001 2.4885814e-39
0.02321225 -0.012050318 0.40900001 1.8457329e-39
0.024558855 -0.012020854 0.40799999 1.2925591e-39
0.025962215 -0.012020854 0.40799999 9.2412411e-40
0.027365573 -0.012020854 0.40799999 1.5694935e-39
0.028768932 -0.012020854 0.40799999 1.7538848e-39
0.030172318 -0.012020854 0.40799999 2.0304717e-39
0.03157568 -0.012020854 0.40799999 2.3992542e-39
0.032979038 -0.012020854 0.40799999 2.0304717e-39
0.034382395 -0.012020854 0.40799999 8.3120821e-40
0.016455118 -0.013698515 0.41600001 4.2388508e-39
0.017885994 -0.013698515 0.41600001 3.5027305e-39
0.019270435 -0.013665586 0.41499999 3.133948e-39
0.020548275 -0.013566799 0.412 2.3989039e-39
0.021912079 -0.013533871 0.41100001 2.0301213e-39
0.02321225 -0.013468012 0.40900001 1.8457329e-39
0.024558855 -0.013435082 0.40799999 1.569146e-39
0.025962215 -0.013435082 0.40799999 1.659171e-39
0.027365573 -0.013435082 0.40799999 2.0279535e-39
0.028768932 -0.013435082 0.40799999 1.5694935e-39
0.030172318 -0.013435082 0.40799999 2.1226673e-39
0.03157568 -0.013435082 0.40799999 2.5836454e-39
0.032979038 -0.013435082 0.40799999 2.5836454e-39
0.034382395 -0.013435082 0.40799999 1.2003635e-39
0.016455118 -0.015140451 0.41600001 3.5977974e-39
0.017885994 -0.015140451 0.41600001 2.8598792e-39
0.019270435 -0.015104057 0.41499999 2.6754879e-39
0.020548275 -0.014994871 0.412 2.1223198e-39
0.021912079 -0.014958477 0.41100001 2.0301241e-39
0.02321225 -0.014885685 0.40900001 1.7535373e-39
0.024558855 -0.014849289 0.40799999 1.569146e-39
0.025962215 -0.014849289 0.40799999 1.200711e-39
0.027365573 -0.014849289 0.40799999 1.4772979e-39
0.028698422 -0.014812895 0.40700001 1.5694935e-39
0.030098367 -0.014812895 0.40700001 2.0304717e-39
0.03157568 -0.014849289 0.40799999 2.5836454e-39
0.032979038 -0.014849289 0.40799999 2.8602323e-39
0.016455118 -0.016582409 0.41600001 3.2311729e-39
0.017885994 -0.016582409 0.41600001 3.0442705e-39
0.019316871 -0.016582409 0.41600001 2.6754879e-39
0.020548275 -0.016422965 0.412 2.8573639e-39
0.021858765 -0.01634324 0.41 2.4885814e-39
0.02321225 -0.016303379 0.40900001 1.8457329e-39
0.024558855 -0.016263517 0.40799999 1.3847547e-39
0.025962215 -0.016263517 0.40799999 1.2925591e-39
0.027365573 -0.016263517 0.40799999 1.4769504e-39
0.028698422 -0.016223656 0.40700001 1.3851023e-39
0.030098367 -0.016223656 0.40700001 1.8460804e-39
0.031498287 -0.016223656 0.40700001 2.3992542e-39
0.032979038 -0.016263517 0.40799999 2.7680367e-39
0.016494673 -0.018067675 0.417 3.2286673e-39
0.017928988 -0.018067675 0.417 3.0442705e-39
0.019316871 -0.018024346 0.41600001 2.6754879e-39
0.020548275 -0.017851036 0.412 2.3067082e-39
0.021858765 -0.01776438 0.41 2.0301213e-39
0.02321225 -0.017721053 0.40900001 1.7535373e-39
0.024558855 -0.017677724 0.40799999 1.4769504e-39
0.025962215 -0.017677724 0.40799999 1.200711e-39
0.027298501 -0.017634397 0.40700001 1.4772979e-39
0.028698422 -0.017634397 0.40700001 1.2929094e-39
0.030098367 -0.017634397 0.40700001 1.5694963e-39
0.031498287 -0.017634397 0.40700001 2.2145154e-39
0.032898206 -0.017634397 0.40700001 2.6754936e-39
0.016494673 -0.019513099 0.417 1.5774249e-39
0.017928988 -0.019513099 0.417 2.8598792e-39
0.019363305 -0.019513099 0.417 2.4910967e-39
0.020598149 -0.019325923 0.41299999 2.2145154e-39
0.021912079 -0.019232336 0.41100001 2.0301241e-39
0.02321225 -0.019138748 0.40900001 1.8457329e-39
0.024558855 -0.019091953 0.40799999 1.569146e-39
0.025962215 -0.019091953 0.40799999 1.200711e-39
0.027298501 -0.019045159 0.40700001 1.5694935e-39
0.028698422 -0.019045159 0.40700001 1.5694935e-39
0.030098367 -0.019045159 0.40700001 1.7538848e-39
0.031498287 -0.019045159 0.40700001 2.1223198e-39
0.032898206 -0.019045159 0.40700001 2.6754936e-39
0.016534228 -0.021008762 0.41800001 2.0366234e-39
0.017928988 -0.020958502 0.417 3.5027305e-39
0.019363305 -0.020958502 0.417 3.0417523e-39
0.020548275 -0.020707201 0.412 2.3067082e-39
0.021912079 -0.020656941 0.41100001 2.122317e-39
0.02321225 -0.020556422 0.40900001 1.9379285e-39
0.024558855 -0.02050616 0.40799999 1.6613416e-39
0.025962215 -0.02050616 0.40799999 1.7513666e-39
0.027298501 -0.020455901 0.40700001 1.9357579e-39
0.028698422 -0.020455901 0.40700001 1.5694935e-39
0.030098367 -0.020455901 0.40700001 2.0304717e-39
0.031498287 -0.020455901 0.40700001 2.3067082e-39
0.032979038 -0.02050616 0.40799999 2.5832951e-39
0.016573783 -0.022511378 0.419 2.4933037e-39
0.017928988 -0.022403926 0.417 3.1364661e-39
0.019316871 -0.022350198 0.41600001 2.5832923e-39
0.020548275 -0.022135293 0.412 2.3067082e-39
0.021912079 -0.022081569 0.41100001 2.3067082e-39
0.02321225 -0.021974115 0.40900001 1.9379285e-39
0.02461905 -0.021974115 0.40900001 1.7535373e-39
0.025962215 -0.021920387 0.40799999 1.2929094e-39
0.027365573 -0.021920387 0.40799999 1.5694963e-39
0.028698422 -0.021866662 0.40700001 1.7538848e-39
0.030098367 -0.021866662 0.40700001 2.0304717e-39
0.031498287 -0.021866662 0.40700001 2.3992542e-39
0.032979038 -0.021920387 0.40799999 2.5836454e-39
0.034466669 -0.021974115 0.40900001 1.2925591e-39
0.035961177 -0.022027841 0.41 5.9023406e-39
0.016534228 -0.023906521 0.41800001 1.394505e-39
0.017928988 -0.023849329 0.417 3.6871217e-39
0.019316871 -0.023792136 0.41600001 3.133948e-39
0.020548275 -0.023563366 0.412 2.3989039e-39
0.021912079 -0.023506174 0.41100001 2.122317e-39
0.02321225 -0.023391789 0.40900001 2.0301241e-39
0.024558855 -0.023334594 0.40799999 1.7535373e-39
0.025962215 -0.023334594 0.40799999 1.3851023e-39
0.027365573 -0.023334594 0.40799999 1.5694935e-39
0.028768932 -0.023334594 0.40799999 1.7535373e-39
0.030098367 -0.023277404 0.40700001 1.569146e-39
0.031498287 -0.023277404 0.40700001 2.2148629e-39
0.032979038 -0.023334594 0.40799999 2.6758411e-39
0.034466669 -0.023391789 0.40900001 1.293257e-39
0.035961177 -0.023448981 0.41 4.7044953e-39
0.015096473 -0.025355412 0.41800001 6.6450274e-40
0.016534228 -0.025355412 0.41800001 1.7692794e-41
0.017928988 -0.025294753 0.417 3.6889196e-39
0.019316871 -0.025234094 0.41600001 3.0435502e-39
0.020548275 -0.024991458 0.412 2.3989039e-39
0.021912079 -0.024930801 0.41100001 2.122317e-39
0.02321225 -0.024809483 0.40900001 2.0301241e-39
0.024558855 -0.024748823 0.40799999 1.9379285e-39
0.025962215 -0.024748823 0.40799999 1.5694935e-39
0.027365573 -0.024748823 0.40799999 1.5694935e-39
0.028768932 -0.024748823 0.40799999 1.7535373e-39
0.030172318 -0.024748823 0.40799999 1.569146e-39
0.03157568 -0.024748823 0.40799999 1.6634996e-39
0.032979038 -0.024748823 0.40799999 2.2166734e-39
0.034382395 -0.024748823 0.40799999 1.200711e-39
0.035961177 -0.02487014 0.41 5.8104925e-39
0.015096473 -0.026804302 0.41800001 9.5894595e-39
0.016534228 -0.026804302 0.41800001 1.9372223e-39
0.019270435 -0.026611926 0.41499999 2.7669633e-39
0.020598149 -0.026483675 0.41299999 2.3067082e-39
0.021912079 -0.026355427 0.41100001 2.122317e-39
0.02321225 -0.026227176 0.40900001 1.9379285e-39
0.02461905 -0.026227176 0.40900001 1.8457329e-39
0.025962215 -0.026163051 0.40799999 1.6613416e-39
0.027365573 -0.026163051 0.40799999 1.569146e-39
0.028768932 -0.026163051 0.40799999 1.5694935e-39
0.030172318 -0.026163051 0.40799999 1.5694935e-39
0.03157568 -0.026163051 0.40799999 1.8457329e-39
0.032979038 -0.026163051 0.40799999 2.3989067e-39
0.034382395 -0.026163051 0.40799999 4.6279563e-40
0.035961177 -0.026291301 0.41 8.2072285e-39
0.019270435 -0.028050397 0.41499999 9.2914496e-41
0.020598149 -0.027915215 0.41299999 1.2925591e-39
0.021912079 -0.027780034 0.41100001 2.1223198e-39
0.023269003 -0.02771244 0.41 1.6613416e-39
0.02461905 -0.02764485 0.40900001 1.6613416e-39
0.025962215 -0.027577257 0.40799999 1.7513666e-39
0.027365573 -0.027577257 0.40799999 1.9357579e-39
0.028768932 -0.027577257 0.40799999 1.4776482e-39
0.030172318 -0.027577257 0.40799999 1.3854526e-39
0.03157568 -0.027577257 0.40799999 1.5694935e-39
0.032979038 -0.027577257 0.40799999 1.8460804e-39
0.034550939 -0.02771244 0.41 9.512014e-41
0.021965394 -0.029275717 0.412 1.572383e-39
0.023269003 -0.029133601 0.41 1.9379285e-39
0.024679242 -0.029133601 0.41 1.4769504e-39
0.026025848 -0.029062545 0.40900001 1.659171e-39
0.027432648 -0.029062545 0.40900001 1.659171e-39
0.028839447 -0.029062545 0.40900001 1.6595213e-39
0.030246273 -0.029062545 0.40900001 1.6595213e-39
0.031653073 -0.029062545 0.40900001 1.2907388e-39
0.0331407 -0.029133601 0.41 6.4536941e-40
0.034550939 -0.029133601 0.41 5.3466431e-39
0.023496017 -0.030852837 0.414 1.8457329e-39
0.024859821 -0.030778311 0.41299999 1.2003635e-39
0.026153114 -0.030629266 0.41100001 1.2903885e-39
0.027499719 -0.030554742 0.41 1.2903885e-39
0.028909957 -0.030554742 0.41 9.2340384e-40
0.030320222 -0.030554742 0.41 8.3120821e-40
0.031730462 -0.030554742 0.41 6.4716727e-40
0.033221532 -0.030629266 0.41100001 9.3993496e-41
0.034635209 -0.030629266 0.41100001 5.0725575e-39
0.036224306 -0.030778311 0.41299999 1.7518968e-38
0.037644863 -0.030778311 0.41299999 1.7149431e-38
0.023439264 -0.032209869 0.41299999 1.8457329e-39
0.024859821 -0.032209869 0.41299999 1.569146e-39
0.026216745 -0.032131881 0.412 1.2925591e-39
0.027566792 -0.032053892 0.41100001 1.2003635e-39
0.028980469 -0.032053892 0.41100001 1.200711e-39
0.030394176 -0.032053892 0.41100001 1.200711e-39
0.031807855 -0.032053892 0.41100001 1.200711e-39
0.033221532 -0.032053892 0.41100001 6.4753722e-40
0.034719478 -0.032131881 0.412 3.9644121e-39
0.036224306 -0.032209869 0.41299999 1.7332778e-38
0.037827164 -0.032365851 0.41499999 1.7149431e-38
0.039254598 -0.032365851 0.41499999 1.6872844e-38
0.023439264 -0.033641409 0.41299999 2.3967361e-39
0.024799628 -0.033559956 0.412 2.0279535e-39
0.026216745 -0.033559956 0.412 1.4772979e-39
0.027566792 -0.033478498 0.41100001 1.5694935e-39
0.028980469 -0.033478498 0.41100001 1.4772979e-39
0.030394176 -0.033478498 0.41100001 1.3851023e-39
0.031807855 -0.033478498 0.41100001 2.0279535e-39
0.033221532 -0.033478498 0.41100001 1.3825841e-39
0.034719478 -0.033559956 0.412 2.9499098e-39
0.036224306 -0.033641409 0.41299999 1.7055841e-38
0.037736014 -0.033722866 0.414 1.6872832e-38
0.039349191 -0.033885777 0.41600001 1.6780636e-38
0.040780094 -0.033885777 0.41600001 1.6872476e-38
0.023496017 -0.035157893 0.414 2.8573639e-39
0.024799628 -0.034988046 0.412 2.2119945e-39
0.026216745 -0.034988046 0.412 1.5694935e-39
0.027566792 -0.034903124 0.41100001 1.5694935e-39
0.028909957 -0.034818202 0.41 1.569146e-39
0.030320222 -0.034818202 0.41 1.6613416e-39
0.031730462 -0.034818202 0.41 1.7538848e-39
0.033221532 -0.034903124 0.41100001 1.200711e-39
0.034635209 -0.034903124 0.41100001 1.6613416e-39
0.036224306 -0.035072967 0.41299999 1.6504838e-38
0.037736014 -0.035157893 0.414 1.6780636e-38
0.039254598 -0.035242815 0.41499999 1.6780636e-38
0.040780094 -0.035327736 0.41600001 1.6780999e-38
0.04221097 -0.035327736 0.41600001 1.6688803e-38
0.02217865 -0.036769673 0.41600001 2.4896702e-39
0.023609526 -0.036769673 0.41600001 2.5804211e-39
0.024859821 -0.036504507 0.41299999 2.2116385e-39
0.026216745 -0.036416117 0.412 1.7535373e-39
0.027566792 -0.036327731 0.41100001 1.4769504e-39
0.028909957 -0.036239341 0.41 2.0272473e-39
0.030320222 -0.036239341 0.41 2.1194429e-39
0.031730462 -0.036239341 0.41 1.7535373e-39
0.0331407 -0.036239341 0.41 1.4769504e-39
0.034635209 -0.036327731 0.41100001 1.751717e-39
0.036224306 -0.036504507 0.41299999 1.6410822e-38
0.037736014 -0.036592897 0.414 1.6871037e-38
0.039160009 -0.036592897 0.414 1.7147623e-38
0.040780094 -0.036769673 0.41600001 1.678028e-38
0.022125334 -0.038119774 0.41499999 2.2134826e-39
0.023552772 -0.038119774 0.41499999 2.6726167e-39
0.024859821 -0.037936065 0.41299999 2.4882254e-39
0.026216745 -0.037844211 0.412 1.7535373e-39
0.027566792 -0.037752356 0.41100001 1.7535373e-39
0.028909957 -0.037660502 0.41 1.569146e-39
0.030320222 -0.037660502 0.41 1.6613416e-39
0.031730462 -0.037660502 0.41 1.7538848e-39
0.0331407 -0.037660502 0.41 2.0304717e-39
0.034635209 -0.037752356 0.41100001 1.1063476e-39
0.036136597 -0.037844211 0.412 1.5488866e-38
0.037644863 -0.037936065 0.41299999 1.7239469e-38
0.039160009 -0.038027924 0.414 1.7055077e-38
0.040780094 -0.038211629 0.41600001 1.6688084e-38
0.022125334 -0.039558265 0.41499999 1.9383531e-39
0.023552772 -0.039558265 0.41499999 2.8598792e-39
0.024859821 -0.039367624 0.41299999 1.9379229e-39
0.026216745 -0.039272305 0.412 1.8457329e-39
0.027566792 -0.039176986 0.41100001 1.6613416e-39
0.028909957 -0.039081663 0.41 1.5694935e-39
0.030320222 -0.039081663 0.41 1.5694935e-39
0.031730462 -0.039081663 0.41 1.7538848e-39
0.0331407 -0.039081663 0.41 1.8460804e-39
0.034550939 -0.039081663 0.41 1.0789998e-42
0.036136597 -0.039272305 0.412 1.4660184e-38
0.037553716 -0.039272305 0.412 1.659661e-38
0.039065421 -0.039367624 0.41299999 1.6412219e-38
0.02217865 -0.041095525 0.41600001 7.4448185e-40
0.023496017 -0.040897951 0.414 3.318342e-39
0.024859821 -0.040799163 0.41299999 2.6729726e-39
0.026216745 -0.040700376 0.412 1.9379285e-39
0.027633864 -0.040700376 0.412 1.6613416e-39
0.028909957 -0.040502802 0.41 1.5694935e-39
0.030320222 -0.040502802 0.41 1.4772979e-39
0.031730462 -0.040502802 0.41 1.5694935e-39
0.0331407 -0.040502802 0.41 1.6616891e-39
0.034550939 -0.040502802 0.41 2.8025969e-45
0.036136597 -0.040700376 0.412 1.8070706e-38
0.037553716 -0.040700376 0.412 1.7883784e-38
0.038970832 -0.040700376 0.412 1.5763285e-38
0.023496017 -0.042332977 0.414 3.4090901e-39
0.024799628 -0.04212847 0.412 2.948112e-39
0.026216745 -0.04212847 0.412 2.3960298e-39
0.027633864 -0.04212847 0.412 2.2116385e-39
0.028909957 -0.041923963 0.41 2.2123448e-39
0.030320222 -0.041923963 0.41 2.2123448e-39
0.031730462 -0.041923963 0.41 1.9379285e-39
0.0331407 -0.041923963 0.41 1.7535373e-39
0.034550939 -0.041923963 0.41 2.8025969e-45
0.035961177 -0.041923963 0.41 2.0375597e-38
0.037553716 -0.04212847 0.412 2.3417687e-38
0.038970832 -0.04212847 0.412 1.8162536e-38
0.024799628 -0.043556541 0.412 2.2145098e-39
0.026216745 -0.043556541 0.412 2.0301241e-39
0.027633864 -0.043556541 0.412 1.8457329e-39
0.028909957 -0.043345101 0.41 1.7535373e-39
0.030320222 -0.043345101 0.41 1.8457329e-39
0.031730462 -0.043345101 0.41 1.8457329e-39
0.0331407 -0.043345101 0.41 1.9379285e-39
0.034550939 -0.043345101 0.41 2.8025969e-45
0.035961177 -0.043345101 0.41 1.7609728e-38
0.037462566 -0.043450825 0.41100001 2.3417687e-38
0.038970832 -0.043556541 0.412 2.3417687e-38
0.024799628 -0.044984635 0.412 2.6729698e-39
0.026216745 -0.044984635 0.412 2.0301241e-39
0.027633864 -0.044984635 0.412 1.8457329e-39
0.028909957 -0.044766262 0.41 2.1194429e-39
0.030320222 -0.044766262 0.41 2.2116385e-39
0.031730462 -0.044766262 0.41 1.6613416e-39
0.0331407 -0.044766262 0.41 1.7535373e-39
0.034550939 -0.044766262 0.41 5.6051939e-45
0.035961177 -0.044766262 0.41 1.3737515e-38
0.037371416 -0.044766262 0.41 2.3418043e-38
0.038970832 -0.044984635 0.412 2.3233652e-38
0.024799628 -0.046412706 0.412 2.582942e-39
0.026216745 -0.046412706 0.412 2.1223198e-39
0.027633864 -0.046412706 0.412 2.0301241e-39
0.028980469 -0.046300057 0.41100001 1.938276e-39
0.030320222 -0.046187401 0.41 1.938276e-39
0.031730462 -0.046187401 0.41 1.938276e-39
0.0331407 -0.046187401 0.41 1.5694935e-39
0.034550939 -0.046187401 0.41 5.6051939e-45
0.035961177 -0.046187401 0.41 7.8369943e-39
0.037371416 -0.046187401 0.41 2.3326201e-38
0.038781654 -0.046187401 0.41 2.3326201e-38
0.024799628 -0.0478408 0.412 1.7531813e-39
0.026216745 -0.0478408 0.412 2.7805405e-40
0.027633864 -0.0478408 0.412 3.8675838e-43
0.028980469 -0.047724683 0.41100001 3.0828566e-44
0.030320222 -0.047608562 0.41 2.8025969e-44
0.031730462 -0.047608562 0.41 3.7134409e-43
0.0331407 -0.047608562 0.41 7.314778e-43
0.034550939 -0.047608562 0.41 1.9589732e-40
0.035961177 -0.047608562 0.41 5.9120264e-39
0.037371416 -0.047608562 0.41 2.3418028e-38
0.038781654 -0.047608562 0.41 2.3509865e-38
0.040191919 -0.047608562 0.41 2.3233652e-38
0.026280379 -0.049388453 0.41299999 4.1606625e-39
0.027633864 -0.049268872 0.412 9.1392265e-39
0.028980469 -0.04914929 0.41100001 1.2725893e-38
0.030320222 -0.0490297 0.41 1.364785e-38
0.031730462 -0.0490297 0.41 1.5217677e-38
0.033059869 -0.048910119 0.40900001 1.6877198e-38
0.034466669 -0.048910119 0.40900001 1.7979933e-38
0.035961177 -0.0490297 0.41 1.8440911e-38
0.037371416 -0.0490297 0.41 2.2403523e-38
0.038781654 -0.0490297 0.41 2.350987e-38
0.040191919 -0.0490297 0.41 2.3233652e-38
0.026280379 -0.050820012 0.41299999 1.8993732e-38
0.027633864 -0.050696965 0.412 1.9546906e-38
0.028909957 -0.050450861 0.41 1.9085928e-38
0.030320222 -0.050450861 0.41 1.8624949e-38
0.031653073 -0.050327811 0.40900001 1.8255441e-38
0.033059869 -0.050327811 0.40900001 1.7610072e-38
0.034466669 -0.050327811 0.40900001 1.7887019e-38
0.035873469 -0.050327811 0.40900001 1.8347997e-38
0.037371416 -0.050450861 0.41 2.1205696e-38
0.038781654 -0.050450861 0.41 2.3418032e-38
0.040191919 -0.050450861 0.41 2.3233652e-38
0.027566792 -0.051998541 0.41100001 1.8439476e-38
0.028909957 -0.051872022 0.41 1.8255801e-38
0.030246273 -0.051745508 0.40900001 1.7702627e-38
0.031653073 -0.051745508 0.40900001 1.7702267e-38
0.032979038 -0.051618986 0.40799999 1.7517876e-38
0.034382395 -0.051618986 0.40799999 1.7517873e-38
0.035873469 -0.051745508 0.40900001 1.8532025e-38
0.037280269 -0.051745508 0.40900001 2.0006426e-38
0.038781654 -0.051872022 0.41 2.3509862e-38
0.040191919 -0.051872022 0.41 2.3141453e-38
0.026216745 -0.05355313 0.412 1.8623858e-38
0.027566792 -0.053423148 0.41100001 1.8716053e-38
0.028909957 -0.053293161 0.41 1.8624223e-38
0.030246273 -0.053163182 0.40900001 1.8808615e-38
0.03157568 -0.053033195 0.40799999 1.8162511e-38
0.032979038 -0.053033195 0.40799999 1.8254707e-38
0.034382395 -0.053033195 0.40799999 1.8716416e-38
0.035873469 -0.053163182 0.40900001 2.0191546e-38
0.037280269 -0.053163182 0.40900001 2.0651077e-38
0.038781654 -0.053293161 0.41 2.3509502e-38
0.040191919 -0.053293161 0.41 2.3326201e-38
0.026216745 -0.054981221 0.412 1.8624218e-38
