# .PCD v0.7 - Point Cloud Data file format
VERSION 0.7
FIELDS x y z rgb
SIZE 4 4 4 4
TYPE F F F F
COUNT 1 1 1 1
WIDTH 991
HEIGHT 1
VIEWPOINT 0 0 0 1 0 0 0
POINTS 991
DATA ascii
0.015607249 0.010695043 0.36300001 1.3276877e-38
0.016855827 0.010695043 0.36300001 1.2262725e-38
0.018104427 0.010695043 0.36300001 1.0598497e-38
0.020034043 0.010400413 0.35299999 9.2911693e-41
0.021248223 0.010400413 0.35299999 7.1746481e-43
0.022335142 0.010341488 0.35100001 3.5873241e-43
0.023542443 0.010341488 0.35100001 9.2911693e-41
0.024679231 0.010312025 0.34999999 4.6279563e-40
0.025883116 0.010312025 0.34999999 4.6279563e-40
0.027086979 0.010312025 0.34999999 1.2903885e-39
0.02829084 0.010312025 0.34999999 1.2903885e-39
0.029578974 0.010341488 0.35100001 1.4747798e-39
0.015607249 0.0094367964 0.36300001 1.68718e-38
0.016855827 0.0094367964 0.36300001 1.6318626e-38
0.018104427 0.0094367964 0.36300001 1.7057626e-38
0.018873177 0.0092028258 0.354 1.7242018e-38
0.020090798 0.0092028258 0.354 1.6410797e-38
0.021308418 0.0092028258 0.354 1.4751276e-38
0.022335142 0.009124836 0.35100001 1.2070765e-38
0.023542443 0.009124836 0.35100001 5.6170713e-39
0.024679231 0.0090988399 0.34999999 2.755205e-40
0.025883116 0.0090988399 0.34999999 1.0130855e-39
0.027086979 0.0090988399 0.34999999 1.2903885e-39
0.02829084 0.0090988399 0.34999999 1.1059972e-39
0.029494703 0.0090988399 0.34999999 1.1981929e-39
0.015607249 0.0081785498 0.36300001 1.6779968e-38
0.016809391 0.0081560183 0.36199999 1.7056554e-38
0.018054551 0.0081560183 0.36199999 1.7978874e-38
0.018873177 0.0079757748 0.354 1.7241309e-38
0.020090798 0.0079757748 0.354 1.6134235e-38
0.021248223 0.0079532443 0.35299999 1.6318626e-38
0.022398774 0.0079307146 0.352 1.6963277e-38
0.023542443 0.0079081841 0.35100001 1.4842778e-38
0.024679231 0.0078856545 0.34999999 4.7019771e-39
0.025883116 0.0078856545 0.34999999 1.0141519e-39
0.027086979 0.0078856545 0.34999999 1.2903885e-39
0.02829084 0.0078856545 0.34999999 1.1059972e-39
0.029494703 0.0078856545 0.34999999 1.1060098e-39
0.030961694 0.0079532443 0.35299999 1.2904011e-39
0.015607249 0.0069203209 0.36300001 1.7149103e-38
0.016762955 0.0068821921 0.361 1.7149103e-38
0.018004676 0.0068821921 0.361 1.8532038e-38
0.020090798 0.0067487424 0.354 1.6964359e-38
0.021248223 0.0067296778 0.35299999 1.714875e-38
0.022335142 0.0066915499 0.35100001 1.5581059e-38
0.023542443 0.0066915499 0.35100001 1.1247864e-38
0.024749745 0.0066915499 0.35100001 3.5873241e-43
0.025883116 0.0066724857 0.34999999 1.3836505e-39
0.027086979 0.0066724857 0.34999999 1.1981929e-39
0.028371673 0.0066915499 0.35100001 1.1981929e-39
0.029578974 0.0066915499 0.35100001 1.1059972e-39
0.030961694 0.0067296778 0.35299999 1.2903885e-39
0.016762955 0.0056308778 0.361 1.8162539e-38
0.017954804 0.0056152805 0.36000001 1.8254735e-38
0.019193063 0.0056152805 0.36000001 1.7424974e-38
0.021248223 0.0055060936 0.35299999 1.6503383e-38
0.022335142 0.005474898 0.35100001 1.5949834e-38
0.023542443 0.005474898 0.35100001 1.0049314e-38
0.024749745 0.005474898 0.35100001 2.7550649e-40
0.02595707 0.005474898 0.35100001 1.6584395e-39
0.027164372 0.005474898 0.35100001 1.0155995e-39
0.028371673 0.005474898 0.35100001 8.3120821e-40
0.029663244 0.0054904958 0.352 1.1059972e-39
0.030961694 0.0055060936 0.35299999 1.3825841e-39
0.014319115 0.0043917135 0.36199999 4.4232771e-39
0.015521258 0.0043795817 0.361 5.7219094e-39
0.016762955 0.0043795817 0.361 1.0055104e-38
0.017954804 0.0043674503 0.36000001 1.5496094e-38
0.019193063 0.0043674503 0.36000001 1.6971224e-38
0.021188032 0.0042703953 0.352 1.6593068e-38
0.022335142 0.0042582639 0.35100001 1.5764008e-38
0.023542443 0.0042582639 0.35100001 7.4664013e-39
0.024749745 0.0042582639 0.35100001 2.7586802e-40
0.02595707 0.0042582639 0.35100001 1.4744112e-39
0.027164372 0.0042582639 0.35100001 1.2903885e-39
0.029747512 0.0042825271 0.35299999 9.2340384e-40
0.030961694 0.0042825271 0.35299999 9.2340384e-40
0.014319115 0.0031369331 0.36199999 1.0163197e-39
0.015521258 0.0031282676 0.361 3.69521e-40
0.016716523 0.0031196021 0.36000001 1.821688e-44
0.017904928 0.0031109364 0.359 6.4722893e-40
0.019139748 0.0031109364 0.359 4.2428585e-39
0.021188032 0.0030502775 0.352 1.096987e-38
0.022335142 0.003041612 0.35100001 1.2535369e-38
0.023542443 0.003041612 0.35100001 4.6987401e-39
0.024749745 0.003041612 0.35100001 1.8727513e-40
0.02595707 0.003041612 0.35100001 7.4044891e-40
0.027164372 0.003041612 0.35100001 1.1982055e-39
0.014358672 0.0018873521 0.36300001 1.8457301e-39
0.015521258 0.0018769534 0.361 1.4769504e-39
0.016716523 0.0018717542 0.36000001 1.2925591e-39
0.017904928 0.0018665547 0.359 1.0159722e-39
0.019139748 0.0018665547 0.359 6.471897e-40
0.021188032 0.0018301595 0.352 1.1210388e-44
0.022398774 0.0018301595 0.352 0
0.023609515 0.0018301595 0.352 2.7658689e-40
0.024749745 0.0018249602 0.35100001 1.1063476e-39
0.02595707 0.0018249602 0.35100001 1.2907388e-39
0.027241763 0.0018301595 0.352 1.0159722e-39
0.011926871 0.00063258957 0.36500001 2.8598792e-39
0.013182327 0.00063258957 0.36500001 2.2145154e-39
0.014358672 0.00062912336 0.36300001 1.6613416e-39
0.015521258 0.00062565709 0.361 1.3847547e-39
0.016716523 0.00062392396 0.36000001 1.2925591e-39
0.017904928 0.00062219083 0.359 1.569146e-39
0.019139748 0.00062219083 0.359 1.6613416e-39
0.020374566 0.00062219083 0.359 1.2925591e-39
0.021188032 0.00061005895 0.352 9.2377659e-40
0.022398774 0.00061005895 0.352 1.1059972e-39
0.023609515 0.00061005895 0.352 1.1981929e-39
0.024749745 0.00060832588 0.35100001 1.1981929e-39
0.02595707 0.00060832588 0.35100001 1.1059972e-39
0.027241763 0.00061005895 0.352 1.3818779e-39
0.028533332 0.00061179203 0.35299999 1.3818779e-39
0.011926871 -0.00063258957 0.36500001 2.8598792e-39
0.013182327 -0.00063258957 0.36500001 2.2145154e-39
0.014358672 -0.00062912336 0.36300001 1.7535373e-39
0.015521258 -0.00062565709 0.361 1.3847547e-39
0.016716523 -0.00062392396 0.36000001 1.4769504e-39
0.017904928 -0.00062219083 0.359 2.0272473e-39
0.019139748 -0.00062219083 0.359 2.0272473e-39
0.01997729 -0.00061005895 0.352 1.2925591e-39
0.021188032 -0.00061005895 0.352 9.2377659e-40
0.022398774 -0.00061005895 0.352 1.1059972e-39
0.023609515 -0.00061005895 0.352 1.1059972e-39
0.024820257 -0.00061005895 0.352 8.3158096e-40
0.026031021 -0.00061005895 0.352 9.2377659e-40
0.027319152 -0.00061179203 0.35299999 1.7506604e-39
0.028533332 -0.00061179203 0.35299999 1.3818779e-39
0.029831786 -0.00061352522 0.354 1.1059972e-39
0.014240006 -0.0018717542 0.36000001 1.3840457e-39
0.015478265 -0.0018717542 0.36000001 1.2925591e-39
0.016716523 -0.0018717542 0.36000001 1.3847547e-39
0.017904928 -0.0018665547 0.359 1.6613416e-39
0.019139748 -0.0018665547 0.359 1.569146e-39
0.01997729 -0.0018301595 0.352 1.2929094e-39
0.021188032 -0.0018301595 0.352 9.2412691e-40
0.022398774 -0.0018301595 0.352 1.1059972e-39
0.023609515 -0.0018301595 0.352 1.1981929e-39
0.024820257 -0.0018301595 0.352 9.2377659e-40
0.026031021 -0.0018301595 0.352 9.2377659e-40
0.027319152 -0.0018353587 0.35299999 1.2003635e-39
0.028533332 -0.0018353587 0.35299999 9.2377659e-40
0.029831786 -0.0018405581 0.354 1.1059972e-39
0.014240006 -0.0031196021 0.36000001 1.4762413e-39
0.015478265 -0.0031196021 0.36000001 1.2925591e-39
0.016716523 -0.0031196021 0.36000001 1.569146e-39
0.017904928 -0.0031109364 0.359 1.8457329e-39
0.019139748 -0.0031109364 0.359 1.8457329e-39
0.01997729 -0.0030502775 0.352 1.4772979e-39
0.021188032 -0.0030502775 0.352 9.2412411e-40
0.022398774 -0.0030502775 0.352 8.3120821e-40
0.023609515 -0.0030502775 0.352 1.0155995e-39
0.024820257 -0.0030502775 0.352 9.2412411e-40
0.026031021 -0.0030502775 0.352 9.2412411e-40
0.027396545 -0.0030676085 0.354 1.2925591e-39
0.028614165 -0.0030676085 0.354 1.0159722e-39
0.029831786 -0.0030676085 0.354 9.2412411e-40
0.014240006 -0.0043674321 0.36000001 1.0761972e-42
0.015478265 -0.0043674321 0.36000001 2.7661492e-40
0.016670087 -0.0043553002 0.359 2.0283319e-39
0.017904928 -0.0043553002 0.359 2.4882254e-39
0.018979806 -0.0043189051 0.35600001 2.3038342e-39
0.020090798 -0.0042946413 0.354 1.3847547e-39
0.021308418 -0.0042946413 0.354 9.2377659e-40
0.022462405 -0.0042825094 0.35299999 1.0138114e-39
0.023676585 -0.0042825094 0.35299999 1.1982027e-39
0.024890766 -0.0042825094 0.35299999 1.2904011e-39
0.02610497 -0.0042825094 0.35299999 1.3825967e-39
0.027396545 -0.0042946413 0.354 1.6581172e-39
0.028614165 -0.0042946413 0.354 1.473726e-39
0.029831786 -0.0042946413 0.354 1.0159722e-39
0.014240006 -0.0056152805 0.36000001 8.6594976e-39
0.015478265 -0.0056152805 0.36000001 2.8573204e-39
0.016623652 -0.005584084 0.35800001 3.6805945e-40
0.01780518 -0.0055684857 0.35699999 3.5873241e-43
0.018979806 -0.0055528879 0.35600001 3.5873241e-43
0.020090798 -0.0055216919 0.354 3.5873241e-43
0.021308418 -0.0055216919 0.354 7.1746481e-43
0.022462405 -0.0055060936 0.35299999 1.8440387e-40
0.023676585 -0.0055060936 0.35299999 2.765995e-40
0.024890766 -0.0055060936 0.35299999 3.6842939e-40
0.026178924 -0.0055216919 0.354 4.6062502e-40
0.027396545 -0.0055216919 0.354 7.3938533e-40
0.028614165 -0.0055216919 0.354 1.8621155e-40
0.016623652 -0.0068249819 0.35800001 1.7056189e-38
0.017755305 -0.0067868535 0.35600001 1.5488137e-38
0.018979806 -0.0067868535 0.35600001 1.226129e-38
0.020147551 -0.0067677889 0.35499999 8.9429607e-39
0.021248223 -0.0067296601 0.35299999 6.5458743e-39
0.022462405 -0.0067296601 0.35299999 4.4246055e-39
0.023676585 -0.0067296601 0.35299999 4.7933824e-39
0.02496128 -0.0067487247 0.354 4.4274964e-39
0.026178924 -0.0067487247 0.354 1.7538427e-39
0.027396545 -0.0067487247 0.354 2.5836006e-39
0.028694995 -0.0067677889 0.35499999 4.4275132e-39
0.030000327 -0.0067868535 0.35600001 4.0590698e-39
0.017755305 -0.0080208359 0.35600001 1.6688488e-38
0.01892649 -0.0079983054 0.35499999 1.6965075e-38
0.020090798 -0.0079757748 0.354 1.6872519e-38
0.021248223 -0.0079532443 0.35299999 1.6134954e-38
0.022462405 -0.0079532443 0.35299999 1.5028213e-38
0.023676585 -0.0079532443 0.35299999 1.5396995e-38
0.02496128 -0.0079757748 0.354 1.5579597e-38
0.026178924 -0.0079757748 0.354 1.530301e-38
0.027396545 -0.0079757748 0.354 1.5304449e-38
0.028694995 -0.0079983054 0.35499999 1.5304449e-38
0.030000327 -0.0080208359 0.35600001 1.5026776e-38
0.031224828 -0.0080208359 0.35600001 1.4842385e-38
0.017755305 -0.009254802 0.35600001 1.6964712e-38
0.01892649 -0.0092288041 0.35499999 1.6964712e-38
0.020090798 -0.0092028081 0.354 1.6410822e-38
0.021248223 -0.0091768112 0.35299999 1.5765453e-38
0.022462405 -0.0091768112 0.35299999 1.4843118e-38
0.023676585 -0.0091768112 0.35299999 1.5211901e-38
0.02496128 -0.0092028081 0.354 1.5303733e-38
0.026178924 -0.0092028081 0.354 1.5303733e-38
0.027473936 -0.0092288041 0.35499999 1.5672175e-38
0.028775828 -0.009254802 0.35600001 1.5119001e-38
0.030000327 -0.009254802 0.35600001 1.4475405e-38
0.031224828 -0.009254802 0.35600001 1.45676e-38
0.017705431 -0.010459321 0.35499999 1.6503371e-38
0.01892649 -0.010459321 0.35499999 1.6687762e-38
0.020090798 -0.010429858 0.354 1.6410819e-38
0.021248223 -0.010400395 0.35299999 1.5581059e-38
0.022462405 -0.010400395 0.35299999 1.4844197e-38
0.023676585 -0.010400395 0.35299999 1.4936393e-38
0.02496128 -0.010429858 0.354 1.4936033e-38
0.026178924 -0.010429858 0.354 1.4843837e-38
0.027473936 -0.010459321 0.35499999 1.6317185e-38
0.028775828 -0.010488785 0.35600001 1.5395228e-38
0.030000327 -0.010488785 0.35600001 1.4566165e-38
0.031224828 -0.010488785 0.35600001 1.38286e-38
0.017705431 -0.011689838 0.35499999 1.7977432e-38
0.01892649 -0.011689838 0.35499999 1.7700845e-38
0.020090798 -0.011656909 0.354 1.6687762e-38
0.021248223 -0.01162398 0.35299999 1.5120436e-38
0.022462405 -0.01162398 0.35299999 1.4565442e-38
0.023676585 -0.01162398 0.35299999 1.4749834e-38
0.02496128 -0.011656909 0.354 1.456726e-38
0.026178924 -0.011656909 0.354 1.4659455e-38
0.027473936 -0.011689838 0.35499999 1.4936033e-38
0.028775828 -0.011722768 0.35600001 1.4382859e-38
0.030084595 -0.011755696 0.35699999 1.4473603e-38
0.016530784 -0.012956733 0.35600001 5.2570104e-39
0.017755305 -0.012956733 0.35600001 8.9455068e-39
0.01892649 -0.012920337 0.35499999 1.2356745e-38
0.020034043 -0.012847546 0.35299999 1.5303756e-38
0.021248223 -0.012847546 0.35299999 1.5580343e-38
0.022462405 -0.012847546 0.35299999 1.392153e-38
0.023676585 -0.012847546 0.35299999 1.4659095e-38
0.02496128 -0.012883942 0.354 1.5581064e-38
0.026178924 -0.012883942 0.354 1.6042042e-38
0.027473936 -0.012920337 0.35499999 1.7054377e-38
0.028856657 -0.012993128 0.35699999 1.5487051e-38
0.016484348 -0.014150853 0.35499999 7.3650846e-40
0.017705431 -0.014150853 0.35499999 7.314778e-43
0.018873177 -0.014110993 0.354 3.7134409e-43
0.020034043 -0.01407113 0.35299999 1.2611686e-44
0.021248223 -0.01407113 0.35299999 1.1210388e-44
0.022462405 -0.01407113 0.35299999 5.6051939e-45
0.023743659 -0.014110993 0.354 3.657389e-43
0.02496128 -0.014110993 0.354 3.685415e-43
0.026178924 -0.014110993 0.354 3.685415e-43
0.027473936 -0.014150853 0.35499999 8.3120821e-40
0.028856657 -0.014230576 0.35699999 1.0874076e-42
0.016484348 -0.015381352 0.35499999 1.7535373e-39
0.017705431 -0.015381352 0.35499999 1.4769504e-39
0.018873177 -0.015338025 0.354 1.3847547e-39
0.020034043 -0.015294696 0.35299999 1.1060098e-39
0.021248223 -0.015294696 0.35299999 7.3722733e-40
0.022462405 -0.015294696 0.35299999 7.3938533e-40
0.023743659 -0.015338025 0.354 7.3938533e-40
0.02496128 -0.015338025 0.354 9.2160597e-40
0.026178924 -0.015338025 0.354 1.3825841e-39
0.027396545 -0.015338025 0.354 2.0254494e-39
0.028694995 -0.015381352 0.35499999 1.6566669e-39
0.030000327 -0.015424681 0.35600001 1.1982055e-39
0.031312536 -0.015468008 0.35699999 1.1060098e-39
0.016484348 -0.016611869 0.35499999 1.3840485e-39
0.017655557 -0.016565075 0.354 1.3847547e-39
0.018873177 -0.016565075 0.354 1.2003635e-39
0.020034043 -0.01651828 0.35299999 1.0159722e-39
0.021248223 -0.01651828 0.35299999 7.3938533e-40
0.022462405 -0.01651828 0.35299999 1.3818779e-39
0.023743659 -0.016565075 0.354 1.2896822e-39
0.02496128 -0.016565075 0.354 1.2903885e-39
0.026178924 -0.016565075 0.354 1.7513666e-39
0.027396545 -0.016565075 0.354 2.0272473e-39
0.028694995 -0.016611869 0.35499999 1.9350516e-39
0.029916056 -0.016611869 0.35499999 8.3158096e-40
0.031312536 -0.016705457 0.35699999 3.7060281e-40
0.014160894 -0.01799315 0.35800001 2.4882254e-39
0.015306283 -0.017892629 0.35600001 1.7535373e-39
0.016484348 -0.017842367 0.35499999 1.4769504e-39
0.017655557 -0.017792109 0.354 1.2925591e-39
0.018873177 -0.017792109 0.354 1.2003635e-39
0.020034043 -0.017741848 0.35299999 1.2903885e-39
0.021248223 -0.017741848 0.35299999 1.1059972e-39
0.022462405 -0.017741848 0.35299999 1.0159722e-39
0.023743659 -0.017792109 0.354 1.0159722e-39
0.02496128 -0.017792109 0.354 1.2904011e-39
0.026178924 -0.017792109 0.354 1.6591836e-39
0.027473936 -0.017842367 0.35499999 2.3045404e-39
0.028694995 -0.017842367 0.35499999 2.4889317e-39
0.029916056 -0.017842367 0.35499999 1.3851023e-39
0.014121338 -0.019180339 0.35699999 2.3038342e-39
0.015306283 -0.019126613 0.35600001 1.569146e-39
0.016484348 -0.019072885 0.35499999 1.2925591e-39
0.017655557 -0.019019159 0.354 1.200711e-39
0.018873177 -0.019019159 0.354 1.200711e-39
0.020090798 -0.019019159 0.354 1.3825841e-39
0.021248223 -0.018965432 0.35299999 1.1981929e-39
0.022462405 -0.018965432 0.35299999 1.3825841e-39
0.023743659 -0.019019159 0.354 1.4747798e-39
0.02496128 -0.019019159 0.354 1.3825841e-39
0.026252875 -0.019072885 0.35499999 1.4747798e-39
0.027473936 -0.019072885 0.35499999 1.5694935e-39
0.028694995 -0.019072885 0.35499999 1.938276e-39
0.029916056 -0.019072885 0.35499999 2.0301241e-39
0.012929515 -0.020474963 0.35800001 1.9379285e-39
0.014121338 -0.02041777 0.35699999 1.7535373e-39
0.015349277 -0.02041777 0.35699999 1.4769504e-39
0.016484348 -0.020303383 0.35499999 1.2925591e-39
0.017655557 -0.020246193 0.354 1.2925591e-39
0.018873177 -0.020246193 0.354 1.0159722e-39
0.020090798 -0.020246193 0.354 1.2903885e-39
0.021248223 -0.020188998 0.35299999 1.1981929e-39
0.022462405 -0.020188998 0.35299999 1.4740735e-39
0.023743659 -0.020246193 0.354 1.4740735e-39
0.02496128 -0.020246193 0.354 1.3825841e-39
0.026252875 -0.020303383 0.35499999 1.2903885e-39
0.027473936 -0.020303383 0.35499999 1.3851023e-39
0.028775828 -0.020360578 0.35600001 1.7538848e-39
0.030000327 -0.020360578 0.35600001 2.5804211e-39
0.011698136 -0.021715879 0.35800001 2.1223142e-39
0.012929515 -0.021715879 0.35800001 1.8457329e-39
0.014121338 -0.021655219 0.35699999 1.569146e-39
0.015349277 -0.021655219 0.35699999 1.2925591e-39
0.016484348 -0.021533901 0.35499999 1.2925591e-39
0.017705431 -0.021533901 0.35499999 1.2925591e-39
0.018873177 -0.021473242 0.354 1.2003635e-39
0.020090798 -0.021473242 0.354 1.3825841e-39
0.021248223 -0.021412583 0.35299999 1.3825841e-39
0.022462405 -0.021412583 0.35299999 1.2925591e-39
0.023743659 -0.021473242 0.354 1.0159722e-39
0.02496128 -0.021473242 0.354 1.0163197e-39
0.026178924 -0.021473242 0.354 8.3192848e-40
0.027473936 -0.021533901 0.35499999 1.5669754e-39
0.028775828 -0.02159456 0.35600001 2.0279535e-39
0.01061294 -0.023277421 0.36300001 2.1219666e-39
0.011698136 -0.022956794 0.35800001 2.029771e-39
0.012929515 -0.022956794 0.35800001 1.6613416e-39
0.014121338 -0.022892667 0.35699999 1.569146e-39
0.015349277 -0.022892667 0.35699999 1.2925591e-39
0.016484348 -0.022764416 0.35499999 1.3847547e-39
0.017705431 -0.022764416 0.35499999 1.2925591e-39
0.018873177 -0.022700293 0.354 1.0159722e-39
0.020090798 -0.022700293 0.354 9.2412411e-40
0.021248223 -0.022636166 0.35299999 1.0163197e-39
0.022462405 -0.022636166 0.35299999 1.5669754e-39
0.023743659 -0.022700293 0.354 1.7513666e-39
0.02496128 -0.022700293 0.354 1.3818779e-39
0.026178924 -0.022700293 0.354 1.2896822e-39
0.027551329 -0.022828544 0.35600001 1.3825841e-39
0.0093643395 -0.024535649 0.36300001 4.5989495e-40
0.010583703 -0.024468055 0.36199999 1.5702502e-39
0.011796164 -0.024400465 0.361 1.6624458e-39
0.013001747 -0.024332875 0.36000001 1.7535373e-39
0.014121338 -0.024130099 0.35699999 1.3847547e-39
0.015349277 -0.024130099 0.35699999 1.4769504e-39
0.016530784 -0.024062509 0.35600001 1.3847547e-39
0.017705431 -0.023994917 0.35499999 1.2929094e-39
0.018873177 -0.023927325 0.354 1.0163225e-39
0.020034043 -0.023859734 0.35299999 8.3120821e-40
0.021248223 -0.023859734 0.35299999 1.0155995e-39
0.022462405 -0.023859734 0.35299999 1.2003635e-39
0.023676585 -0.023859734 0.35299999 1.2925591e-39
0.02496128 -0.023927325 0.354 1.200711e-39
0.026252875 -0.023994917 0.35499999 1.0163197e-39
0.027551329 -0.024062509 0.35600001 1.2903885e-39
0.0093643395 -0.025793895 0.36300001 2.7730015e-40
0.010583703 -0.025722837 0.36199999 2.4889667e-39
0.011763489 -0.025580723 0.36000001 2.2123798e-39
0.013001747 -0.025580723 0.36000001 1.7535373e-39
0.014160894 -0.025438607 0.35800001 1.7535373e-39
0.015349277 -0.025367549 0.35699999 1.569146e-39
0.016530784 -0.025296493 0.35600001 1.4769504e-39
0.017705431 -0.025225433 0.35499999 1.3851023e-39
0.018873177 -0.025154376 0.354 1.200711e-39
0.020034043 -0.025083316 0.35299999 8.3158096e-40
0.021248223 -0.025083316 0.35299999 7.3938533e-40
0.022462405 -0.025083316 0.35299999 1.0159722e-39
0.023676585 -0.025083316 0.35299999 1.2925591e-39
0.02496128 -0.025154376 0.354 1.3847547e-39
0.026252875 -0.025225433 0.35499999 9.2377659e-40
0.027473936 -0.025225433 0.35499999 1.2903885e-39
0.0093385419 -0.026977599 0.36199999 4.6132988e-40
0.010554466 -0.026903076 0.361 2.3985535e-39
0.011763489 -0.026828554 0.36000001 1.9375754e-39
0.013001747 -0.026828554 0.36000001 1.7535373e-39
0.014160894 -0.026679505 0.35800001 1.569146e-39
0.015349277 -0.02660498 0.35699999 1.5694935e-39
0.016484348 -0.026455931 0.35499999 1.4772979e-39
0.017655557 -0.026381409 0.354 1.2925591e-39
0.018873177 -0.026381409 0.354 1.0159722e-39
0.020034043 -0.026306884 0.35299999 1.2903885e-39
0.021248223 -0.026306884 0.35299999 1.3825841e-39
0.022462405 -0.026306884 0.35299999 1.0163197e-39
0.023676585 -0.026306884 0.35299999 1.2929066e-39
0.02496128 -0.026381409 0.354 1.569146e-39
0.026252875 -0.026455931 0.35499999 1.2925591e-39
0.027473936 -0.026455931 0.35499999 1.4740735e-39
0.0093385419 -0.028232379 0.36199999 3.7021184e-40
0.010525231 -0.028076401 0.36000001 2.8598792e-39
0.011763489 -0.028076401 0.36000001 2.0301185e-39
0.012965631 -0.02799841 0.359 1.7535373e-39
0.014160894 -0.027920421 0.35800001 1.6613416e-39
0.015306283 -0.02776444 0.35600001 1.5694935e-39
0.016484348 -0.027686449 0.35499999 1.4772979e-39
0.017655557 -0.02760846 0.354 1.2925591e-39
0.018873177 -0.02760846 0.354 1.0159722e-39
0.020034043 -0.027530467 0.35299999 1.0155995e-39
0.021248223 -0.027530467 0.35299999 1.1077951e-39
0.022462405 -0.027530467 0.35299999 1.0163197e-39
0.023743659 -0.02760846 0.354 1.2929066e-39
0.025031792 -0.027686449 0.35499999 2.1201618e-39
0.026252875 -0.027686449 0.35499999 2.2123574e-39
0.027551329 -0.02776444 0.35600001 1.3847547e-39
0.010525231 -0.029324232 0.36000001 2.3989039e-39
0.011763489 -0.029324232 0.36000001 1.7535345e-39
0.012965631 -0.029242773 0.359 1.8457329e-39
0.014160894 -0.029161319 0.35800001 1.7535373e-39
0.015263287 -0.028916948 0.35499999 1.569146e-39
0.016484348 -0.028916948 0.35499999 1.4769504e-39
0.017655557 -0.028835492 0.354 1.2929094e-39
0.018873177 -0.028835492 0.354 1.2007138e-39
0.020090798 -0.028835492 0.354 9.2412411e-40
0.021308418 -0.028835492 0.354 9.2412411e-40
0.022526039 -0.028835492 0.354 1.0163197e-39
0.023743659 -0.028835492 0.354 1.3851023e-39
0.02496128 -0.028835492 0.354 1.8460804e-39
0.026252875 -0.028916948 0.35499999 1.8460804e-39
0.027473936 -0.028916948 0.35499999 1.8460804e-39
0.011730812 -0.030487156 0.359 2.3045404e-39
0.012965631 -0.030487156 0.359 1.7535373e-39
0.014160894 -0.030402234 0.35800001 1.6613416e-39
0.015263287 -0.030147465 0.35499999 1.569146e-39
0.016484348 -0.030147465 0.35499999 1.4769504e-39
0.017655557 -0.030062543 0.354 1.2929094e-39
0.018873177 -0.030062543 0.354 1.0163225e-39
0.020090798 -0.030062543 0.354 9.2412411e-40
0.021308418 -0.030062543 0.354 9.2412411e-40
0.022526039 -0.030062543 0.354 1.2903885e-39
0.023743659 -0.030062543 0.354 1.4747798e-39
0.02496128 -0.030062543 0.354 2.0279535e-39
0.026252875 -0.030147465 0.35499999 2.3967361e-39
0.027473936 -0.030147465 0.35499999 1.9379285e-39
0.011730812 -0.03173152 0.359 7.1746481e-43
0.012965631 -0.03173152 0.359 1.4740735e-39
0.014200449 -0.03173152 0.359 2.0272473e-39
0.015263287 -0.031377964 0.35499999 1.5694935e-39
0.016437912 -0.031289577 0.354 1.3851023e-39
0.017655557 -0.031289577 0.354 1.200711e-39
0.018873177 -0.031289577 0.354 9.2412411e-40
0.020090798 -0.031289577 0.354 9.2412411e-40
0.021308418 -0.031289577 0.354 9.2412411e-40
0.022526039 -0.031289577 0.354 9.2412411e-40
0.023743659 -0.031289577 0.354 1.1085154e-39
0.02496128 -0.031289577 0.354 1.5694935e-39
0.026178924 -0.031289577 0.354 1.938276e-39
0.027473936 -0.031377964 0.35499999 1.2003635e-39
0.011730812 -0.032975901 0.359 8.2943291e-39
0.012965631 -0.032975901 0.359 9.7593432e-41
0.014200449 -0.032975901 0.359 1.1117454e-39
0.015263287 -0.032608479 0.35499999 1.8435623e-39
0.016437912 -0.032516625 0.354 1.7513666e-39
0.017655557 -0.032516625 0.354 1.200711e-39
0.018873177 -0.032516625 0.354 1.0163197e-39
0.020090798 -0.032516625 0.354 9.2412411e-40
0.021308418 -0.032516625 0.354 8.3192848e-40
0.022526039 -0.032516625 0.354 1.2904011e-39
0.023743659 -0.032516625 0.354 1.3825967e-39
0.02496128 -0.032516625 0.354 1.200711e-39
0.026178924 -0.032516625 0.354 1.0163197e-39
0.027473936 -0.032608479 0.35499999 8.4241019e-40
0.030230785 -0.034353726 0.37400001 1.0707343e-38
0.013001747 -0.034315605 0.36000001 2.8025969e-45
0.014240006 -0.034315605 0.36000001 1.5676886e-39
0.015478265 -0.034315605 0.36000001 1.2903885e-39
0.016809391 -0.034506246 0.36199999 1.2903885e-39
0.017655557 -0.033743676 0.354 1.2903885e-39
0.018873177 -0.033743676 0.354 1.3825841e-39
0.020090798 -0.033743676 0.354 1.3807863e-39
0.021308418 -0.033743676 0.354 1.196395e-39
0.022526039 -0.033743676 0.354 9.2160597e-40
0.023743659 -0.033743676 0.354 9.2160597e-40
0.02496128 -0.033743676 0.354 8.2976067e-40
0.026252875 -0.033838995 0.35499999 0
0.027473936 -0.033838995 0.35499999 5.3524403e-39
0.030230785 -0.035650104 0.37400001 2.1210052e-38
0.031517196 -0.035650104 0.37400001 1.6965037e-38
0.014319115 -0.035761006 0.36199999 1.4751273e-39
0.015564253 -0.035761006 0.36199999 1.1059972e-39
0.016809391 -0.035761006 0.36199999 9.2160597e-40
0.018054551 -0.035761006 0.36199999 9.2160597e-40
0.01929969 -0.035761006 0.36199999 7.3721471e-40
0.020090798 -0.034970708 0.354 7.3721471e-40
0.021308418 -0.034970708 0.354 4.6062782e-40
0.022526039 -0.034970708 0.354 2.7731276e-40
0.023743659 -0.034970708 0.354 2.7731276e-40
0.02496128 -0.034970708 0.354 5.5317378e-40
0.026252875 -0.035069495 0.35499999 0
0.028944373 -0.036946461 0.37400001 8.3912793e-39
0.030230785 -0.036946461 0.37400001 2.2220601e-38
0.031517196 -0.036946461 0.37400001 2.231133e-38
0.014319115 -0.037015788 0.36199999 1.4751301e-39
0.015564253 -0.037015788 0.36199999 7.3938533e-40
0.016809391 -0.037015788 0.36199999 6.471897e-40
0.018054551 -0.037015788 0.36199999 8.3120821e-40
0.01929969 -0.037015788 0.36199999 6.4681695e-40
0.020544827 -0.037015788 0.36199999 7.3721471e-40
0.021789964 -0.037015788 0.36199999 6.4501908e-40
0.023035102 -0.037015788 0.36199999 6.4501908e-40
0.024816819 -0.037833821 0.37 4.6062782e-40
0.026089473 -0.037833821 0.37 6.4501908e-40
0.027436104 -0.037936073 0.37099999 8.4077908e-45
0.028789591 -0.038038328 0.37200001 1.0238409e-38
0.030069124 -0.038038328 0.37200001 2.1486276e-38
0.031348657 -0.038038328 0.37200001 2.1666679e-38
0.014319115 -0.038270552 0.36199999 1.5676886e-39
0.015564253 -0.038270552 0.36199999 1.1059972e-39
0.016809391 -0.038270552 0.36199999 1.1059972e-39
0.018054551 -0.038270552 0.36199999 9.219563e-40
0.01929969 -0.038270552 0.36199999 8.2976067e-40
0.020544827 -0.038270552 0.36199999 7.3721471e-40
0.021789964 -0.038270552 0.36199999 6.4501908e-40
0.023035102 -0.038270552 0.36199999 6.4501908e-40
0.024749745 -0.039010588 0.36899999 6.4501908e-40
0.02601896 -0.039010588 0.36899999 8.2906002e-40
0.027362151 -0.039116312 0.37 1.6815582e-44
0.028712198 -0.039222028 0.37099999 1.4752743e-38
0.030069124 -0.039327752 0.37200001 2.2497176e-38
0.031348657 -0.039327752 0.37200001 2.1482285e-38
0.010583703 -0.03952533 0.36199999 2.2680112e-38
0.011828841 -0.03952533 0.36199999 1.1432245e-38
0.013073978 -0.03952533 0.36199999 2.8025969e-45
0.014319115 -0.03952533 0.36199999 1.6598843e-39
0.015564253 -0.03952533 0.36199999 1.2903885e-39
0.016809391 -0.03952533 0.36199999 1.1059972e-39
0.018054551 -0.03952533 0.36199999 6.4716727e-40
0.01929969 -0.03952533 0.36199999 5.5497165e-40
0.020544827 -0.03952533 0.36199999 7.3721471e-40
0.022151124 -0.040180448 0.368 5.5282345e-40
0.023416899 -0.040180448 0.368 6.4501908e-40
0.024682675 -0.040180448 0.368 7.3721471e-40
0.02601896 -0.040289633 0.36899999 5.5499126e-40
0.027288198 -0.040289633 0.36899999 1.6815582e-44
0.028634807 -0.040398821 0.37 1.6964346e-38
0.029988291 -0.040508006 0.37099999 2.2496084e-38
0.031264383 -0.040508006 0.37099999 2.166596e-38
0.010583703 -0.040780094 0.36199999 2.2772308e-38
0.011828841 -0.040780094 0.36199999 1.0879072e-38
0.013110095 -0.040892746 0.36300001 1.8367239e-40
0.014319115 -0.040780094 0.36199999 1.8431937e-39
0.015564253 -0.040780094 0.36199999 1.1981929e-39
0.016809391 -0.040780094 0.36199999 1.1059972e-39
0.018054551 -0.040780094 0.36199999 9.2160597e-40
0.019353004 -0.040892746 0.36300001 8.2941034e-40
0.020601582 -0.040892746 0.36300001 7.3721471e-40
0.021910351 -0.041005399 0.36399999 7.3721471e-40
0.023353267 -0.041343357 0.36700001 7.3721471e-40
0.024615603 -0.041343357 0.36700001 9.2160597e-40
0.02594845 -0.04145601 0.368 7.3867627e-40
0.02721425 -0.04145601 0.368 2.8025969e-44
0.028557412 -0.041568659 0.36899999 1.6503355e-38
0.029907461 -0.041681312 0.37 2.2588267e-38
0.031180115 -0.041681312 0.37 2.1574484e-38
0.013110095 -0.042150993 0.36300001 1.0818024e-42
0.014319115 -0.042034872 0.36199999 1.5684075e-39
0.015564253 -0.042034872 0.36199999 1.1059972e-39
0.016809391 -0.042034872 0.36199999 8.2941034e-40
0.018054551 -0.042034872 0.36199999 8.2941034e-40
0.019353004 -0.042150993 0.36300001 7.3721471e-40
0.020601582 -0.042150993 0.36300001 7.3721471e-40
0.021910351 -0.04226711 0.36399999 8.2941034e-40
0.023162369 -0.04226711 0.36399999 8.2941034e-40
0.024615603 -0.04261547 0.36700001 1.1981929e-39
0.025877938 -0.04261547 0.36700001 1.7506604e-39
0.02721425 -0.042731587 0.368 1.9618179e-44
0.028480025 -0.042731587 0.368 1.6042365e-38
0.029826628 -0.042847704 0.36899999 2.2588254e-38
0.031180115 -0.042963825 0.37 2.1665597e-38
0.03245277 -0.042963825 0.37 2.1573402e-38
0.013110095 -0.043409225 0.36300001 1.8440387e-40
0.014319115 -0.043289635 0.36199999 1.8439252e-39
0.015564253 -0.043289635 0.36199999 1.2903885e-39
0.016809391 -0.043289635 0.36199999 9.2160597e-40
0.018054551 -0.043289635 0.36199999 5.5462132e-40
0.01929969 -0.043289635 0.36199999 6.4681695e-40
0.020601582 -0.043409225 0.36300001 9.2160597e-40
0.021850158 -0.043409225 0.36300001 1.1059972e-39
0.023162369 -0.043528806 0.36399999 9.2340384e-40
0.024414385 -0.043528806 0.36399999 1.1077951e-39
0.025807425 -0.043767978 0.366 1.4772979e-39
0.027140297 -0.043887563 0.36700001 3.671402e-43
0.028480025 -0.044007145 0.368 1.4108052e-38
0.029745799 -0.044007145 0.368 2.2129071e-38
0.031180115 -0.044246316 0.37 2.1573762e-38
0.03245277 -0.044246316 0.37 2.1481566e-38
0.013110095 -0.044667471 0.36300001 9.2921502e-41
0.014358672 -0.044667471 0.36300001 1.8446385e-39
0.015607249 -0.044667471 0.36300001 1.5669754e-39
0.016809391 -0.044544417 0.36199999 1.3825841e-39
0.018054551 -0.044544417 0.36199999 9.2340384e-40
0.01929969 -0.044544417 0.36199999 8.3120821e-40
0.020544827 -0.044544417 0.36199999 7.3938533e-40
0.021850158 -0.044667471 0.36300001 7.3938533e-40
0.023098735 -0.044667471 0.36300001 1.2903885e-39
0.024414385 -0.044790518 0.36399999 1.3825841e-39
0.025807425 -0.045036621 0.366 1.2925591e-39
0.027066344 -0.045036621 0.366 1.9618179e-44
0.028480025 -0.045282725 0.368 1.2817681e-38
0.029745799 -0.045282725 0.368 2.2406027e-38
0.031180115 -0.045528825 0.37 2.1574481e-38
0.03245277 -0.045528825 0.37 2.1574481e-38
0.011894194 -0.046052232 0.36399999 8.1135559e-39
0.01314621 -0.046052232 0.36399999 1.8439406e-40
0.014398227 -0.046052232 0.36399999 2.1205023e-39
0.015650244 -0.046052232 0.36399999 1.7506604e-39
0.016855827 -0.045925718 0.36300001 1.4740735e-39
0.018004676 -0.045672681 0.361 1.3825841e-39
0.019246375 -0.045672681 0.361 1.2903885e-39
0.020544827 -0.045799196 0.36199999 9.2377659e-40
0.021850158 -0.045925718 0.36300001 9.2377659e-40
0.023098735 -0.045925718 0.36300001 1.4747798e-39
0.024347313 -0.045925718 0.36300001 1.7513666e-39
0.025736915 -0.046178751 0.36500001 1.5694935e-39
0.027066344 -0.046305265 0.366 3.671402e-43
0.028634807 -0.046811339 0.37 1.2539306e-38
0.029907461 -0.046811339 0.37 2.2496434e-38
0.031180115 -0.046811339 0.37 2.1389011e-38
0.03245277 -0.046811339 0.37 2.1665597e-38
0.011894194 -0.047313925 0.36399999 1.0142226e-38
0.01314621 -0.047313925 0.36399999 2.8025969e-45
0.014398227 -0.047313925 0.36399999 1.936111e-39
0.01569324 -0.047443911 0.36500001 1.2929094e-39
0.01690226 -0.047313925 0.36399999 1.0163225e-39
0.018004676 -0.046923976 0.361 1.0159722e-39
0.019246375 -0.046923976 0.361 1.2003635e-39
0.020488072 -0.046923976 0.361 1.2003635e-39
0.021789964 -0.047053959 0.36199999 1.0159722e-39
0.023035102 -0.047053959 0.36199999 1.2925591e-39
0.024347313 -0.047183946 0.36300001 1.3847547e-39
0.025736915 -0.047443911 0.36500001 2.0272473e-39
0.026992396 -0.047443911 0.36500001 1.9618179e-44
0.028712198 -0.048223812 0.37099999 1.2170164e-38
0.029988291 -0.048223812 0.37099999 2.2772661e-38
0.031264383 -0.048223812 0.37099999 2.1573765e-38
0.032540478 -0.048223812 0.37099999 2.1573765e-38
0.013182327 -0.048709091 0.36500001 2.8025969e-45
0.014437784 -0.048709091 0.36500001 1.9364712e-39
0.015650244 -0.04857564 0.36399999 1.6584648e-39
0.016855827 -0.048442192 0.36300001 1.4740735e-39
0.018054551 -0.048308738 0.36199999 1.2925591e-39
0.019246375 -0.04817529 0.361 1.0159722e-39
0.020488072 -0.04817529 0.361 1.4740735e-39
0.021789964 -0.048308738 0.36199999 1.7506604e-39
0.023035102 -0.048308738 0.36199999 1.2925591e-39
0.024280239 -0.048308738 0.36199999 1.3847547e-39
0.025736915 -0.048709091 0.36500001 1.569146e-39
0.026992396 -0.048709091 0.36500001 1.9618179e-44
0.028634807 -0.049376339 0.37 1.0323352e-38
0.029907461 -0.049376339 0.37 2.3507687e-38
0.031180115 -0.049376339 0.37 2.1481572e-38
0.032540478 -0.049509786 0.37099999 2.1389376e-38
0.014398227 -0.049837336 0.36399999 2.0286668e-39
0.015650244 -0.049837336 0.36399999 1.3847547e-39
0.016855827 -0.04970042 0.36300001 1.2925591e-39
0.018054551 -0.049563501 0.36199999 1.0159722e-39
0.019246375 -0.049426589 0.361 1.0159722e-39
0.020488072 -0.049426589 0.361 1.4747798e-39
0.021789964 -0.049563501 0.36199999 1.659171e-39
0.023035102 -0.049563501 0.36199999 1.3847547e-39
0.024280239 -0.049563501 0.36199999 1.4769504e-39
0.025736915 -0.049974252 0.36500001 1.3851023e-39
0.026992396 -0.049974252 0.36500001 1.4475413e-42
0.028634807 -0.050658833 0.37 5.3483779e-39
0.029907461 -0.050658833 0.37 2.2312374e-38
0.031180115 -0.050658833 0.37 2.1482288e-38
0.03245277 -0.050658833 0.37 2.1390092e-38
0.014398227 -0.051099047 0.36399999 1.9371872e-39
0.015650244 -0.051099047 0.36399999 1.4769504e-39
0.016809391 -0.050818283 0.36199999 1.2925591e-39
0.018054551 -0.050818283 0.36199999 1.2003635e-39
0.01929969 -0.050818283 0.36199999 1.1081678e-39
0.020488072 -0.050677903 0.361 1.4747798e-39
0.021729771 -0.050677903 0.361 1.659171e-39
0.023035102 -0.050818283 0.36199999 1.3847547e-39
0.024280239 -0.050818283 0.36199999 1.569146e-39
0.025525376 -0.050818283 0.36199999 1.293257e-39
0.027362151 -0.051941343 0.37 2.5181333e-42
0.028634807 -0.051941343 0.37 2.5832951e-39
0.029907461 -0.051941343 0.37 2.1206812e-38
0.031180115 -0.051941343 0.37 2.1481566e-38
0.03245277 -0.051941343 0.37 2.1112784e-38
0.015607249 -0.052216895 0.36300001 1.4772979e-39
0.016809391 -0.052073043 0.36199999 1.0163197e-39
0.018054551 -0.052073043 0.36199999 1.2003635e-39
0.01929969 -0.052073043 0.36199999 1.2003635e-39
0.020488072 -0.051929198 0.361 1.2003635e-39
0.021729771 -0.051929198 0.361 1.2003635e-39
0.023035102 -0.052073043 0.36199999 1.3847547e-39
0.024280239 -0.052073043 0.36199999 1.6613416e-39
0.025666401 -0.052360743 0.36399999 1.8435623e-39
0.026918441 -0.052360743 0.36399999 5.5282345e-40
0.028634807 -0.053223833 0.37 3.5963709e-39
0.029907461 -0.053223833 0.37 2.1205736e-38
0.031180115 -0.053223833 0.37 2.1481206e-38
0.03245277 -0.053223833 0.37 2.1112424e-38
0.015607249 -0.053475142 0.36300001 1.842856e-39
0.016809391 -0.053327825 0.36199999 1.7506604e-39
0.018054551 -0.053327825 0.36199999 1.6584648e-39
0.01929969 -0.053327825 0.36199999 1.4740735e-39
0.020544827 -0.053327825 0.36199999 1.4747798e-39
0.021789964 -0.053327825 0.36199999 1.3825841e-39
0.023035102 -0.053327825 0.36199999 1.6584648e-39
0.024280239 -0.053327825 0.36199999 2.2116385e-39
0.025666401 -0.053622454 0.36399999 2.0283039e-39
0.026918441 -0.053622454 0.36399999 5.5317378e-40
0.028557412 -0.054359026 0.36899999 2.4982924e-39
0.029826628 -0.054359026 0.36899999 1.9554484e-38
0.031180115 -0.054506343 0.37 2.1112784e-38
0.03245277 -0.054506343 0.37 2.1020588e-38
0.015607249 -0.054733373 0.36300001 1.2925591e-39
0.016855827 -0.054733373 0.36300001 1.2925591e-39
0.018054551 -0.054582588 0.36199999 1.2925591e-39
0.01929969 -0.054582588 0.36199999 1.2003635e-39
0.020544827 -0.054582588 0.36199999 1.200711e-39
0.021789964 -0.054582588 0.36199999 1.0163197e-39
0.023035102 -0.054582588 0.36199999 1.0159722e-39
0.024347313 -0.054733373 0.36300001 1.569146e-39
0.025666401 -0.054884151 0.36399999 9.2340384e-40
0.026918441 -0.054884151 0.36399999 9.3643171e-41
0.028557412 -0.055638053 0.36899999 5.6329564e-39
0.029826628 -0.055638053 0.36899999 1.9923279e-38
0.031180115 -0.055788837 0.37 2.0928393e-38
0.013182327 -0.056300111 0.36500001 9.327463e-41
0.014437784 -0.056300111 0.36500001 3.6986152e-40
0.015607249 -0.05599162 0.36300001 1.2925591e-39
0.016855827 -0.05599162 0.36300001 1.2003635e-39
0.018104427 -0.05599162 0.36300001 1.2003635e-39
0.01929969 -0.055837367 0.36199999 1.2003635e-39
0.020544827 -0.055837367 0.36199999 1.0138114e-39
0.021789964 -0.055837367 0.36199999 2.7624637e-40
0.023098735 -0.05599162 0.36300001 3.657389e-43
0.024347313 -0.05599162 0.36300001 1.84757e-40
0.025595888 -0.05599162 0.36300001 1.8732698e-40
0.02684449 -0.05599162 0.36300001 5.0736954e-39
0.028093068 -0.05599162 0.36300001 1.4569093e-38
0.029907461 -0.057071347 0.37 2.0838396e-38
0.013182327 -0.05756529 0.36500001 1.0139001e-38
0.014437784 -0.05756529 0.36500001 2.3023726e-39
0.015650244 -0.057407577 0.36399999 1.0761972e-42
0.016855827 -0.057249866 0.36300001 7.1746481e-43
0.018104427 -0.057249866 0.36300001 2.8025969e-45
0.01929969 -0.057092149 0.36199999 3.629363e-43
0.020544827 -0.057092149 0.36199999 9.9032565e-41
0.021789964 -0.057092149 0.36199999 3.8790534e-39
0.023098735 -0.057249866 0.36300001 7.474683e-39
0.024347313 -0.057249866 0.36300001 1.0793726e-38
0.025595888 -0.057249866 0.36300001 1.5215891e-38
0.02684449 -0.057249866 0.36300001 1.5584674e-38
0.029907461 -0.058353856 0.37 2.1388667e-38
0.013182327 -0.058830455 0.36500001 1.761081e-38
0.014437784 -0.058830455 0.36500001 1.6781049e-38
0.01569324 -0.058830455 0.36500001 1.6412257e-38
0.01690226 -0.058669269 0.36399999 1.5121518e-38
0.018154301 -0.058669269 0.36399999 1.4936771e-38
0.019353004 -0.058508094 0.36300001 1.4936771e-38
0.020601582 -0.058508094 0.36300001 1.5215153e-38
0.021850158 -0.058508094 0.36300001 1.5215153e-38
0.023098735 -0.058508094 0.36300001 1.5767235e-38
0.024347313 -0.058508094 0.36300001 1.5398453e-38
0.025595888 -0.058508094 0.36300001 1.6134586e-38
0.02684449 -0.058508094 0.36300001 1.6318977e-38
0.028325241 -0.05899163 0.366 1.7517154e-38
0.029907461 -0.059636351 0.37 2.1020588e-38
0.031180115 -0.059636351 0.37 2.0744001e-38
0.03245277 -0.059636351 0.37 2.0651806e-38
0.013218442 -0.060260277 0.366 1.7333494e-38
0.014437784 -0.060095631 0.36500001 1.5489582e-38
0.01569324 -0.060095631 0.36500001 1.5766172e-38
0.01690226 -0.059930984 0.36399999 1.558178e-38
0.018104427 -0.059766341 0.36300001 1.5766882e-38
0.019353004 -0.059766341 0.36300001 1.5029317e-38
0.020601582 -0.059766341 0.36300001 1.5397021e-38
0.021850158 -0.059766341 0.36300001 1.4936042e-38
0.023098735 -0.059766341 0.36300001 1.521298e-38
0.024347313 -0.059766341 0.36300001 1.5028588e-38
0.025666401 -0.059930984 0.36399999 1.6227137e-38
0.026992396 -0.060095631 0.36500001 1.6503724e-38
0.028325241 -0.060260277 0.366 1.6964334e-38
0.029826628 -0.06075421 0.36899999 2.083655e-38
0.031095842 -0.06075421 0.36899999 2.0928032e-38
0.03245277 -0.06091886 0.37 2.0743641e-38
0.011959546 -0.061528903 0.366 1.5302849e-38
0.013218442 -0.061528903 0.366 1.7976716e-38
0.014437784 -0.061360795 0.36500001 1.6870368e-38
0.01569324 -0.061360795 0.36500001 1.5951642e-38
0.01690226 -0.061192676 0.36399999 1.5767251e-38
0.018104427 -0.061024569 0.36300001 1.5490298e-38
0.019353004 -0.061024569 0.36300001 1.5213711e-38
0.020544827 -0.060856454 0.36199999 1.5304815e-38
0.021789964 -0.060856454 0.36199999 1.4936033e-38
0.023035102 -0.060856454 0.36199999 1.45669e-38
0.024347313 -0.061024569 0.36300001 1.4751291e-38
0.025595888 -0.061024569 0.36300001 1.5212264e-38
0.026992396 -0.061360795 0.36500001 1.6410807e-38
0.028247852 -0.061360795 0.36500001 1.6780649e-38
0.029584136 -0.061528903 0.366 1.9085539e-38
0.031011574 -0.061865129 0.368 2.1297175e-38
0.03245277 -0.062201351 0.37 2.0651806e-38
0.011959546 -0.062797546 0.366 1.7409477e-38
0.013218442 -0.062797546 0.366 1.8161833e-38
0.014437784 -0.062625974 0.36500001 1.6594507e-38
0.01569324 -0.062625974 0.36500001 1.6318626e-38
0.01690226 -0.062454391 0.36399999 1.604204e-38
0.018104427 -0.062282816 0.36300001 1.6042393e-38
0.019353004 -0.062282816 0.36300001 1.5765806e-38
0.020544827 -0.062111232 0.36199999 1.5120068e-38
0.021789964 -0.062111232 0.36199999 1.465909e-38
0.023035102 -0.062111232 0.36199999 1.4751629e-38
0.024347313 -0.062282816 0.36300001 1.5673585e-38
0.025595888 -0.062282816 0.36300001 1.6503008e-38
0.026992396 -0.062625974 0.36500001 1.7148377e-38
0.028247852 -0.062625974 0.36500001 1.3736758e-38
0.029584136 -0.062797546 0.366 6.6376944e-39
0.030927304 -0.062969133 0.36700001 1.4198102e-38
0.011959546 -0.064066179 0.366 9.4964876e-39
0.013182327 -0.063891135 0.36500001 1.2911727e-38
0.014437784 -0.063891135 0.36500001 1.3833683e-38
0.01569324 -0.063891135 0.36500001 1.4934973e-38
0.01690226 -0.063716084 0.36399999 1.4934973e-38
0.018104427 -0.063541047 0.36300001 1.5120086e-38
0.01929969 -0.063365996 0.36199999 1.4751304e-38
0.020544827 -0.063365996 0.36199999 1.4656935e-38
0.021789964 -0.063365996 0.36199999 1.2905218e-38
0.023035102 -0.063365996 0.36199999 9.7730521e-39
0.024347313 -0.063541047 0.36300001 7.2837701e-39
0.025595888 -0.063541047 0.36300001 4.4131303e-39
0.026992396 -0.063891135 0.36500001 2.6632294e-39
0.028247852 -0.063891135 0.36500001 1.0789998e-42
0.029584136 -0.064066179 0.366 6.4547731e-39
0.030927304 -0.064241223 0.36700001 9.3629158e-41
0.013182327 -0.065156311 0.36500001 2.8025969e-45
0.014437784 -0.065156311 0.36500001 2.8025969e-45
0.01569324 -0.065156311 0.36500001 3.657389e-43
0.01690226 -0.064977802 0.36399999 1.84757e-40
0.018104427 -0.064799294 0.36300001 9.219563e-41
0.01929969 -0.064620778 0.36199999 0
0.020544827 -0.064620778 0.36199999 3.657389e-43
0.021789964 -0.064620778 0.36199999 5.6051939e-45
0.023035102 -0.064620778 0.36199999 0
0.024347313 -0.064799294 0.36300001 1.8439126e-40
0.025595888 -0.064799294 0.36300001 2.7695263e-40
0.026992396 -0.065156311 0.36500001 1.0145177e-39
0.028247852 -0.065156311 0.36500001 3.3168945e-39
0.029584136 -0.065334819 0.366 4.6998289e-39
0.030927304 -0.065513335 0.36700001 3.2279008e-39
0.014437784 -0.066421472 0.36500001 2.1194429e-39
0.01569324 -0.066421472 0.36500001 1.7513666e-39
0.016948696 -0.066421472 0.36500001 1.7513666e-39
0.018104427 -0.066057518 0.36300001 1.93396e-39
0.01929969 -0.065875538 0.36199999 1.6573731e-39
0.020544827 -0.065875538 0.36199999 1.6584648e-39
0.021789964 -0.065875538 0.36199999 1.2896822e-39
0.023035102 -0.065875538 0.36199999 1.0155995e-39
0.024347313 -0.066057518 0.36300001 1.0155995e-39
0.025595888 -0.066057518 0.36300001 1.0155995e-39
0.026992396 -0.066421472 0.36500001 1.1077951e-39
0.028247852 -0.066421472 0.36500001 2.3045404e-39
0.029584136 -0.066603445 0.366 3.9640618e-39
0.030927304 -0.066785432 0.36700001 2.6743795e-39
0.014437784 -0.067686655 0.36500001 1.9350516e-39
0.01569324 -0.067686655 0.36500001 1.7506604e-39
0.016948696 -0.067686655 0.36500001 1.6584648e-39
0.018104427 -0.067315765 0.36300001 1.2903885e-39
0.01929969 -0.06713032 0.36199999 1.2903885e-39
0.020544827 -0.06713032 0.36199999 1.2903885e-39
0.021789964 -0.06713032 0.36199999 1.2903885e-39
0.023098735 -0.067315765 0.36300001 1.1981929e-39
0.024347313 -0.067315765 0.36300001 1.1981929e-39
0.025595888 -0.067315765 0.36300001 1.4747798e-39
0.026992396 -0.067686655 0.36500001 1.659171e-39
0.028325241 -0.067872092 0.366 1.5694935e-39
0.029584136 -0.067872092 0.366 2.1226673e-39
0.016855827 -0.068574011 0.36300001 1.384382e-39
0.018104427 -0.068574011 0.36300001 9.2412411e-40
0.019353004 -0.068574011 0.36300001 7.3973285e-40
0.020601582 -0.068574011 0.36300001 5.5497165e-40
0.021850158 -0.068574011 0.36300001 9.2375416e-40
0.023035102 -0.068385102 0.36199999 9.2412411e-40
0.024280239 -0.068385102 0.36199999 1.200711e-39
0.025595888 -0.068574011 0.36300001 1.5698438e-39
0.026992396 -0.06895183 0.36500001 1.5698438e-39
0.028247852 -0.06895183 0.36500001 2.6761914e-39
0.028937489 -0.067629464 0.35800001 4.3357127e-39
0.016855827 -0.069832243 0.36300001 6.4788754e-40
0.018054551 -0.069639862 0.36199999 1.5651775e-39
0.01929969 -0.069639862 0.36199999 1.3807863e-39
0.020544827 -0.069639862 0.36199999 1.0134205e-39
0.021789964 -0.069639862 0.36199999 1.4743986e-39
0.023035102 -0.069639862 0.36199999 2.3045404e-39
0.024280239 -0.069639862 0.36199999 2.3967361e-39
0.025243329 -0.068870366 0.35800001 2.3967361e-39
0.026474731 -0.068870366 0.35800001 2.6733229e-39
0.027783502 -0.06906274 0.359 3.964059e-39
0.028937489 -0.068870366 0.35800001 5.9001672e-39
0.030168869 -0.068870366 0.35800001 5.9041174e-39
0.031487957 -0.06906274 0.359 4.9821611e-39
0.032813929 -0.069255114 0.36000001 1.3548444e-38
0.034052186 -0.069255114 0.36000001 1.8619204e-38
0.016809391 -0.070894644 0.36199999 5.4406114e-39
0.018054551 -0.070894644 0.36199999 3.7807271e-39
0.01929969 -0.070894644 0.36199999 3.1353577e-39
0.020544827 -0.070894644 0.36199999 3.0435096e-39
0.021729771 -0.070698805 0.361 3.4122921e-39
0.022907838 -0.070502967 0.36000001 3.4112383e-39
0.024146097 -0.070502967 0.36000001 3.5034339e-39
0.025243329 -0.070111282 0.35800001 2.9527783e-39
0.026474731 -0.070111282 0.35800001 2.6761914e-39
0.027706111 -0.070111282 0.35800001 4.1477243e-39
0.028937489 -0.070111282 0.35800001 5.7150501e-39
0.030168869 -0.070111282 0.35800001 8.2968878e-39
0.031400248 -0.070111282 0.35800001 7.9281053e-39
0.032813929 -0.070502967 0.36000001 2.859456e-39
0.034052186 -0.070502967 0.36000001 1.4752684e-38
0.015607249 -0.072348714 0.36300001 4.6115794e-39
0.016809391 -0.072149403 0.36199999 4.0584056e-39
0.018054551 -0.072149403 0.36199999 4.2420682e-39
0.019246375 -0.0719501 0.361 4.8874376e-39
0.020488072 -0.0719501 0.361 4.2420682e-39
0.02166958 -0.071750797 0.36000001 4.5186551e-39
0.022844203 -0.071551487 0.359 4.0566077e-39
0.024079021 -0.071551487 0.359 3.7800208e-39
0.025313841 -0.071551487 0.359 3.7800208e-39
0.026474731 -0.071352176 0.35800001 3.6878252e-39
0.027706111 -0.071352176 0.35800001 3.7800208e-39
0.028856657 -0.071152866 0.35699999 4.1488033e-39
0.030084595 -0.071152866 0.35699999 4.8863684e-39
0.031400248 -0.071352176 0.35800001 5.2551509e-39
0.032631628 -0.071352176 0.35800001 2.3966954e-39
0.033957593 -0.071551487 0.359 3.3186517e-39
0.035192437 -0.071551487 0.359 1.8617721e-38
0.036528725 -0.071750797 0.36000001 1.8894308e-38
0.015607249 -0.07360696 0.36300001 3.226847e-39
0.016809391 -0.073404185 0.36199999 3.5034339e-39
0.018004676 -0.073201418 0.361 3.4123047e-39
0.019246375 -0.073201418 0.361 3.3201091e-39
0.020431321 -0.072998643 0.36000001 3.5034339e-39
0.02166958 -0.072998643 0.36000001 3.5956296e-39
0.022844203 -0.072795868 0.359 3.5034339e-39
0.024011949 -0.072593093 0.35800001 3.4112383e-39
0.025172815 -0.072390318 0.35699999 3.5034339e-39
0.026400778 -0.072390318 0.35699999 3.8722165e-39
0.027628718 -0.072390318 0.35699999 3.6878252e-39
0.028856657 -0.072390318 0.35699999 3.7800208e-39
0.030084595 -0.072390318 0.35699999 4.1477243e-39
0.031312536 -0.072390318 0.35699999 3.8711375e-39
0.032540474 -0.072390318 0.35699999 3.2250492e-39
0.033863004 -0.072593093 0.35800001 2.7550649e-40
0.035192437 -0.072795868 0.359 1.3182819e-38
0.036427256 -0.072795868 0.359 1.8622361e-38
0.015521258 -0.074452713 0.361 2.9509664e-39
0.016762955 -0.074452713 0.361 2.9509664e-39
0.017954804 -0.074246474 0.36000001 2.8580645e-39
0.019139748 -0.074040227 0.359 2.9502602e-39
0.020374566 -0.074040227 0.359 2.5832951e-39
0.021609385 -0.074040227 0.359 2.4910995e-39
0.022780571 -0.073833995 0.35800001 2.9502602e-39
0.023944875 -0.073627748 0.35699999 3.0424558e-39
0.025172815 -0.073627748 0.35699999 3.1346514e-39
0.026326828 -0.073421508 0.35600001 3.226847e-39
0.027551329 -0.073421508 0.35600001 2.9513265e-39
0.028775828 -0.073421508 0.35600001 2.7669353e-39
0.030000327 -0.073421508 0.35600001 3.3179511e-39
0.031224828 -0.073421508 0.35600001 3.3179511e-39
0.032449327 -0.073421508 0.35600001 2.5821839e-39
0.033768415 -0.073627748 0.35699999 9.2266255e-40
0.035094406 -0.073833995 0.35800001 6.1809594e-39
