# .PCD v0.7 - Point Cloud Data file format
VERSION 0.7
FIELDS x y z rgb
SIZE 4 4 4 4
TYPE F F F F
COUNT 1 1 1 1
WIDTH 997
HEIGHT 1
VIEWPOINT 0 0 0 1 0 0 0
POINTS 997
DATA ascii
0.017855054 0.04529313 0.35800001 1.9637278e-38
0.019033119 0.045166612 0.35699999 1.9545083e-38
0.020261059 0.045166612 0.35699999 1.9544362e-38
0.021428805 0.045040097 0.35600001 1.9820949e-38
0.022653306 0.045040097 0.35600001 2.0650694e-38
0.023877805 0.045040097 0.35600001 2.1296064e-38
0.025102306 0.045040097 0.35600001 2.2587541e-38
0.026326828 0.045040097 0.35600001 2.3048519e-38
0.027164372 0.044407509 0.35100001 2.2679396e-38
0.028371673 0.044407509 0.35100001 2.2126222e-38
0.029578974 0.044407509 0.35100001 2.1387559e-38
0.030786276 0.044407509 0.35100001 1.9912429e-38
0.032267027 0.04478706 0.354 1.8899716e-38
0.013037862 0.044421386 0.361 1.9083381e-38
0.014200449 0.044175282 0.359 1.8991186e-38
0.015392273 0.044052232 0.35800001 1.8899343e-38
0.016623652 0.044052232 0.35800001 1.9083734e-38
0.01780518 0.043929178 0.35699999 1.9728032e-38
0.019033119 0.043929178 0.35699999 1.9728032e-38
0.020204306 0.043806132 0.35600001 2.1387193e-38
0.021428805 0.043806132 0.35600001 2.0649628e-38
0.02258967 0.043683078 0.35499999 2.046486e-38
0.023810731 0.043683078 0.35499999 1.9358512e-38
0.025102306 0.043806132 0.35600001 1.8527297e-38
0.02595707 0.043190874 0.35100001 1.8066319e-38
0.027164372 0.043190874 0.35100001 1.7147612e-38
0.028371673 0.043190874 0.35100001 1.677883e-38
0.029578974 0.043190874 0.35100001 1.678028e-38
0.030786276 0.043190874 0.35100001 1.6595889e-38
0.032267027 0.043560028 0.354 1.7424566e-38
0.033579238 0.043683078 0.35499999 1.7424566e-38
0.013037862 0.043170072 0.361 1.8161422e-38
0.014200449 0.042930901 0.359 1.8438009e-38
0.015392273 0.042811319 0.35800001 1.954398e-38
0.016623652 0.042811319 0.35800001 2.037374e-38
0.01780518 0.04269173 0.35699999 2.0557793e-38
0.018873177 0.042332977 0.354 1.9267054e-38
0.020090798 0.042332977 0.354 1.7975212e-38
0.021308418 0.042332977 0.354 1.7422038e-38
0.022462405 0.042213392 0.35299999 1.6777751e-38
0.023609515 0.042093806 0.352 1.6962142e-38
0.024749745 0.041974224 0.35100001 1.650188e-38
0.02595707 0.041974224 0.35100001 1.650188e-38
0.027164372 0.041974224 0.35100001 1.6778464e-38
0.028371673 0.041974224 0.35100001 1.7147246e-38
0.029663244 0.042093806 0.352 1.7330936e-38
0.030873986 0.042093806 0.352 1.7607523e-38
0.032267027 0.042332977 0.354 1.7607523e-38
0.033484649 0.042332977 0.354 1.7976305e-38
0.03470229 0.042332977 0.354 1.8254347e-38
0.014200449 0.04168652 0.359 2.000389e-38
0.015177296 0.040989805 0.35299999 1.8069203e-38
0.016391477 0.040989805 0.35299999 1.7423833e-38
0.017605681 0.040989805 0.35299999 1.6869941e-38
0.018819861 0.040989805 0.35299999 1.6685549e-38
0.020034043 0.040989805 0.35299999 1.6778114e-38
0.021248223 0.040989805 0.35299999 1.6870309e-38
0.022462405 0.040989805 0.35299999 1.7423129e-38
0.023609515 0.040873688 0.352 1.7054346e-38
0.024749745 0.040757574 0.35100001 1.7330924e-38
0.02595707 0.040757574 0.35100001 1.6593359e-38
0.027164372 0.040757574 0.35100001 1.6407886e-38
0.028452504 0.040873688 0.352 1.5578126e-38
0.029663244 0.040873688 0.352 1.5210422e-38
0.030873986 0.040873688 0.352 1.4288466e-38
0.032267027 0.041105926 0.354 1.447322e-38
0.033484649 0.041105926 0.354 1.4104438e-38
0.03470229 0.041105926 0.354 1.4844894e-38
0.013963115 0.039766222 0.35299999 1.6408956e-38
0.015177296 0.039766222 0.35299999 1.5856157e-38
0.016391477 0.039766222 0.35299999 1.6409331e-38
0.017605681 0.039766222 0.35299999 1.6686271e-38
0.018819861 0.039766222 0.35299999 1.6778467e-38
0.020034043 0.039766222 0.35299999 1.7146896e-38
0.021248223 0.039766222 0.35299999 1.6501527e-38
0.022462405 0.039766222 0.35299999 1.5672116e-38
0.023609515 0.039653569 0.352 1.4842356e-38
0.024749745 0.03954092 0.35100001 1.4288456e-38
0.02595707 0.03954092 0.35100001 1.3735282e-38
0.027164372 0.03954092 0.35100001 1.3274304e-38
0.028452504 0.039653569 0.352 1.2536739e-38
0.029663244 0.039653569 0.352 1.2812983e-38
0.030873986 0.039653569 0.352 1.2812983e-38
0.032267027 0.039878875 0.354 1.2720787e-38
0.033484649 0.039878875 0.354 1.1891026e-38
0.03470229 0.039878875 0.354 1.1157428e-38
0.011567431 0.038651843 0.354 1.5303684e-38
0.012785051 0.038651843 0.354 1.5487735e-38
0.013963115 0.038542654 0.35299999 1.62253e-38
0.015177296 0.038542654 0.35299999 1.6317136e-38
0.016345043 0.03843347 0.352 1.6593722e-38
0.017555809 0.03843347 0.352 1.6317489e-38
0.018766548 0.03843347 0.352 1.502675e-38
0.020034043 0.038542654 0.35299999 1.4196611e-38
0.021248223 0.038542654 0.35299999 1.3090263e-38
0.022462405 0.038542654 0.35299999 1.2719326e-38
0.023609515 0.03843347 0.352 1.2073956e-38
0.024749745 0.038324285 0.35100001 1.1244578e-38
0.02595707 0.038324285 0.35100001 1.0967991e-38
0.027628718 0.0389794 0.35699999 1.0597754e-38
0.028856657 0.0389794 0.35699999 9.6757977e-39
0.030084595 0.0389794 0.35699999 9.3080816e-39
0.031575669 0.039306961 0.36000001 1.0230038e-38
0.032905076 0.039416146 0.361 1.1061985e-38
0.033484649 0.038651843 0.354 1.0785398e-38
0.03470229 0.038651843 0.354 1.3187938e-38
0.035919912 0.038651843 0.354 1.7705524e-38
0.010408284 0.03763625 0.35600001 1.5487009e-38
0.011567431 0.03742481 0.354 1.5855792e-38
0.012785051 0.03742481 0.354 1.6040186e-38
0.014002671 0.03742481 0.354 1.5394816e-38
0.015177296 0.03731909 0.35299999 1.4472842e-38
0.016345043 0.03721337 0.352 1.345869e-38
0.017505934 0.03710765 0.35100001 1.2167228e-38
0.018713236 0.03710765 0.35100001 1.1337467e-38
0.020034043 0.03731909 0.35299999 1.0874681e-38
0.021248223 0.03731909 0.35299999 1.0598095e-38
0.022462405 0.03731909 0.35299999 1.1058722e-38
0.023810731 0.03753053 0.35499999 1.0597744e-38
0.025031792 0.03753053 0.35499999 4.5272871e-39
0.026326828 0.03763625 0.35600001 5.8180259e-39
0.027628718 0.03774197 0.35699999 1.0045686e-38
0.028856657 0.03774197 0.35699999 1.0045686e-38
0.030084595 0.03774197 0.35699999 9.8601512e-39
0.031487957 0.03795341 0.359 9.1225861e-39
0.032813929 0.03805913 0.36000001 7.473604e-39
0.033484649 0.03742481 0.354 1.3374124e-38
0.03470229 0.03742481 0.354 1.8531324e-38
0.035919912 0.03742481 0.354 1.8439129e-38
0.010408284 0.036402266 0.35600001 1.4934554e-38
0.011600107 0.036300011 0.35499999 1.3643815e-38
0.012821167 0.036300011 0.35499999 1.2995912e-38
0.014042227 0.036300011 0.35499999 1.1889565e-38
0.015220292 0.036197759 0.354 1.0782842e-38
0.016437912 0.036197759 0.354 1.0321864e-38
0.017505934 0.035891 0.35100001 1.0781785e-38
0.018713236 0.035891 0.35100001 1.0505198e-38
0.020204306 0.036402266 0.35600001 1.1056937e-38
0.021428805 0.036402266 0.35600001 1.1241328e-38
0.022653306 0.036402266 0.35600001 1.1150918e-38
0.023810731 0.036300011 0.35499999 1.0413353e-38
0.025031792 0.036300011 0.35499999 7.1930444e-39
0.026326828 0.036402266 0.35600001 7.5618269e-39
0.027551329 0.036402266 0.35600001 1.0968329e-38
0.028856657 0.036504518 0.35699999 1.1337111e-38
0.030084595 0.036504518 0.35699999 1.1058344e-38
0.031400248 0.036606777 0.35800001 9.7676052e-39
0.032813929 0.036811285 0.36000001 1.6868213e-38
0.034052186 0.036811285 0.36000001 1.9265299e-38
0.034800321 0.036300011 0.35499999 1.8346199e-38
0.036021378 0.036300011 0.35499999 1.8346199e-38
0.012857283 0.035168286 0.35600001 1.0136769e-38
0.014081784 0.035168286 0.35600001 1.0505551e-38
0.016577216 0.03526707 0.35699999 1.1149864e-38
0.01780518 0.03526707 0.35699999 1.1058016e-38
0.019033119 0.03526707 0.35699999 1.0781429e-38
0.020261059 0.03526707 0.35699999 1.0873625e-38
0.021428805 0.035168286 0.35600001 1.0873625e-38
0.022653306 0.035168286 0.35600001 1.1241691e-38
0.023877805 0.035168286 0.35600001 1.1426083e-38
0.025102306 0.035168286 0.35600001 1.2626061e-38
0.026326828 0.035168286 0.35600001 1.2441669e-38
0.027551329 0.035168286 0.35600001 1.3179212e-38
0.028856657 0.03526707 0.35699999 1.3363603e-38
0.030084595 0.03526707 0.35699999 1.1150918e-38
0.031400248 0.035365861 0.35800001 1.1519701e-38
0.032813929 0.035563435 0.36000001 1.6687399e-38
0.034052186 0.035563435 0.36000001 1.8623507e-38
0.014240006 0.034315605 0.36000001 1.0689246e-38
0.015478265 0.034315605 0.36000001 1.0873991e-38
0.016623652 0.034124963 0.35800001 1.1058382e-38
0.017855054 0.034124963 0.35800001 1.1150215e-38
0.019033119 0.03402964 0.35699999 1.0320454e-38
0.020261059 0.03402964 0.35699999 1.0689236e-38
0.021488996 0.03402964 0.35699999 1.0689236e-38
0.022716936 0.03402964 0.35699999 1.2257644e-38
0.023877805 0.033934321 0.35600001 1.2534231e-38
0.025102306 0.033934321 0.35600001 1.3273222e-38
0.026326828 0.033934321 0.35600001 1.3088831e-38
0.027551329 0.033934321 0.35600001 1.3179575e-38
0.028856657 0.03402964 0.35699999 1.2626401e-38
0.030084595 0.03402964 0.35699999 1.4563272e-38
0.031400248 0.034124963 0.35800001 1.4471076e-38
0.032722775 0.034220282 0.359 1.6779579e-38
0.034052186 0.034315605 0.36000001 1.8531296e-38
0.014240006 0.033067774 0.36000001 1.0320831e-38
0.015435268 0.03297592 0.359 1.0505574e-38
0.016623652 0.032884065 0.35800001 1.0597769e-38
0.017855054 0.032884065 0.35800001 1.0873625e-38
0.019086434 0.032884065 0.35800001 1.1426799e-38
0.020261059 0.032792207 0.35699999 1.1795937e-38
0.021488996 0.032792207 0.35699999 1.2625698e-38
0.022716936 0.032792207 0.35699999 1.2994115e-38
0.023877805 0.032700356 0.35600001 1.3455093e-38
0.025102306 0.032700356 0.35600001 1.3640203e-38
0.026326828 0.032700356 0.35600001 1.3455812e-38
0.027628718 0.032792207 0.35699999 1.2810076e-38
0.028856657 0.032792207 0.35699999 1.2441294e-38
0.030084595 0.032792207 0.35699999 1.5577058e-38
0.031487957 0.03297592 0.359 1.4839493e-38
0.032722775 0.03297592 0.359 1.7424233e-38
0.034052186 0.033067774 0.36000001 1.8622776e-38
0.015435268 0.031731538 0.359 1.0229358e-38
0.016623652 0.031643149 0.35800001 1.124351e-38
0.017855054 0.031643149 0.35800001 1.1611556e-38
0.019086434 0.031643149 0.35800001 1.2349121e-38
0.020317813 0.031643149 0.35800001 1.2165789e-38
0.021488996 0.031554759 0.35699999 1.2165789e-38
0.022716936 0.031554759 0.35699999 1.2717525e-38
0.023877805 0.031466372 0.35600001 1.3362894e-38
0.025102306 0.031466372 0.35600001 1.3272124e-38
0.026326828 0.031466372 0.35600001 1.3364319e-38
0.027628718 0.031554759 0.35699999 1.2902988e-38
0.028856657 0.031554759 0.35699999 1.1059076e-38
0.030168869 0.031643149 0.35800001 1.2259051e-38
0.031487957 0.031731538 0.359 1.2535638e-38
0.032722775 0.031731538 0.359 1.8161801e-38
0.034052186 0.031819928 0.36000001 1.8438387e-38
0.016670087 0.030487156 0.359 1.0232251e-38
0.017855054 0.030402234 0.35800001 1.1334632e-38
0.019086434 0.030402234 0.35800001 1.1887806e-38
0.020317813 0.030402234 0.35800001 1.1888861e-38
0.021549191 0.030402234 0.35800001 1.2073253e-38
0.022716936 0.03031731 0.35699999 1.2442023e-38
0.023877805 0.030232389 0.35600001 1.2442023e-38
0.025102306 0.030232389 0.35600001 1.2810417e-38
0.026400778 0.03031731 0.35699999 1.2626026e-38
0.027628718 0.03031731 0.35699999 1.1703353e-38
0.028937489 0.030402234 0.35800001 1.1057984e-38
0.030168869 0.030402234 0.35800001 1.179629e-38
0.031487957 0.030487156 0.359 1.3640203e-38
0.016623652 0.029161336 0.35800001 2.6758411e-39
0.01780518 0.029079879 0.35699999 3.6896231e-39
0.019033119 0.029079879 0.35699999 5.9945138e-39
0.020317813 0.029161336 0.35800001 8.6670955e-39
0.021488996 0.029079879 0.35699999 1.0603204e-38
0.022716936 0.029079879 0.35699999 1.2442053e-38
0.023944875 0.029079879 0.35699999 1.2257662e-38
0.025172815 0.029079879 0.35699999 1.2256184e-38
0.026400778 0.029079879 0.35699999 1.0688858e-38
0.027706111 0.029161336 0.35800001 1.0869647e-38
0.028937489 0.029161336 0.35800001 1.206819e-38
0.030168869 0.029161336 0.35800001 1.0689599e-38
0.031575669 0.029324248 0.36000001 1.151936e-38
0.032905076 0.029405704 0.361 1.2726259e-38
0.016577216 0.027842429 0.35699999 1.3818779e-39
0.01780518 0.027842429 0.35699999 1.1059972e-39
0.019033119 0.027842429 0.35699999 1.1981929e-39
0.020261059 0.027842429 0.35699999 8.3263473e-40
0.021488996 0.027842429 0.35699999 2.5843517e-39
0.022716936 0.027842429 0.35699999 5.8997916e-39
0.023944875 0.027842429 0.35699999 7.6515086e-39
0.025172815 0.027842429 0.35699999 9.8609415e-39
0.026474731 0.027920421 0.35800001 9.492159e-39
0.027706111 0.027920421 0.35800001 9.9509581e-39
0.02901832 0.02799841 0.359 1.0319741e-38
0.03033741 0.028076401 0.36000001 9.0279046e-39
0.031575669 0.028076401 0.36000001 4.8791195e-39
0.032905076 0.02815439 0.361 1.8440387e-40
0.042814609 0.029870171 0.38299999 1.4015178e-38
0.044131979 0.029870171 0.38299999 1.8256177e-38
0.045568042 0.02994816 0.384 1.853059e-38
0.015263287 0.02645595 0.35499999 1.2903885e-39
0.016484348 0.02645595 0.35499999 1.3825841e-39
0.017755305 0.026530474 0.35600001 1.5669754e-39
0.018979806 0.026530474 0.35600001 1.659171e-39
0.020204306 0.026530474 0.35600001 1.0155995e-39
0.021428805 0.026530474 0.35600001 6.4681695e-40
0.022716936 0.026604997 0.35699999 5.5462132e-40
0.023944875 0.026604997 0.35699999 2.7803443e-40
0.025172815 0.026604997 0.35699999 2.3048907e-39
0.026400778 0.026604997 0.35699999 5.2551509e-39
0.027706111 0.026679523 0.35800001 8.1121042e-39
0.028937489 0.026679523 0.35800001 5.6228222e-39
0.03033741 0.02682857 0.36000001 1.7509757e-39
0.031663377 0.026903095 0.361 3.1339101e-39
0.032996222 0.026977617 0.36199999 2.7676864e-39
0.035486523 0.026977617 0.36199999 2.0287116e-39
0.042814609 0.028542617 0.38299999 9.4405478e-41
0.044131979 0.028542617 0.38299999 8.8529903e-39
0.045568042 0.02861714 0.384 1.5862696e-38
0.047010954 0.028691666 0.38499999 1.7614413e-38
0.010379046 0.025225433 0.35499999 1.5658838e-39
0.011600107 0.025225433 0.35499999 1.5658838e-39
0.012785051 0.025154376 0.354 1.2903885e-39
0.014002671 0.025154376 0.354 1.1059972e-39
0.015220292 0.025154376 0.354 8.2941034e-40
0.016484348 0.025225433 0.35499999 1.1981929e-39
0.017755305 0.025296493 0.35600001 9.2412411e-40
0.018979806 0.025296493 0.35600001 9.2412411e-40
0.020204306 0.025296493 0.35600001 1.3825841e-39
0.021428805 0.025296493 0.35600001 1.4747798e-39
0.022716936 0.025367549 0.35699999 1.2904011e-39
0.023944875 0.025367549 0.35699999 1.1982055e-39
0.025172815 0.025367549 0.35699999 1.6584648e-39
0.026400778 0.025367549 0.35699999 1.2896822e-39
0.027706111 0.025438607 0.35800001 1.1996096e-39
0.028937489 0.025438607 0.35800001 3.6985311e-40
0.030168869 0.025438607 0.35800001 1.1059972e-39
0.041605592 0.027286103 0.384 6.4648344e-40
0.042926401 0.027286103 0.384 8.2942015e-40
0.04424721 0.027286103 0.384 1.821688e-44
0.045568042 0.027286103 0.384 1.0188757e-39
0.047010954 0.027357163 0.38499999 1.1344786e-38
0.048586298 0.027499275 0.38699999 1.9174871e-38
0.05004641 0.027570333 0.38800001 1.8252914e-38
0.010379046 0.023994917 0.35499999 1.1981929e-39
0.011600107 0.023994917 0.35499999 1.1059972e-39
0.012748934 0.023859734 0.35299999 8.2976067e-40
0.013963115 0.023859734 0.35299999 8.2976067e-40
0.015220292 0.023927325 0.354 7.3721471e-40
0.016484348 0.023994917 0.35499999 9.2160597e-40
0.017755305 0.024062509 0.35600001 9.2160597e-40
0.018979806 0.024062509 0.35600001 1.1059972e-39
0.020204306 0.024062509 0.35600001 1.1060098e-39
0.021428805 0.024062509 0.35600001 1.2904011e-39
0.022716936 0.024130099 0.35699999 1.4740735e-39
0.023944875 0.024130099 0.35699999 1.7506604e-39
0.025172815 0.024130099 0.35699999 1.4762441e-39
0.026400778 0.024130099 0.35699999 1.1996572e-39
0.027628718 0.024130099 0.35699999 1.1059972e-39
0.028856657 0.024130099 0.35699999 7.3721471e-40
0.030084595 0.024130099 0.35699999 3.6842939e-40
0.031312536 0.024130099 0.35699999 7.3721191e-40
0.040284783 0.025955066 0.384 1.3818779e-39
0.041605592 0.025955066 0.384 1.105291e-39
0.042926401 0.025955066 0.384 9.2377659e-40
0.04424721 0.025955066 0.384 1.2003635e-39
0.045568042 0.025955066 0.384 3.706e-40
0.047010954 0.026022658 0.38499999 3.7694929e-43
0.048586298 0.026157839 0.38699999 1.5303749e-38
0.05004641 0.026225431 0.38800001 2.1204269e-38
0.012748934 0.022636166 0.35299999 6.4536941e-40
0.013963115 0.022636166 0.35299999 6.4536941e-40
0.015220292 0.022700293 0.354 6.4501908e-40
0.016484348 0.022764416 0.35499999 6.4501908e-40
0.017755305 0.022828544 0.35600001 7.3721471e-40
0.019033119 0.022892667 0.35699999 6.4501908e-40
0.020261059 0.022892667 0.35699999 6.4501908e-40
0.021488996 0.022892667 0.35699999 9.2160597e-40
0.022716936 0.022892667 0.35699999 1.1059972e-39
0.023944875 0.022892667 0.35699999 1.3825841e-39
0.025172815 0.022892667 0.35699999 1.842856e-39
0.026400778 0.022892667 0.35699999 1.0130953e-39
0.027628718 0.022892667 0.35699999 6.4536941e-40
0.028856657 0.022892667 0.35699999 3.6878252e-40
0.030084595 0.022892667 0.35699999 1.8511713e-40
0.031312536 0.022892667 0.35699999 4.6170402e-40
0.040284783 0.024624046 0.384 1.1985432e-39
0.041605592 0.024624046 0.384 9.219563e-40
0.042926401 0.024624046 0.384 5.5499126e-40
0.04424721 0.024624046 0.384 7.3938252e-40
0.045568042 0.024624046 0.384 1.0159722e-39
0.047010954 0.024688173 0.38499999 1.8621155e-40
0.048586298 0.024816422 0.38699999 1.793662e-42
0.05004641 0.024880547 0.38800001 1.9732016e-38
0.051380981 0.024880547 0.38800001 2.332621e-38
0.053259004 0.025137046 0.39199999 1.5120799e-38
0.012785051 0.021473261 0.354 6.4501908e-40
0.014002671 0.021473261 0.354 4.6062782e-40
0.015220292 0.021473261 0.354 4.6062782e-40
0.016577216 0.021655235 0.35699999 5.5282345e-40
0.01780518 0.021655235 0.35699999 4.6097815e-40
0.019033119 0.021655235 0.35699999 4.6097815e-40
0.020261059 0.021655235 0.35699999 4.6062782e-40
0.021488996 0.021655235 0.35699999 6.4501908e-40
0.022716936 0.021655235 0.35699999 6.4536941e-40
0.023944875 0.021655235 0.35699999 6.4536941e-40
0.025172815 0.021655235 0.35699999 6.4536941e-40
0.026400778 0.021655235 0.35699999 4.6097815e-40
0.027473936 0.021533918 0.35499999 4.6097815e-40
0.028694995 0.021533918 0.35499999 2.7658689e-40
0.030084595 0.021655235 0.35699999 2.766023e-40
0.034525134 0.022140509 0.36500001 1.4769476e-39
0.035780612 0.022140509 0.36500001 2.0279535e-39
0.041605592 0.023293028 0.384 9.219563e-40
0.042926401 0.023293028 0.384 9.2160597e-40
0.04424721 0.023293028 0.384 1.1059972e-39
0.045568042 0.023293028 0.384 1.1981929e-39
0.047010954 0.023353688 0.38499999 1.3825841e-39
0.048586298 0.023475004 0.38699999 2.8025969e-45
0.05004641 0.023535665 0.38800001 7.8369915e-39
0.051380981 0.023535665 0.38800001 2.3322585e-38
0.052851412 0.023596322 0.389 1.9173782e-38
0.011469401 0.020074632 0.35100001 5.5282345e-40
0.012676704 0.020074632 0.35100001 6.4501908e-40
0.014160894 0.020474982 0.35800001 6.4501908e-40
0.015392273 0.020474982 0.35800001 5.5317378e-40
0.016623652 0.020474982 0.35800001 4.6097815e-40
0.017855054 0.020474982 0.35800001 2.7695263e-40
0.019086434 0.020474982 0.35800001 2.7695263e-40
0.020317813 0.020474982 0.35800001 2.7658689e-40
0.021549191 0.020474982 0.35800001 3.6878252e-40
0.022780571 0.020474982 0.35800001 3.6878252e-40
0.024011949 0.020474982 0.35800001 3.6878252e-40
0.025243329 0.020474982 0.35800001 2.7695263e-40
0.026252875 0.020303402 0.35499999 2.7695263e-40
0.027473936 0.020303402 0.35499999 3.6842939e-40
0.028694995 0.020303402 0.35499999 6.4501628e-40
0.029916056 0.020303402 0.35499999 5.5462132e-40
0.034525134 0.020875331 0.36500001 1.842856e-39
0.035780612 0.020875331 0.36500001 1.2929094e-39
0.041605592 0.021961991 0.384 8.2976067e-40
0.042926401 0.021961991 0.384 9.2160597e-40
0.04424721 0.021961991 0.384 9.2160597e-40
0.045568042 0.021961991 0.384 8.3120821e-40
0.047010954 0.022019183 0.38499999 9.2340384e-40
0.048460752 0.022076376 0.38600001 3.6879793e-40
0.05004641 0.022190761 0.38800001 9.2211044e-41
0.051380981 0.022190761 0.38800001 1.7702255e-38
0.052851412 0.022247953 0.389 2.1758862e-38
0.054607328 0.022419531 0.39199999 1.3274739e-38
0.056241166 0.022533916 0.39399999 6.7288489e-39
0.057742558 0.02259111 0.39500001 2.120138e-38
0.0090547753 0.01885798 0.35100001 4.6242569e-40
0.0102621 0.01885798 0.35100001 7.3721471e-40
0.011469401 0.01885798 0.35100001 8.2941034e-40
0.012676704 0.01885798 0.35100001 8.2941034e-40
0.014160894 0.019234065 0.35800001 7.3721471e-40
0.015392273 0.019234065 0.35800001 6.4501908e-40
0.016623652 0.019234065 0.35800001 4.6062782e-40
0.017855054 0.019234065 0.35800001 3.6842939e-40
0.019139748 0.019287791 0.359 3.6842939e-40
0.020374566 0.019287791 0.359 3.6842939e-40
0.021609385 0.019287791 0.359 3.6842939e-40
0.022844203 0.019287791 0.359 3.6842939e-40
0.023877805 0.019126613 0.35600001 4.6062502e-40
0.025102306 0.019126613 0.35600001 4.6062782e-40
0.026400778 0.019180339 0.35699999 6.4501908e-40
0.027938284 0.019395245 0.361 7.3721471e-40
0.029179981 0.019395245 0.361 1.1059972e-39
0.030421678 0.019395245 0.361 7.3938533e-40
0.031663377 0.019395245 0.361 8.3158096e-40
0.032996222 0.01944897 0.36199999 1.2003635e-39
0.034335952 0.019502698 0.36300001 1.2925591e-39
0.035584554 0.019502698 0.36300001 1.4747798e-39
0.037036069 0.019610152 0.36500001 1.1981929e-39
0.038291525 0.019610152 0.36500001 7.3721471e-40
0.041605592 0.020630952 0.384 7.3721471e-40
0.042926401 0.020630952 0.384 9.2160597e-40
0.04424721 0.020630952 0.384 8.2941034e-40
0.045686707 0.02068468 0.38499999 9.2160597e-40
0.047133062 0.020738406 0.38600001 9.2160597e-40
0.048460752 0.020738406 0.38600001 1.8476681e-40
0.05004641 0.020845858 0.38800001 1.4755056e-39
0.051380981 0.020845858 0.38800001 1.5857613e-38
0.052851412 0.020899585 0.389 1.9176656e-38
0.054607328 0.021060763 0.39199999 1.6408639e-38
0.056241166 0.021168217 0.39399999 9.1978989e-40
0.057742558 0.021221945 0.39500001 1.447321e-38
0.05940045 0.021329397 0.39700001 1.8345427e-38
0.0090289777 0.017591087 0.34999999 9.2160597e-40
0.010232862 0.017591087 0.34999999 8.3120821e-40
0.011436725 0.017591087 0.34999999 9.2340384e-40
0.012640587 0.017591087 0.34999999 9.2340384e-40
0.013884005 0.017641345 0.35100001 9.2340384e-40
0.015091307 0.017641345 0.35100001 8.3120821e-40
0.016298609 0.017641345 0.35100001 6.4681695e-40
0.017505934 0.017641345 0.35100001 6.4681695e-40
0.018766548 0.017691605 0.352 5.5462132e-40
0.020034043 0.017741865 0.35299999 5.5462132e-40
0.021248223 0.017741865 0.35299999 6.4681695e-40
0.022526039 0.017792126 0.354 9.2160597e-40
0.023877805 0.017892648 0.35600001 1.1059972e-39
0.025102306 0.017892648 0.35600001 8.3120821e-40
0.026400778 0.017942907 0.35699999 5.5462132e-40
0.027783502 0.018043427 0.359 8.3120821e-40
0.029099153 0.018093688 0.36000001 9.2340384e-40
0.03033741 0.018093688 0.36000001 1.2903885e-39
0.031663377 0.018143948 0.361 1.2903885e-39
0.032905076 0.018143948 0.361 1.3825841e-39
0.034335952 0.01824447 0.36300001 1.5669754e-39
0.035584554 0.01824447 0.36300001 1.2903885e-39
0.037036069 0.018344989 0.36500001 9.2160597e-40
0.038291525 0.018344989 0.36500001 7.3721471e-40
0.041605592 0.019299934 0.384 8.2941034e-40
0.042926401 0.019299934 0.384 4.6242569e-40
0.04424721 0.019299934 0.384 5.5462132e-40
0.045686707 0.019350195 0.38499999 8.2941034e-40
0.047133062 0.019400455 0.38600001 8.2941034e-40
0.048586298 0.019450713 0.38699999 1.8439406e-40
0.05004641 0.019500975 0.38800001 4.6097843e-39
0.051380981 0.019500975 0.38800001 1.4844553e-38
0.052851412 0.019551234 0.389 1.5397727e-38
0.054607328 0.019702015 0.39199999 1.3551617e-38
0.056241166 0.019802535 0.39399999 7.3647763e-40
0.057742558 0.019852797 0.39500001 9.2158916e-39
0.05940045 0.019953318 0.39700001 1.1336391e-38
0.0078027579 0.016331106 0.34900001 9.2160597e-40
0.0090031801 0.016331106 0.34900001 1.1059972e-39
0.010203626 0.016331106 0.34900001 1.1981929e-39
0.011436725 0.016377902 0.34999999 1.1981929e-39
0.012640587 0.016377902 0.34999999 1.2903885e-39
0.013884005 0.016424695 0.35100001 1.2903885e-39
0.015091307 0.016424695 0.35100001 1.1982055e-39
0.016298609 0.016424695 0.35100001 1.1982055e-39
0.017505934 0.016424695 0.35100001 1.0155995e-39
0.018766548 0.016471487 0.352 1.0155995e-39
0.020034043 0.01651828 0.35299999 9.2340384e-40
0.021248223 0.01651828 0.35299999 1.1077951e-39
0.022526039 0.016565075 0.354 1.0159722e-39
0.023877805 0.016658664 0.35600001 1.0159722e-39
0.025102306 0.016658664 0.35600001 1.2003635e-39
0.026326828 0.016658664 0.35600001 6.471897e-40
0.027783502 0.016799046 0.359 9.2340384e-40
0.029099153 0.016845841 0.36000001 1.1077951e-39
0.03033741 0.016845841 0.36000001 9.2377659e-40
0.031663377 0.016892634 0.361 8.3158096e-40
0.032905076 0.016892634 0.361 1.200711e-39
0.03424136 0.016939428 0.36199999 1.1085154e-39
0.035584554 0.016986223 0.36300001 1.2907388e-39
0.036934599 0.017033016 0.36399999 1.1063476e-39
0.038186617 0.017033016 0.36399999 8.2941034e-40
0.041713934 0.01801569 0.38499999 9.2160597e-40
0.043038182 0.01801569 0.38499999 8.2941034e-40
0.044362433 0.01801569 0.38499999 8.2941034e-40
0.045805376 0.018062484 0.38600001 8.2941034e-40
0.047133062 0.018062484 0.38600001 9.2160597e-40
0.048586298 0.018109277 0.38699999 2.8025969e-45
0.05004641 0.018156072 0.38800001 8.5745565e-39
0.051513404 0.018202865 0.389 1.4107363e-38
0.05298727 0.018249659 0.38999999 1.438395e-38
0.054607328 0.018343247 0.39199999 9.6783187e-39
0.056241166 0.018436836 0.39399999 1.1963726e-39
0.057742558 0.018483631 0.39500001 7.4641914e-39
0.059250824 0.018530425 0.396 6.818822e-39
0.0078027579 0.015121404 0.34900001 1.1059972e-39
0.0090031801 0.015121404 0.34900001 1.1981929e-39
0.010203626 0.015121404 0.34900001 9.2340384e-40
0.011436725 0.015164733 0.34999999 9.2340384e-40
0.012640587 0.015164733 0.34999999 1.2903885e-39
0.013884005 0.01520806 0.35100001 1.2903885e-39
0.015091307 0.01520806 0.35100001 1.2903885e-39
0.016298609 0.01520806 0.35100001 1.3825841e-39
0.017555809 0.015251387 0.352 9.2412411e-40
0.018766548 0.015251387 0.352 8.3192848e-40
0.020034043 0.015294714 0.35299999 1.1982055e-39
0.021248223 0.015294714 0.35299999 1.2904011e-39
0.022526039 0.015338043 0.354 1.0159722e-39
0.023810731 0.01538137 0.35499999 1.2003635e-39
0.025031792 0.01538137 0.35499999 1.7506604e-39
0.026326828 0.015424699 0.35600001 1.3818779e-39
0.027706111 0.015511354 0.35800001 1.0155995e-39
0.02901832 0.015554681 0.359 1.384382e-39
0.03033741 0.01559801 0.36000001 1.3825841e-39
0.031575669 0.01559801 0.36000001 1.4747798e-39
0.032905076 0.015641337 0.361 1.200711e-39
0.03424136 0.015684664 0.36199999 1.200711e-39
0.035486523 0.015684664 0.36199999 1.2903885e-39
0.036934599 0.01577132 0.36399999 8.2941034e-40
0.038186617 0.01577132 0.36399999 6.4681695e-40
0.041713934 0.016681205 0.38499999 5.5462132e-40
0.043038182 0.016681205 0.38499999 6.4681695e-40
0.044362433 0.016681205 0.38499999 6.4681695e-40
0.045805376 0.016724532 0.38600001 6.4681695e-40
0.04725517 0.016767859 0.38699999 3.7023006e-40
0.048586298 0.016767859 0.38699999 1.1238414e-42
0.05004641 0.016811188 0.38800001 1.2263143e-38
0.051513404 0.016854515 0.389 1.3644931e-38
0.05298727 0.016897842 0.38999999 1.4198105e-38
0.054746635 0.017027827 0.39300001 3.1403435e-39
0.056241166 0.017071156 0.39399999 3.9460565e-42
0.057888743 0.017157812 0.396 7.7414972e-39
0.059250824 0.017157812 0.396 8.294671e-39
0.0090031801 0.013911685 0.34900001 8.3120821e-40
0.010203626 0.013911685 0.34900001 6.4681695e-40
0.011436725 0.013951547 0.34999999 9.2340384e-40
0.012640587 0.013951547 0.34999999 1.0155995e-39
0.013884005 0.013991408 0.35100001 1.0155995e-39
0.015091307 0.013991408 0.35100001 1.1059972e-39
0.016298609 0.013991408 0.35100001 1.2903885e-39
0.017555809 0.014031269 0.352 1.2903885e-39
0.018819861 0.01407113 0.35299999 1.1981929e-39
0.020034043 0.01407113 0.35299999 1.1059972e-39
0.021248223 0.01407113 0.35299999 1.1981929e-39
0.022526039 0.014110993 0.354 1.0155995e-39
0.023810731 0.014150853 0.35499999 1.0155995e-39
0.025031792 0.014150853 0.35499999 1.4740735e-39
0.026326828 0.014190716 0.35600001 1.1974866e-39
0.027706111 0.014270439 0.35800001 5.5497165e-40
0.02901832 0.0143103 0.359 1.1081454e-39
0.03033741 0.014350163 0.36000001 1.2903885e-39
0.031575669 0.014350163 0.36000001 1.3825841e-39
0.032813929 0.014350163 0.36000001 1.200711e-39
0.034146771 0.014390023 0.361 8.3192848e-40
0.035388492 0.014390023 0.361 1.1981929e-39
0.036630191 0.014390023 0.361 9.2160597e-40
0.040389687 0.015346701 0.38499999 5.5462132e-40
0.041713934 0.015346701 0.38499999 4.6242569e-40
0.043038182 0.015346701 0.38499999 5.5462132e-40
0.04447766 0.015386563 0.38600001 6.4681695e-40
0.045805376 0.015386563 0.38600001 9.2160597e-40
0.04725517 0.015426423 0.38699999 9.1845305e-41
0.048711844 0.015466286 0.38800001 3.8780262e-39
0.05004641 0.015466286 0.38800001 1.2083437e-38
0.051645827 0.015546008 0.38999999 1.3000638e-38
0.053123139 0.01558587 0.391 1.1802094e-38
0.054885935 0.015705455 0.39399999 1.0761972e-42
0.056383915 0.015745318 0.39500001 9.3630559e-41
0.057888743 0.015785178 0.396 5.8130064e-39
0.05940045 0.015825041 0.39700001 9.8696141e-39
0.0102621 0.012774756 0.35100001 1.1060098e-39
0.011469401 0.012774756 0.35100001 1.1982055e-39
0.012676704 0.012774756 0.35100001 9.2412411e-40
0.013884005 0.012774756 0.35100001 8.3192848e-40
0.015091307 0.012774756 0.35100001 1.1063476e-39
0.016298609 0.012774756 0.35100001 1.3829344e-39
0.017555809 0.012811151 0.352 1.0155995e-39
0.018819861 0.012847546 0.35299999 9.2340384e-40
0.020034043 0.012847546 0.35299999 8.3120821e-40
0.021248223 0.012847546 0.35299999 9.2340384e-40
0.022526039 0.012883942 0.354 1.0155995e-39
0.023810731 0.012920337 0.35499999 1.0155995e-39
0.025031792 0.012920337 0.35499999 1.2904011e-39
0.026326828 0.012956733 0.35600001 1.1982055e-39
0.027628718 0.012993128 0.35699999 8.3155853e-40
0.028937489 0.013029524 0.35800001 1.1081454e-39
0.030253138 0.013065918 0.359 1.4747798e-39
0.031575669 0.013102314 0.36000001 1.659171e-39
0.032813929 0.013102314 0.36000001 1.5669754e-39
0.034146771 0.01313871 0.361 1.3825841e-39
0.035388492 0.01313871 0.361 2.7803163e-40
0.040389687 0.014012198 0.38499999 2.7695263e-40
0.041713934 0.014012198 0.38499999 7.3793078e-40
0.043149974 0.014048592 0.38600001 9.2160597e-40
0.04447766 0.014048592 0.38600001 9.2160597e-40
0.045805376 0.014048592 0.38600001 4.6062782e-40
0.04725517 0.014084987 0.38699999 3.6843219e-40
0.048711844 0.014121383 0.38800001 9.5916175e-39
0.050304379 0.014194173 0.38999999 1.2265291e-38
0.051778253 0.014230569 0.391 1.3827151e-38
0.053259004 0.014266964 0.39199999 6.0827185e-39
0.055025242 0.01437615 0.39500001 1.4349296e-42
0.056526657 0.014412546 0.396 8.5756285e-39
0.057888743 0.014412546 0.396 1.5767983e-38
0.05940045 0.014448942 0.39700001 1.668994e-38
0.0078698304 0.011591051 0.352 1.1063476e-39
0.0090547753 0.011558122 0.35100001 1.1985432e-39
0.0102621 0.011558122 0.35100001 1.2903885e-39
0.011469401 0.011558122 0.35100001 1.3825841e-39
0.012676704 0.011558122 0.35100001 9.2377659e-40
0.013884005 0.011558122 0.35100001 9.2377659e-40
0.015091307 0.011558122 0.35100001 9.2377659e-40
0.016298609 0.011558122 0.35100001 8.3158096e-40
0.017605681 0.01162398 0.35299999 1.1981929e-39
0.018819861 0.01162398 0.35299999 1.1059972e-39
0.020034043 0.01162398 0.35299999 1.1059972e-39
0.021308418 0.011656909 0.354 1.1981929e-39
0.02258967 0.011689838 0.35499999 7.3938533e-40
0.023810731 0.011689838 0.35499999 7.3938533e-40
0.025102306 0.011722768 0.35600001 1.2903885e-39
0.026400778 0.011755696 0.35699999 1.1981929e-39
0.027628718 0.011755696 0.35699999 1.1981929e-39
0.028937489 0.011788626 0.35800001 1.3825841e-39
0.030253138 0.011821555 0.359 1.0163197e-39
0.031575669 0.011854485 0.36000001 1.0163197e-39
0.032813929 0.011854485 0.36000001 1.2903885e-39
0.034146771 0.011887413 0.361 3.6843219e-40
0.040494598 0.012710641 0.38600001 1.0119841e-39
0.041822284 0.012710641 0.38600001 5.5101298e-40
0.043149974 0.012710641 0.38600001 9.2194229e-41
0.04447766 0.012710641 0.38600001 0
0.045924041 0.01274357 0.38699999 1.4475413e-42
0.047377277 0.0127765 0.38800001 6.7317285e-39
0.048962932 0.012842357 0.38999999 1.3183625e-38
0.050433367 0.012875287 0.391 1.2999233e-38
0.051910676 0.012908216 0.39199999 9.0325233e-39
0.053259004 0.012908216 0.39199999 1.656985e-39
0.055025242 0.013007004 0.39500001 2.7846519e-39
0.0066590891 0.01037095 0.352 8.2941034e-40
0.0078698304 0.01037095 0.352 9.2340384e-40
0.0090547753 0.010341488 0.35100001 9.2340384e-40
0.0102621 0.010341488 0.35100001 1.1981929e-39
0.011469401 0.010341488 0.35100001 1.2903885e-39
0.012676704 0.010341488 0.35100001 9.2412411e-40
0.013884005 0.010341488 0.35100001 7.3973285e-40
0.015091307 0.010341488 0.35100001 1.2904011e-39
0.016345043 0.01037095 0.352 1.1982055e-39
0.017605681 0.010400413 0.35299999 1.1981929e-39
0.018819861 0.010400413 0.35299999 1.1981929e-39
0.020090798 0.010429876 0.354 9.2340384e-40
0.021308418 0.010429876 0.354 1.0155995e-39
0.02258967 0.010459338 0.35499999 1.1982055e-39
0.023810731 0.010459338 0.35499999 1.1060098e-39
0.025102306 0.010488803 0.35600001 1.2903885e-39
0.026400778 0.010518265 0.35699999 1.1981929e-39
0.027706111 0.010547728 0.35800001 6.4716727e-40
0.028937489 0.010547728 0.35800001 1.1081454e-39
0.030253138 0.010577191 0.359 1.2003635e-39
0.031487957 0.010577191 0.359 1.3847547e-39
0.032813929 0.010606654 0.36000001 1.8476681e-40
0.0054638255 0.0091768289 0.35299999 2.7588064e-40
0.0066590891 0.009150832 0.352 1.2900326e-39
0.0078698304 0.009150832 0.352 9.2412411e-40
0.0090805721 0.009150832 0.352 9.2412411e-40
0.010291336 0.009150832 0.352 1.2903885e-39
0.011502078 0.009150832 0.352 1.2903885e-39
0.01271282 0.009150832 0.352 9.2377659e-40
0.013923561 0.009150832 0.352 7.3938533e-40
0.015134302 0.009150832 0.352 9.2412411e-40
0.016391477 0.0091768289 0.35299999 8.3192848e-40
0.017605681 0.0091768289 0.35299999 9.2340384e-40
0.018873177 0.0092028258 0.354 1.0155995e-39
0.020090798 0.0092028258 0.354 8.3158096e-40
0.021308418 0.0092028258 0.354 9.2377659e-40
0.02258967 0.0092288218 0.35499999 1.0159722e-39
0.023810731 0.0092288218 0.35499999 9.2377659e-40
0.025102306 0.0092548188 0.35600001 1.3818779e-39
0.026400778 0.0092808157 0.35699999 1.2896822e-39
0.027628718 0.0092808157 0.35699999 1.1059972e-39
0.028937489 0.0093068127 0.35800001 1.3825841e-39
0.030253138 0.0093328087 0.359 1.2925591e-39
0.031487957 0.0093328087 0.359 1.4769504e-39
0.0054638255 0.0079532443 0.35299999 1.8476681e-40
0.0066590891 0.0079307146 0.352 1.2911144e-39
0.0078698304 0.0079307146 0.352 1.2903885e-39
0.0090805721 0.0079307146 0.352 1.3825841e-39
0.010291336 0.0079307146 0.352 9.2412411e-40
0.011502078 0.0079307146 0.352 8.3192848e-40
0.01271282 0.0079307146 0.352 9.2412411e-40
0.013923561 0.0079307146 0.352 8.3192848e-40
0.015177296 0.0079532443 0.35299999 9.2412411e-40
0.016391477 0.0079532443 0.35299999 9.2412411e-40
0.017655557 0.0079757748 0.354 1.2903885e-39
0.018873177 0.0079757748 0.354 1.1981929e-39
0.020090798 0.0079757748 0.354 1.1060098e-39
0.021368612 0.0079983054 0.35499999 1.2904011e-39
0.02258967 0.0079983054 0.35499999 1.0159722e-39
0.023810731 0.0079983054 0.35499999 9.2377659e-40
0.025102306 0.0080208359 0.35600001 1.4740735e-39
0.026400778 0.0080433665 0.35699999 1.2896822e-39
0.027628718 0.0080433665 0.35699999 9.2340384e-40
0.028937489 0.008065897 0.35800001 1.1999907e-39
0.030253138 0.0080884276 0.359 1.4769504e-39
0.031487957 0.0080884276 0.359 1.3847547e-39
0.0066590891 0.0067106136 0.352 1.4758588e-39
0.0078698304 0.0067106136 0.352 1.3825841e-39
0.0090805721 0.0067106136 0.352 1.3825841e-39
0.010291336 0.0067106136 0.352 9.2412411e-40
0.011502078 0.0067106136 0.352 8.3192848e-40
0.012748934 0.0067296778 0.35299999 9.2412411e-40
0.013963115 0.0067296778 0.35299999 9.2412411e-40
0.015177296 0.0067296778 0.35299999 1.2903885e-39
0.016391477 0.0067296778 0.35299999 1.3825841e-39
0.017655557 0.0067487424 0.354 1.2903885e-39
0.018873177 0.0067487424 0.354 1.2903885e-39
0.020090798 0.0067487424 0.354 1.1982055e-39
0.021368612 0.0067678061 0.35499999 1.2904011e-39
0.02258967 0.0067678061 0.35499999 9.2412411e-40
0.023810731 0.0067678061 0.35499999 9.2412411e-40
0.025102306 0.0067868708 0.35600001 9.2377659e-40
0.026400778 0.0068059349 0.35699999 9.2377659e-40
0.027628718 0.0068059349 0.35699999 1.0155995e-39
0.028937489 0.0068249996 0.35800001 1.384382e-39
0.03033741 0.0068631284 0.36000001 1.3847547e-39
0.031575669 0.0068631284 0.36000001 2.0301241e-39
0.032813929 0.0068631284 0.36000001 2.8025969e-45
0.0066780066 0.0055060936 0.35299999 1.3832974e-39
0.0078921877 0.0055060936 0.35299999 1.2903885e-39
0.0091063688 0.0055060936 0.35299999 1.2903885e-39
0.010320572 0.0055060936 0.35299999 1.2903885e-39
0.011534753 0.0055060936 0.35299999 1.2903885e-39
0.012785051 0.0055216919 0.354 1.2903885e-39
0.014002671 0.0055216919 0.354 1.2903885e-39
0.015220292 0.0055216919 0.354 1.2903885e-39
0.016437912 0.0055216919 0.354 1.2903885e-39
0.017655557 0.0055216919 0.354 1.2903885e-39
0.01892649 0.0055372897 0.35499999 1.3825841e-39
0.020147551 0.0055372897 0.35499999 1.2904011e-39
0.021368612 0.0055372897 0.35499999 1.1982055e-39
0.02258967 0.0055372897 0.35499999 1.2904011e-39
0.023810731 0.0055372897 0.35499999 1.2904011e-39
0.025102306 0.0055528879 0.35600001 1.2903885e-39
0.026400778 0.0055684857 0.35699999 1.1981929e-39
0.027628718 0.0055684857 0.35699999 9.2412411e-40
0.028937489 0.005584084 0.35800001 1.3851023e-39
0.03033741 0.0056152805 0.36000001 1.8460804e-39
0.031575669 0.0056152805 0.36000001 2.0304717e-39
0.032813929 0.0056152805 0.36000001 7.286752e-43
0.006696925 0.004294659 0.354 1.2918206e-39
0.007914545 0.004294659 0.354 1.2903885e-39
0.0091321664 0.004294659 0.354 1.3825841e-39
0.01034981 0.004294659 0.354 9.2412411e-40
0.011567431 0.004294659 0.354 7.3973285e-40
0.012785051 0.004294659 0.354 9.2377659e-40
0.014002671 0.004294659 0.354 9.2377659e-40
0.015220292 0.004294659 0.354 9.2377659e-40
0.016437912 0.004294659 0.354 6.471897e-40
0.017705431 0.0043067904 0.35499999 9.2340384e-40
0.01892649 0.0043067904 0.35499999 1.1077951e-39
0.020147551 0.0043067904 0.35499999 9.2412411e-40
0.021368612 0.0043067904 0.35499999 6.4753722e-40
0.022653306 0.0043189228 0.35600001 9.2377659e-40
0.023877805 0.0043189228 0.35600001 8.3158096e-40
0.025102306 0.0043189228 0.35600001 9.2377659e-40
0.026400778 0.0043310542 0.35699999 7.3938533e-40
0.027628718 0.0043310542 0.35699999 8.3158096e-40
0.028937489 0.0043431865 0.35800001 1.2003635e-39
0.030253138 0.0043553179 0.359 1.8460804e-39
0.031575669 0.0043674503 0.36000001 2.3070586e-39
0.032813929 0.0043674503 0.36000001 3.69521e-40
0.0042737224 0.0030762739 0.35499999 1.2070995e-38
0.0054947822 0.0030762739 0.35499999 9.5808177e-41
0.006696925 0.0030676085 0.354 6.4898196e-40
0.007914545 0.0030676085 0.354 1.2903885e-39
0.0091321664 0.0030676085 0.354 1.2903885e-39
0.01034981 0.0030676085 0.354 9.2377659e-40
0.011567431 0.0030676085 0.354 8.3158096e-40
0.012785051 0.0030676085 0.354 1.2904011e-39
0.014042227 0.0030762739 0.35499999 1.1982055e-39
0.015263287 0.0030762739 0.35499999 1.2903885e-39
0.016484348 0.0030762739 0.35499999 1.3825841e-39
0.017705431 0.0030762739 0.35499999 1.2904011e-39
0.01892649 0.0030762739 0.35499999 1.2904011e-39
0.020204306 0.0030849397 0.35600001 1.2903885e-39
0.021428805 0.0030849397 0.35600001 1.1981929e-39
0.022653306 0.0030849397 0.35600001 7.3938533e-40
0.023877805 0.0030849397 0.35600001 8.3158096e-40
0.025102306 0.0030849397 0.35600001 9.2340384e-40
0.026400778 0.0030936052 0.35699999 9.2340384e-40
0.027628718 0.0030936052 0.35699999 1.0155995e-39
0.028937489 0.0031022709 0.35800001 1.1999907e-39
0.030253138 0.0031109364 0.359 2.3038342e-39
0.031487957 0.0031109364 0.359 2.7648123e-39
0.0042737224 0.0018457574 0.35499999 9.3629158e-41
0.0054947822 0.0018457574 0.35499999 9.2161578e-40
0.006696925 0.0018405581 0.354 1.1982027e-39
0.007914545 0.0018405581 0.354 9.2412411e-40
0.0091321664 0.0018405581 0.354 9.2412411e-40
0.01034981 0.0018405581 0.354 1.2903885e-39
0.011567431 0.0018405581 0.354 1.1981929e-39
0.012785051 0.0018405581 0.354 1.2903885e-39
0.014042227 0.0018457574 0.35499999 1.1981929e-39
0.015263287 0.0018457574 0.35499999 1.1982055e-39
0.016484348 0.0018457574 0.35499999 1.3825967e-39
0.017705431 0.0018457574 0.35499999 9.2412411e-40
0.01892649 0.0018457574 0.35499999 9.2412411e-40
0.020204306 0.0018509568 0.35600001 1.2903885e-39
0.021428805 0.0018509568 0.35600001 1.2903885e-39
0.022653306 0.0018509568 0.35600001 8.3158096e-40
0.023877805 0.0018509568 0.35600001 7.3938533e-40
0.025172815 0.001856156 0.35699999 9.2340384e-40
0.026400778 0.001856156 0.35699999 9.2340384e-40
0.027628718 0.001856156 0.35699999 8.3120821e-40
0.028937489 0.0018613555 0.35800001 1.1999907e-39
0.030253138 0.0018665547 0.359 1.8457329e-39
0.031487957 0.0018665547 0.359 2.306711e-39
0.0042857612 0.00061699149 0.35600001 1.3832974e-39
0.0054947822 0.00061525829 0.35499999 1.2903885e-39
0.006696925 0.00061352522 0.354 1.2903885e-39
0.007914545 0.00061352522 0.354 1.2903885e-39
0.0091321664 0.00061352522 0.354 1.2903885e-39
0.01034981 0.00061352522 0.354 9.2412411e-40
0.011567431 0.00061352522 0.354 7.3973285e-40
0.012785051 0.00061352522 0.354 9.2412411e-40
0.014042227 0.00061525829 0.35499999 8.3192848e-40
0.015263287 0.00061525829 0.35499999 1.2903885e-39
0.016530784 0.00061699149 0.35600001 1.2903885e-39
0.017755305 0.00061699149 0.35600001 1.2903885e-39
0.018979806 0.00061699149 0.35600001 1.3825841e-39
0.020204306 0.00061699149 0.35600001 9.2377659e-40
0.021428805 0.00061699149 0.35600001 9.2377659e-40
0.022653306 0.00061699149 0.35600001 9.2377659e-40
0.023944875 0.00061872456 0.35699999 8.3158096e-40
0.025172815 0.00061872456 0.35699999 1.0155995e-39
0.026400778 0.00061872456 0.35699999 1.0155995e-39
0.027628718 0.00061872456 0.35699999 9.2377659e-40
0.028937489 0.00062045769 0.35800001 1.2925591e-39
0.030253138 0.00062219083 0.359 1.7535373e-39
0.031575669 0.00062392396 0.36000001 2.306711e-39
0.0042857612 -0.00061699149 0.35600001 1.3832974e-39
0.0054947822 -0.00061525829 0.35499999 1.2903885e-39
0.0067158425 -0.00061525829 0.35499999 1.3825841e-39
0.007914545 -0.00061352522 0.354 1.1059972e-39
0.0091321664 -0.00061352522 0.354 1.3825841e-39
0.01034981 -0.00061352522 0.354 1.2903885e-39
0.011567431 -0.00061352522 0.354 1.1981929e-39
0.012785051 -0.00061352522 0.354 1.2903885e-39
0.014042227 -0.00061525829 0.35499999 1.2903885e-39
0.015306283 -0.00061699149 0.35600001 1.0159722e-39
0.016530784 -0.00061699149 0.35600001 9.2377659e-40
0.017755305 -0.00061699149 0.35600001 1.1059972e-39
0.018979806 -0.00061699149 0.35600001 1.2903885e-39
0.020204306 -0.00061699149 0.35600001 9.2377659e-40
0.021488996 -0.00061872456 0.35699999 8.3158096e-40
0.022716936 -0.00061872456 0.35699999 9.2412411e-40
0.023944875 -0.00061872456 0.35699999 9.2412411e-40
0.025172815 -0.00061872456 0.35699999 1.0155995e-39
0.026400778 -0.00061872456 0.35699999 9.2340384e-40
0.027706111 -0.00062045769 0.35800001 9.2340384e-40
0.028937489 -0.00062045769 0.35800001 1.384382e-39
0.030253138 -0.00062219083 0.359 1.7535373e-39
0.031575669 -0.00062392396 0.36000001 2.1223198e-39
0.032813929 -0.00062392396 0.36000001 2.3960298e-39
0.0042977994 -0.001856156 0.35699999 1.3832974e-39
0.0055102608 -0.0018509568 0.35600001 1.0155995e-39
0.0067158425 -0.0018457574 0.35499999 1.1077951e-39
0.0079369023 -0.0018457574 0.35499999 9.2412411e-40
0.0091321664 -0.0018405581 0.354 9.2412411e-40
0.01034981 -0.0018405581 0.354 1.2903885e-39
0.011600107 -0.0018457574 0.35499999 1.1981929e-39
0.012821167 -0.0018457574 0.35499999 1.1981929e-39
0.014042227 -0.0018457574 0.35499999 1.2903885e-39
0.015306283 -0.0018509568 0.35600001 8.3158096e-40
0.016577216 -0.001856156 0.35699999 8.3158096e-40
0.01780518 -0.001856156 0.35699999 9.2412411e-40
0.019033119 -0.001856156 0.35699999 8.3192848e-40
0.020261059 -0.001856156 0.35699999 9.2377659e-40
0.021488996 -0.001856156 0.35699999 9.2377659e-40
0.022716936 -0.001856156 0.35699999 9.2412411e-40
0.023944875 -0.001856156 0.35699999 9.2412411e-40
0.025172815 -0.001856156 0.35699999 1.0159722e-39
0.026400778 -0.001856156 0.35699999 7.3938533e-40
0.027706111 -0.0018613555 0.35800001 1.0155995e-39
0.02901832 -0.0018665547 0.359 1.384382e-39
0.03033741 -0.0018717542 0.36000001 1.7535373e-39
0.031575669 -0.0018717542 0.36000001 2.0301241e-39
0.032813929 -0.0018717542 0.36000001 1.8460804e-39
0.0042857612 -0.0030849397 0.35600001 1.3832974e-39
0.0055102608 -0.0030849397 0.35600001 1.2903885e-39
0.0067158425 -0.0030762739 0.35499999 1.2903885e-39
0.0079369023 -0.0030762739 0.35499999 1.2904011e-39
0.0091321664 -0.0030676085 0.354 1.2904011e-39
0.01034981 -0.0030676085 0.354 1.2903885e-39
0.011600107 -0.0030762739 0.35499999 1.3825841e-39
0.012821167 -0.0030762739 0.35499999 1.2903885e-39
0.014081784 -0.0030849397 0.35600001 1.3825841e-39
0.015306283 -0.0030849397 0.35600001 9.2412411e-40
0.016577216 -0.0030936052 0.35699999 9.2412411e-40
0.01780518 -0.0030936052 0.35699999 9.2412411e-40
0.019033119 -0.0030936052 0.35699999 1.0163197e-39
0.020261059 -0.0030936052 0.35699999 1.4747798e-39
0.021488996 -0.0030936052 0.35699999 1.3825841e-39
0.022780571 -0.0031022709 0.35800001 9.2377659e-40
0.023944875 -0.0030936052 0.35699999 8.3158096e-40
0.025172815 -0.0030936052 0.35699999 1.3825841e-39
0.026474731 -0.0031022709 0.35800001 1.3825841e-39
0.027706111 -0.0031022709 0.35800001 9.2412411e-40
0.02901832 -0.0031109364 0.359 1.0163197e-39
0.03033741 -0.0031196021 0.36000001 1.4769504e-39
0.031663377 -0.0031282676 0.361 2.0301241e-39
0.032905076 -0.0031282676 0.361 2.0287116e-39
0.0042857612 -0.0043189051 0.35600001 1.3836631e-39
0.0055102608 -0.0043189051 0.35600001 1.0159722e-39
0.0067158425 -0.0043067732 0.35499999 1.2003635e-39
0.0079369023 -0.0043067732 0.35499999 1.0159722e-39
0.0091321664 -0.0042946413 0.354 8.3158096e-40
0.01034981 -0.0042946413 0.354 1.2904011e-39
0.011600107 -0.0043067732 0.35499999 1.1982055e-39
0.012821167 -0.0043067732 0.35499999 1.2903885e-39
0.014081784 -0.0043189051 0.35600001 1.2903885e-39
0.015306283 -0.0043189051 0.35600001 1.2903885e-39
0.016577216 -0.0043310365 0.35699999 1.3825841e-39
0.01780518 -0.0043310365 0.35699999 9.2412411e-40
0.019033119 -0.0043310365 0.35699999 8.3192848e-40
0.020317813 -0.0043431688 0.35800001 1.6584648e-39
0.021549191 -0.0043431688 0.35800001 1.3818779e-39
0.022780571 -0.0043431688 0.35800001 9.2412411e-40
0.024011949 -0.0043431688 0.35800001 9.2412411e-40
0.025243329 -0.0043431688 0.35800001 9.2412411e-40
0.026474731 -0.0043431688 0.35800001 9.2412411e-40
0.027783502 -0.0043553002 0.359 1.0155995e-39
0.029099153 -0.0043674321 0.36000001 1.1999907e-39
0.03033741 -0.0043674321 0.36000001 1.2003635e-39
0.031663377 -0.004379564 0.361 1.569146e-39
0.032905076 -0.004379564 0.361 1.8661092e-40
0.0055102608 -0.0055528879 0.35600001 3.6879793e-40
0.0067347609 -0.0055528879 0.35600001 6.4538482e-40
0.0079369023 -0.0055372897 0.35499999 1.1059972e-39
0.0091579631 -0.0055372897 0.35499999 1.2903885e-39
0.010379046 -0.0055372897 0.35499999 1.2903885e-39
0.011600107 -0.0055372897 0.35499999 1.3825841e-39
0.012821167 -0.0055372897 0.35499999 9.2412411e-40
0.014081784 -0.0055528879 0.35600001 8.3192848e-40
0.015349277 -0.0055684857 0.35699999 1.2903885e-39
0.016577216 -0.0055684857 0.35699999 1.2903885e-39
0.017855054 -0.005584084 0.35800001 1.3825841e-39
0.019086434 -0.005584084 0.35800001 1.3825841e-39
0.020317813 -0.005584084 0.35800001 1.4740735e-39
0.021549191 -0.005584084 0.35800001 1.3818779e-39
0.022780571 -0.005584084 0.35800001 9.2412411e-40
0.024011949 -0.005584084 0.35800001 9.2412411e-40
0.025243329 -0.005584084 0.35800001 9.2412411e-40
0.026548682 -0.0055996818 0.359 7.3973285e-40
0.027783502 -0.0055996818 0.359 1.0163197e-39
0.029099153 -0.0056152805 0.36000001 1.0163197e-39
0.03033741 -0.0056152805 0.36000001 6.4718689e-40
0.031663377 -0.0056308778 0.361 1.4573504e-42
0.032996222 -0.0056464756 0.36199999 9.3714217e-40
0.0055102608 -0.0067868535 0.35600001 4.0569328e-39
0.0067347609 -0.0067868535 0.35600001 3.1349765e-39
0.0079592606 -0.0067868535 0.35600001 1.2925129e-39
0.0091579631 -0.0067677889 0.35499999 1.4349296e-42
0.010379046 -0.0067677889 0.35499999 3.5873241e-43
0.011600107 -0.0067677889 0.35499999 3.5873241e-43
0.012821167 -0.0067677889 0.35499999 3.5873241e-43
0.014081784 -0.0067868535 0.35600001 3.5873241e-43
