# .PCD v0.7 - Point Cloud Data file format
VERSION 0.7
FIELDS x y z rgb
SIZE 4 4 4 4
TYPE F F F F
COUNT 1 1 1 1
WIDTH 394
HEIGHT 1
VIEWPOINT 0 0 0 1 0 0 0
POINTS 394
DATA ascii
-0.015455923 0.07787735 0.81699997 1.8623893e-38
-0.012645765 0.07787735 0.81699997 2.0191218e-38
-0.0098355804 0.07787735 0.81699997 2.1111717e-38
-0.015455923 0.075045474 0.81699997 2.341769e-38
-0.012614809 0.074861765 0.815 2.341769e-38
-0.0098115029 0.074861765 0.815 2.341769e-38
-0.0070082243 0.074861765 0.815 2.341769e-38
-0.0042152638 0.075045474 0.81699997 1.9913515e-38
-0.0014051058 0.075045474 0.81699997 1.853058e-38
-0.023886424 0.072213553 0.81699997 1.8716053e-38
-0.021076266 0.072213553 0.81699997 2.2033326e-38
-0.018266082 0.072213553 0.81699997 2.3508809e-38
-0.015418088 0.072036773 0.815 2.3233299e-38
-0.012583853 0.07186 0.81300002 2.3325494e-38
-0.0097874263 0.07186 0.81300002 2.3417687e-38
-0.0069910265 0.07186 0.81300002 2.3417687e-38
-0.0042049452 0.072036773 0.815 2.3326198e-38
-0.0013982266 0.07186 0.81300002 1.9546177e-38
0.0013981734 0.07186 0.81300002 1.8623505e-38
-0.021076266 0.069381632 0.81699997 2.341769e-38
-0.018266082 0.069381632 0.81699997 2.3233299e-38
-0.015380253 0.069041945 0.81300002 2.3325494e-38
-0.012552896 0.068872094 0.81099999 2.341769e-38
-0.0097633488 0.068872094 0.81099999 2.2124755e-38
-0.0069738282 0.068872094 0.81099999 1.9819865e-38
-0.0041843075 0.068872094 0.81099999 1.8715995e-38
-0.0013947869 0.068872094 0.81099999 2.028332e-38
0.0013947338 0.068872094 0.81099999 2.0467039e-38
0.0042049452 0.069211788 0.815 2.0374843e-38
-0.015380253 0.066223927 0.81300002 2.341769e-38
-0.012552896 0.066061012 0.81099999 2.2126951e-38
-0.0097633488 0.066061012 0.81099999 1.9914221e-38
-0.0069738282 0.066061012 0.81099999 1.8531287e-38
-0.0041843075 0.066061012 0.81099999 2.0649955e-38
-0.0013947869 0.066061012 0.81099999 2.1203128e-38
0.0013947338 0.066061012 0.81099999 2.1018048e-38
0.0041946266 0.066223927 0.81300002 1.6684853e-38
-0.018131938 0.063249886 0.81099999 2.341769e-38
-0.015342416 0.063249886 0.81099999 2.3418043e-38
-0.012521939 0.063093908 0.80900002 2.3141456e-38
-0.0097392714 0.063093908 0.80900002 2.1663427e-38
-0.0069566299 0.063093908 0.80900002 1.9727319e-38
-0.0041739885 0.063093908 0.80900002 1.5857561e-38
-0.0013947869 0.063249886 0.81099999 1.3460475e-38
0.0013947338 0.063249886 0.81099999 1.3182832e-38
0.0041946266 0.063405871 0.81300002 1.6225287e-38
-0.018131938 0.060438804 0.81099999 2.3233296e-38
-0.015342416 0.060438804 0.81099999 2.1294252e-38
-0.012521939 0.060289759 0.80900002 1.7883014e-38
-0.0097392714 0.060289759 0.80900002 1.6774849e-38
-0.0069566299 0.060289759 0.80900002 1.336361e-38
-0.0041739885 0.060289759 0.80900002 1.096722e-38
-0.0013947869 0.060438804 0.81099999 7.6481777e-39
0.0013947338 0.060438804 0.81099999 9.4020849e-39
0.0041946266 0.060587857 0.81300002 2.1018734e-38
-0.015342416 0.057627682 0.81099999 1.7973032e-38
-0.012552896 0.057627682 0.81099999 1.483838e-38
-0.0097633488 0.057627682 0.81099999 1.1518574e-38
-0.0069738282 0.057627682 0.81099999 9.2136831e-39
-0.0041843075 0.057627682 0.81099999 8.7541946e-39
-0.0013947869 0.057627682 0.81099999 8.7541946e-39
0.0013981734 0.057769798 0.81300002 1.0046385e-38
0.0042049452 0.05791191 0.815 1.7790818e-38
-0.015380253 0.054951742 0.81300002 1.4375222e-38
-0.012552896 0.054816555 0.81099999 1.4098635e-38
-0.0097633488 0.054816555 0.81099999 1.0045302e-38
-0.0069738282 0.054816555 0.81099999 9.03115e-39
-0.0041843075 0.054816555 0.81099999 8.5691139e-39
-0.0013947869 0.054816555 0.81099999 6.9095925e-39
0.0013981734 0.054951742 0.81300002 9.6812348e-39
0.0042152638 0.055222102 0.81699997 1.6042733e-38
0.007068418 0.055560067 0.82200003 1.9542943e-38
-0.015418088 0.052261975 0.815 1.1793789e-38
-0.012583853 0.052133724 0.81300002 5.3400948e-39
-0.0097633488 0.052005474 0.81099999 5.5424297e-40
-0.0069738282 0.052005474 0.81099999 9.2302549e-40
-0.0041946266 0.052133724 0.81300002 1.8387698e-40
-0.0013982266 0.052133724 0.81300002 1.1800142e-38
0.0014016129 0.052261975 0.815 1.3090688e-38
0.0039882488 0.04956872 0.773 1.6962904e-38
0.0066470644 0.04956872 0.773 1.51207e-38
0.0093058804 0.04956872 0.773 1.9453894e-38
-0.015380253 0.04931571 0.81300002 9.1838299e-41
-0.012583853 0.04931571 0.81300002 1.2900228e-39
-0.0097392714 0.049073074 0.80900002 3.6889196e-39
-0.0069566299 0.049073074 0.80900002 2.3059852e-39
-0.0041843075 0.049194388 0.81099999 1.7334666e-38
-0.0013259934 0.046768036 0.77100003 1.3001481e-38
0.001325943 0.046768036 0.77100003 1.880752e-38
0.0039882488 0.046889354 0.773 1.8715325e-38
0.0066298665 0.046768036 0.77100003 1.3917024e-38
0.0092818029 0.046768036 0.77100003 2.0739492e-38
-0.015342416 0.046383265 0.81099999 2.9499449e-39
-0.012521939 0.04626888 0.80900002 2.8577492e-39
-0.0096911173 0.04604011 0.80500001 5.5931007e-40
-0.0069222338 0.04604011 0.80500001 4.800309e-39
-0.0041533508 0.04604011 0.80500001 1.7150931e-38
-0.0013259934 0.044095561 0.77100003 6.1796506e-39
0.001325943 0.044095561 0.77100003 1.5848976e-38
0.0039882488 0.044209946 0.773 1.4558237e-38
0.0066298665 0.044095561 0.77100003 9.7718708e-39
0.0092818029 0.044095561 0.77100003 1.9544587e-38
-0.015342416 0.043572139 0.81099999 3.5034746e-39
-0.012521939 0.04346469 0.80900002 3.7800615e-39
-0.0096911173 0.043249782 0.80500001 7.3867627e-40
-0.0069050356 0.04314233 0.80299997 1.0142631e-38
-0.0041327132 0.043034878 0.801 1.1894727e-38
-0.0013311529 0.041584261 0.77399999 3.1361424e-39
0.0013293825 0.041530538 0.773 1.7418124e-38
0.0039882488 0.041530538 0.773 1.4191277e-38
0.0066298665 0.041423086 0.77100003 1.0143302e-38
0.0092818029 0.041423086 0.77100003 1.86253e-38
-0.021102065 0.041112881 0.81800002 3.7134409e-43
-0.015342416 0.040761057 0.81099999 3.0439201e-39
-0.012521939 0.040660538 0.80900002 3.8736808e-39
-0.0096911173 0.040459495 0.80500001 1.938681e-39
-0.0068878378 0.040258456 0.801 4.5201586e-39
-0.0041327132 0.040258456 0.801 1.4661681e-38
-0.0013741488 0.040157937 0.79900002 1.1350518e-42
0.0013311022 0.038901426 0.77399999 7.314778e-43
0.0039882488 0.038851168 0.773 4.7027086e-39
0.0066470644 0.038851168 0.773 1.7150558e-38
0.0093058804 0.038851168 0.773 1.816471e-38
-0.021102065 0.038277496 0.81800002 1.4349296e-42
-0.018266082 0.038230695 0.81699997 6.4680154e-40
-0.015342416 0.037949935 0.81099999 2.7629822e-40
-0.012521939 0.037856348 0.80900002 1.0138633e-39
-0.0096911173 0.037669171 0.80500001 3.0417888e-39
-0.0068878378 0.037481993 0.801 4.6031113e-40
-0.0041223941 0.037388407 0.79900002 1.3551338e-38
-0.0013741488 0.037388407 0.79900002 7.097644e-39
0.0013740966 0.037388407 0.79900002 8.1056498e-39
0.0039882488 0.036171764 0.773 2.0828647e-38
0.0066470644 0.036171764 0.773 1.9084486e-38
0.0093058804 0.036171764 0.773 1.8531312e-38
-0.021102065 0.035442147 0.81800002 1.2069712e-38
-0.018221367 0.035312161 0.815 1.1977516e-38
-0.015380253 0.035225507 0.81300002 1.0875512e-38
-0.012521939 0.035052195 0.80900002 8.1096435e-39
-0.0096911173 0.034878884 0.80500001 1.8402972e-40
-0.0068878378 0.034705572 0.801 4.6061521e-40
-0.0041223941 0.034618918 0.79900002 5.6051939e-45
-0.0013741488 0.034618918 0.79900002 3.6914826e-40
0.0013775361 0.034705572 0.801 2.8025969e-45
0.0041430318 0.03479223 0.80299997 1.862388e-38
-0.021076266 0.032566894 0.81699997 2.341769e-38
-0.018221367 0.032487173 0.815 2.341769e-38
-0.015342416 0.032327726 0.81099999 2.3326213e-38
-0.012490982 0.032168277 0.80699998 2.3326213e-38
-0.0096670389 0.032008834 0.80299997 2.341769e-38
-0.0068878378 0.031929109 0.801 1.6963996e-38
-0.0041327132 0.031929109 0.801 1.3778912e-39
-0.0013775885 0.031929109 0.801 2.2076476e-39
0.0013809756 0.032008834 0.80299997 3.0828566e-44
0.0041533508 0.032088555 0.80500001 1.8162211e-38
-0.021076266 0.029734973 0.81699997 2.0192288e-38
-0.018221367 0.029662183 0.815 2.20362e-38
-0.015342416 0.029516602 0.81099999 2.3234378e-38
-0.012490982 0.029371019 0.80699998 2.3234378e-38
-0.0096670389 0.029225441 0.80299997 2.3416255e-38
-0.0068878378 0.029152649 0.801 1.2998149e-38
-0.0041327132 0.029152649 0.801 2.8025969e-45
-0.0013775885 0.029152649 0.801 8.3012361e-40
0.0013809756 0.029225441 0.80299997 3.0828566e-44
0.0042049452 0.029662183 0.815 1.8254407e-38
-0.021076266 0.026903091 0.81699997 1.1023847e-39
-0.018221367 0.026837233 0.815 1.2867731e-39
-0.015342416 0.026705517 0.81099999 7.1466222e-44
-0.012490982 0.0265738 0.80699998 2.3971578e-39
-0.0096670389 0.026442086 0.80299997 7.8352118e-39
-0.0068878378 0.026376227 0.801 2.9488434e-39
-0.0041327132 0.026376227 0.801 9.8679438e-41
-0.0013775885 0.026376227 0.801 5.0432732e-42
0.0013844152 0.026507944 0.80500001 1.8518159e-40
0.0041946266 0.026771378 0.81300002 1.8255525e-38
-0.021024672 0.024012286 0.815 1.4475413e-42
-0.018221367 0.024012286 0.815 3.7814684e-39
-0.015380253 0.02395336 0.81300002 3.2268877e-39
-0.012460027 0.023717657 0.80500001 2.3049314e-39
-0.0096429624 0.023599803 0.801 1.8477942e-40
-0.0068878378 0.023599803 0.801 5.5356194e-40
-0.0041327132 0.023599803 0.801 1.8435623e-39
-0.0013775885 0.023599803 0.801 2.7623656e-40
0.0013844152 0.023717657 0.80500001 4.2392389e-39
0.0041946266 0.02395336 0.81300002 1.9174931e-38
-0.021024672 0.021187296 0.815 1.4349296e-42
-0.018176652 0.021135304 0.81300002 3.7021465e-40
-0.015342416 0.02108331 0.81099999 7.7772065e-43
-0.012460027 0.02092733 0.80500001 6.4614713e-40
-0.0096429624 0.020823343 0.801 9.2412411e-40
-0.0068878378 0.020823343 0.801 4.6314596e-40
-0.0041327132 0.020823343 0.801 1.5698438e-39
-0.0013775885 0.020823343 0.801 1.4377322e-42
0.0013809756 0.020875337 0.80299997 6.3669089e-39
0.0042049452 0.021187296 0.815 1.7983558e-38
-0.021024672 0.018362308 0.815 1.3086031e-38
-0.018131938 0.018272186 0.81099999 1.3454814e-38
-0.015304581 0.018227125 0.80900002 1.1705991e-38
-0.012460027 0.018137002 0.80500001 1.0691839e-38
-0.0096429624 0.018046882 0.801 5.7038943e-39
-0.0068878378 0.018046882 0.801 2.2040519e-39
-0.0041327132 0.018046882 0.801 7.1746481e-43
-0.0013775885 0.018046882 0.801 6.4608547e-40
0.0013809756 0.018091943 0.80299997 1.0235895e-38
0.0041533508 0.018137002 0.80500001 1.8256915e-38
-0.018087223 0.015422974 0.80900002 2.341769e-38
-0.015304581 0.015422974 0.80900002 2.341769e-38
-0.012460027 0.015346716 0.80500001 2.341769e-38
-0.0096670389 0.015308589 0.80299997 2.2312071e-38
-0.0068878378 0.015270459 0.801 1.2723726e-38
-0.0041327132 0.015270459 0.801 1.4659095e-38
-0.0013775885 0.015270459 0.801 1.2999574e-38
0.0013809756 0.015308589 0.80299997 1.5856582e-38
0.0041533508 0.015346716 0.80500001 1.8530255e-38
-0.018087223 0.012618782 0.80900002 2.2682996e-38
-0.015266744 0.012587585 0.80699998 2.3326213e-38
-0.012460027 0.01255639 0.80500001 2.3326213e-38
-0.0096670389 0.012525194 0.80299997 2.3322267e-38
-0.0068878378 0.012493998 0.801 1.5762226e-38
-0.0041327132 0.012493998 0.801 1.5580686e-38
-0.0013810281 0.012525194 0.80299997 1.31836e-38
0.0013844152 0.01255639 0.80500001 1.7701924e-38
-0.018042507 0.0097903665 0.80699998 5.7397185e-42
-0.015266744 0.0097903665 0.80699998 7.5670117e-44
-0.012429069 0.00974184 0.80299997 7.5670117e-44
-0.0096670389 0.00974184 0.80299997 9.2237108e-40
-0.0068878378 0.0097175753 0.801 9.2610414e-41
-0.0041327132 0.0097175753 0.801 3.5124163e-39
-0.0013810281 0.00974184 0.80299997 1.0703675e-38
0.0013844152 0.0097661028 0.80500001 1.7796991e-38
-0.018042507 0.0069931075 0.80699998 1.2983325e-39
-0.015228909 0.0069757765 0.80500001 4.1470433e-39
-0.012429069 0.0069584455 0.80299997 3.7782608e-39
-0.0096429624 0.0069411141 0.801 8.3158096e-40
-0.0068878378 0.0069411141 0.801 8.3158096e-40
-0.0041327132 0.0069411141 0.801 1.0818024e-42
-0.0013810281 0.0069584455 0.80299997 1.43836e-38
0.0013844152 0.0069757765 0.80500001 1.7889179e-38
-0.018042507 0.0041958485 0.80699998 1.203983e-39
-0.015228909 0.0041854503 0.80500001 4.1470433e-39
-0.012429069 0.0041750516 0.80299997 3.8704564e-39
-0.0096429624 0.0041646529 0.801 1.3865624e-39
-0.0068878378 0.0041646529 0.801 1.3865624e-39
-0.0041327132 0.0041646529 0.801 1.2611686e-44
-0.0013810281 0.0041750516 0.80299997 1.8070356e-38
0.0013844152 0.0041854503 0.80500001 1.8071047e-38
-0.018042507 0.0013986295 0.80699998 1.5706005e-39
-0.015228909 0.0013951632 0.80500001 3.8722543e-39
-0.012429069 0.0013916971 0.80299997 3.7800587e-39
-0.0096429624 0.0013882307 0.801 1.6599291e-39
-0.0068878378 0.0013882307 0.801 1.3833422e-39
-0.0041327132 0.0013882307 0.801 3.0828566e-44
-0.0013775885 0.0013882307 0.801 1.8162211e-38
0.0013809756 0.0013916971 0.80299997 1.779446e-38
-0.018042507 -0.0013986295 0.80699998 1.2003705e-39
-0.015228909 -0.0013951632 0.80500001 3.871904e-39
-0.012429069 -0.0013916971 0.80299997 3.6875127e-39
-0.0096429624 -0.0013882307 0.801 1.5677377e-39
-0.0068878378 -0.0013882307 0.801 8.3017265e-40
-0.0041327132 -0.0013882307 0.801 6.4459729e-44
-0.0013775885 -0.0013882307 0.801 1.7794181e-38
0.0013809756 -0.0013916971 0.80299997 1.7701548e-38
-0.018042507 -0.0041958485 0.80699998 1.1999851e-39
-0.015228909 -0.0041854503 0.80500001 3.7797083e-39
-0.012429069 -0.0041750516 0.80299997 3.5953171e-39
-0.0096429624 -0.0041646529 0.801 1.1089231e-39
-0.0068878378 -0.0041646529 0.801 1.8696685e-40
-0.0041327132 -0.0041646529 0.801 9.2623026e-41
-0.0013775885 -0.0041646529 0.801 1.788638e-38
0.0013809756 -0.0041750516 0.80299997 1.7610069e-38
-0.018042507 -0.0069931075 0.80699998 5.4104134e-42
-0.015228909 -0.0069757765 0.80500001 3.5034746e-39
-0.012460027 -0.0069757765 0.80500001 3.3190833e-39
-0.0096670389 -0.0069584455 0.80299997 1.9372195e-39
-0.0068878378 -0.0069411141 0.801 1.8550249e-40
-0.0041327132 -0.0069411141 0.801 2.8170303e-40
-0.0013775885 -0.0069411141 0.801 1.6969112e-38
0.0013844152 -0.0069757765 0.80500001 1.7518223e-38
-0.015266744 -0.0097903265 0.80699998 3.1361158e-39
-0.012460027 -0.0097660637 0.80500001 2.4907464e-39
-0.0096911173 -0.0097660637 0.80500001 1.200711e-39
-0.0069394317 -0.0097903265 0.80699998 3.671402e-43
-0.0041533508 -0.0097660637 0.80500001 9.8642261e-39
-0.0013844678 -0.0097660637 0.80500001 1.8530615e-38
-0.015304581 -0.012618782 0.80900002 3.0442705e-39
-0.012521939 -0.012618782 0.80900002 9.2377098e-40
-0.0097392714 -0.012618782 0.80900002 1.1063476e-39
-0.0069566299 -0.012618782 0.80900002 0
-0.0041739885 -0.012618782 0.80900002 9.4961345e-39
-0.0014068257 -0.012759165 0.81800002 1.8531306e-38
-0.018087223 -0.015422934 0.80900002 1.2903605e-39
-0.015304581 -0.015422934 0.80900002 3.2286617e-39
-0.012521939 -0.015422934 0.80900002 6.4718409e-40
-0.0097392714 -0.015422934 0.80900002 1.1985432e-39
-0.0069566299 -0.015422934 0.80900002 2.7658689e-40
-0.0041843075 -0.015461061 0.81099999 7.0990537e-39
-0.0014051058 -0.015575446 0.81699997 1.8346921e-38
-0.018087223 -0.018227125 0.80900002 2.1204673e-39
-0.015304581 -0.018227125 0.80900002 2.8616771e-39
-0.012521939 -0.018227125 0.80900002 5.5678633e-40
-0.0097392714 -0.018227125 0.80900002 1.3829344e-39
-0.0069566299 -0.018227125 0.80900002 6.4536941e-40
-0.0041843075 -0.018272186 0.81099999 6.455492e-39
-0.0014016661 -0.018362308 0.815 1.788775e-38
-0.018087223 -0.021031277 0.80900002 2.4896197e-39
-0.015304581 -0.021031277 0.80900002 3.1361158e-39
-0.012521939 -0.021031277 0.80900002 2.1219638e-39
-0.0097392714 -0.021031277 0.80900002 1.4769504e-39
-0.0069566299 -0.021031277 0.80900002 4.6279844e-40
-0.0041739885 -0.021031277 0.80900002 5.805438e-39
-0.0013982266 -0.021135263 0.81300002 1.8712826e-38
-0.018087223 -0.023835469 0.80900002 9.0047439e-42
-0.015304581 -0.023835469 0.80900002 3.5034746e-39
-0.012521939 -0.023835469 0.80900002 2.3049314e-39
-0.0097392714 -0.023835469 0.80900002 1.569146e-39
-0.0069566299 -0.023835469 0.80900002 8.3158096e-40
-0.0041739885 -0.023835469 0.80900002 4.6061241e-40
-0.0013947869 -0.023894394 0.81099999 1.7516804e-38
-0.018087223 -0.026639661 0.80900002 3.5942072e-39
-0.015304581 -0.026639661 0.80900002 2.673358e-39
-0.012521939 -0.026639661 0.80900002 2.5811623e-39
-0.0097392714 -0.026639661 0.80900002 1.9350516e-39
-0.0069566299 -0.026639661 0.80900002 1.4740735e-39
-0.0041739885 -0.026639661 0.80900002 5.6051939e-45
-0.0013947869 -0.026705517 0.81099999 1.6411188e-38
-0.018087223 -0.029443812 0.80900002 8.8414604e-39
-0.015304581 -0.029443812 0.80900002 7.3938533e-40
-0.012521939 -0.029443812 0.80900002 2.1223198e-39
-0.0097392714 -0.029443812 0.80900002 1.842856e-39
-0.0069566299 -0.029443812 0.80900002 1.4740735e-39
-0.0041843075 -0.029516602 0.81099999 3.7134409e-43
-0.0014016661 -0.029662183 0.815 1.4844228e-38
-0.018087223 -0.032248002 0.80900002 6.173426e-39
-0.015304581 -0.032248002 0.80900002 2.8698593e-42
-0.012521939 -0.032248002 0.80900002 1.793662e-42
-0.0097392714 -0.032248002 0.80900002 1.0761972e-42
-0.0069566299 -0.032248002 0.80900002 2.1219316e-39
-0.0041843075 -0.032327726 0.81099999 8.5387702e-40
-0.0014016661 -0.032487173 0.815 1.1364179e-38
-0.018087223 -0.035052154 0.80900002 2.1213949e-38
-0.015304581 -0.035052154 0.80900002 2.3324778e-38
-0.012521939 -0.035052154 0.80900002 1.8530606e-38
-0.0097392714 -0.035052154 0.80900002 1.5491367e-38
-0.0069566299 -0.035052154 0.80900002 1.5399172e-38
-0.0041843075 -0.035138808 0.81099999 1.6687762e-38
-0.0014051058 -0.035398774 0.81699997 1.7056545e-38
-0.018131938 -0.037949935 0.81099999 2.3509461e-38
-0.015304581 -0.037856348 0.80900002 2.3231151e-38
-0.012521939 -0.037856348 0.80900002 1.880576e-38
-0.0097392714 -0.037856348 0.80900002 1.7239138e-38
-0.0069566299 -0.037856348 0.80900002 1.5948399e-38
-0.0041843075 -0.037949935 0.81099999 1.5858014e-38
-0.0014051058 -0.038230695 0.81699997 1.6595579e-38
0.0014067723 -0.038277496 0.81800002 1.6871785e-38
-0.018131938 -0.040761016 0.81099999 4.3288436e-39
-0.015304581 -0.040660497 0.80900002 3.0359692e-39
-0.012521939 -0.040660497 0.80900002 1.6530389e-39
-0.0097392714 -0.040660497 0.80900002 2.7694142e-40
-0.0069566299 -0.040660497 0.80900002 3.5873241e-43
-0.0041843075 -0.040761016 0.81099999 3.629363e-43
-0.0014051058 -0.041062579 0.81699997 1.207799e-38
0.0014067723 -0.041112844 0.81800002 1.7056895e-38
-0.018131938 -0.043572139 0.81099999 2.7680073e-39
-0.015304581 -0.04346469 0.80900002 2.798337e-40
-0.012521939 -0.04346469 0.80900002 1.8763807e-40
-0.0097392714 -0.04346469 0.80900002 2.1706113e-42
-0.0069566299 -0.04346469 0.80900002 4.6314876e-40
-0.0041843075 -0.043572139 0.81099999 9.3629158e-41
-0.0014016661 -0.043787047 0.815 1.0880516e-38
0.0014016129 -0.043787047 0.815 1.7608621e-38
-0.018087223 -0.046268839 0.80900002 7.6515086e-39
-0.015304581 -0.046268839 0.80900002 7.1898242e-39
-0.012521939 -0.046268839 0.80900002 6.2678679e-39
-0.0097151939 -0.046154454 0.80699998 7.0983446e-39
-0.0069394317 -0.046154454 0.80699998 7.006149e-39
-0.0041739885 -0.046268839 0.80900002 4.8885166e-39
-0.0013913471 -0.046268839 0.80900002 5.533886e-39
0.0013947338 -0.046383224 0.81099999 1.5762907e-38
-0.018042507 -0.048951712 0.80699998 4.4354263e-39
-0.015266744 -0.048951712 0.80699998 5.810152e-39
-0.012490982 -0.048951712 0.80699998 6.9164995e-39
-0.0097151939 -0.048951712 0.80699998 7.4689278e-39
-0.0069222338 -0.048830397 0.80500001 6.0859934e-39
-0.0041533508 -0.048830397 0.80500001 4.2409766e-39
-0.0013879074 -0.048951712 0.80699998 4.5175634e-39
0.0013878547 -0.048951712 0.80699998 2.7622395e-40
-0.018042507 -0.051748972 0.80699998 1.151931e-38
-0.015266744 -0.051748972 0.80699998 8.4830391e-39
-0.012490982 -0.051748972 0.80699998 6.8235178e-39
-0.0096911173 -0.051620722 0.80500001 5.1661054e-39
-0.0069222338 -0.051620722 0.80500001 1.9393074e-39
-0.0041533508 -0.051620722 0.80500001 9.2911693e-41
-0.0013844678 -0.051620722 0.80500001 2.7730015e-40
0.0013878547 -0.051748972 0.80699998 3.852786e-40
