# .PCD v0.7 - Point Cloud Data file format
VERSION 0.7
FIELDS x y z rgb
SIZE 4 4 4 4
TYPE F F F F
COUNT 1 1 1 1
WIDTH 632
HEIGHT 1
VIEWPOINT 0 0 0 1 0 0 0
POINTS 632
DATA ascii
-0.015418088 0.077686712 0.815 1.890047e-38
-0.012614809 0.077686712 0.815 2.1574143e-38
-0.0098115029 0.077686712 0.815 2.1387944e-38
-0.0070082243 0.077686712 0.815 1.9728423e-38
-0.018221367 0.074861765 0.815 2.2591166e-38
-0.015380253 0.074678056 0.81300002 2.341769e-38
-0.012552896 0.074494347 0.81099999 2.341769e-38
-0.0097633488 0.074494347 0.81099999 2.341769e-38
-0.0069910265 0.074678056 0.81300002 2.341769e-38
-0.0041946266 0.074678056 0.81300002 2.24028e-38
-0.023827951 0.072036773 0.815 1.8439466e-38
-0.021024672 0.072036773 0.815 2.341769e-38
-0.018221367 0.072036773 0.815 2.341769e-38
-0.015342416 0.071683221 0.81099999 2.3233299e-38
-0.012521939 0.071506448 0.80900002 2.3325494e-38
-0.0097392714 0.071506448 0.80900002 2.3417687e-38
-0.0069566299 0.071506448 0.80900002 2.3417687e-38
-0.0041843075 0.071683221 0.81099999 2.3417675e-38
-0.0013913471 0.071506448 0.80900002 2.0190828e-38
0.0013912943 0.071506448 0.80900002 1.8991921e-38
-0.02663123 0.069211788 0.815 1.9268884e-38
-0.023769479 0.069041945 0.81300002 2.0559623e-38
-0.020973079 0.069041945 0.81300002 2.341769e-38
-0.018131938 0.068872094 0.81099999 2.3233299e-38
-0.015304581 0.068702251 0.80900002 2.3325494e-38
-0.012490982 0.068532407 0.80699998 2.341769e-38
-0.0097151939 0.068532407 0.80699998 2.1755973e-38
-0.0069566299 0.068702251 0.80900002 1.9727669e-38
-0.0041739885 0.068702251 0.80900002 1.8621285e-38
-0.0013913471 0.068702251 0.80900002 1.8621285e-38
0.0013912943 0.068702251 0.80900002 1.9083381e-38
-0.02663123 0.066386841 0.815 2.2955993e-38
-0.023827951 0.066386841 0.815 2.3509167e-38
-0.020973079 0.066223927 0.81300002 2.3325494e-38
-0.018131938 0.066061012 0.81099999 2.3233299e-38
-0.015304581 0.065898106 0.80900002 2.341769e-38
-0.012490982 0.065735184 0.80699998 2.2034756e-38
-0.0097151939 0.065735184 0.80699998 1.9269565e-38
-0.0069394317 0.065735184 0.80699998 1.6872478e-38
-0.0041636694 0.065735184 0.80699998 1.5859026e-38
-0.0013913471 0.065898106 0.80900002 1.6227808e-38
0.0013947338 0.066061012 0.81099999 1.797774e-38
-0.02663123 0.063561849 0.815 2.1573412e-38
-0.023827951 0.063561849 0.815 2.350952e-38
-0.020921484 0.063249886 0.81099999 2.341769e-38
-0.018131938 0.063249886 0.81099999 2.341769e-38
-0.015304581 0.063093908 0.80900002 2.341769e-38
-0.012490982 0.06293793 0.80699998 2.3141103e-38
-0.0096911173 0.062781952 0.80500001 2.028265e-38
-0.0069222338 0.062781952 0.80500001 1.6779216e-38
-0.0041533508 0.062781952 0.80500001 1.631854e-38
-0.0013844678 0.062781952 0.80500001 1.567317e-38
0.0013912943 0.063093908 0.80900002 1.6872476e-38
0.0041946266 0.063405871 0.81300002 1.890078e-38
0.007068418 0.064107783 0.82200003 1.8716041e-38
0.0098957745 0.064107783 0.82200003 1.8716041e-38
-0.02663123 0.060736902 0.815 1.8993e-38
-0.023827951 0.060736902 0.815 1.8993e-38
-0.020921484 0.060438804 0.81099999 2.1481582e-38
-0.018087223 0.060289759 0.80900002 2.2956712e-38
-0.015304581 0.060289759 0.80900002 2.3417687e-38
-0.012490982 0.060140707 0.80699998 2.3325492e-38
-0.0096911173 0.059991661 0.80500001 2.341768e-38
-0.0069222338 0.059991661 0.80500001 2.2495724e-38
-0.0041533508 0.059991661 0.80500001 2.1844917e-38
-0.0013810281 0.059842616 0.80299997 2.0461983e-38
0.0013809756 0.059842616 0.80299997 1.9730571e-38
0.0041533508 0.059991661 0.80500001 2.2588636e-38
0.0070082243 0.060736902 0.815 2.0558887e-38
0.0098957745 0.061258573 0.82200003 1.880717e-38
-0.02663123 0.05791191 0.815 1.9913525e-38
-0.023827951 0.05791191 0.815 2.0374503e-38
-0.020973079 0.057769798 0.81300002 1.9818425e-38
-0.018087223 0.057485566 0.80900002 1.6683774e-38
-0.015304581 0.057485566 0.80900002 1.705328e-38
-0.012490982 0.057343449 0.80699998 1.9542562e-38
-0.0096911173 0.057201337 0.80500001 1.9084473e-38
-0.0069222338 0.057201337 0.80500001 2.0190821e-38
-0.0041533508 0.057201337 0.80500001 1.9729126e-38
-0.0013810281 0.057059225 0.80299997 1.8530583e-38
0.0013809756 0.057059225 0.80299997 1.9364309e-38
0.0041430318 0.057059225 0.80299997 2.1300418e-38
0.0069050356 0.057059225 0.80299997 2.2770873e-38
0.0097151939 0.057343449 0.80699998 2.0558178e-38
-0.03077426 0.052586045 0.778 1.9449241e-38
-0.028603869 0.053532325 0.792 1.5853611e-38
-0.02663123 0.055086922 0.815 1.2726597e-38
-0.023827951 0.055086922 0.815 1.6414422e-38
-0.02086989 0.054681376 0.80900002 1.7880172e-38
-0.018087223 0.054681376 0.80900002 1.4284542e-38
-0.015304581 0.054681376 0.80900002 1.1798845e-38
-0.012490982 0.054546189 0.80699998 1.1983236e-38
-0.0097151939 0.054546189 0.80699998 1.0597067e-38
-0.0069222338 0.054411009 0.80500001 1.1980002e-38
-0.0041533508 0.054411009 0.80500001 1.263365e-38
-0.0013810281 0.054275829 0.80299997 1.4569758e-38
0.0013775361 0.054140642 0.801 1.4656581e-38
0.0041327132 0.054140642 0.801 1.0323387e-38
0.0068878378 0.054140642 0.801 4.2560335e-39
0.0096429624 0.054140642 0.801 1.0986314e-38
-0.036126312 0.049889345 0.778 2.2314229e-38
-0.033450272 0.049889345 0.778 2.2590813e-38
-0.03077426 0.049889345 0.778 7.6445876e-40
-0.028603869 0.050787095 0.792 1.3273099e-41
-0.025879676 0.050787095 0.792 3.0828566e-44
-0.023272453 0.0510436 0.796 3.0828566e-44
-0.020611919 0.051235974 0.79900002 9.2198432e-41
-0.017997792 0.051620722 0.80500001 2.8025969e-45
-0.015266744 0.051748972 0.80699998 0
-0.012490982 0.051748972 0.80699998 0
-0.0097151939 0.051748972 0.80699998 6.4716727e-40
-0.0069394317 0.051748972 0.80699998 4.3349925e-39
-0.0041636694 0.051748972 0.80699998 2.5825314e-39
-0.0013844678 0.051620722 0.80500001 1.2263073e-38
0.0013775361 0.051364221 0.801 1.6967999e-38
0.0041223941 0.051235974 0.79900002 1.7244586e-38
0.0068706395 0.051235974 0.79900002 2.101808e-38
0.0096429624 0.051364221 0.801 2.1479058e-38
-0.041584965 0.047313962 0.77999997 2.0088471e-38
-0.03890207 0.047313962 0.77999997 8.4718245e-39
-0.036126312 0.047192644 0.778 2.8662719e-40
-0.033450272 0.047192644 0.778 2.0754053e-38
-0.030892927 0.047374625 0.78100002 2.1295055e-38
-0.028531637 0.047920555 0.79000002 2.9481246e-39
-0.025879676 0.048041869 0.792 2.1172975e-39
-0.023213983 0.04816319 0.79400003 2.8548626e-39
-0.020534527 0.048284508 0.796 1.9361082e-39
-0.017908363 0.048587799 0.801 1.1985432e-39
-0.015191073 0.048709121 0.80299997 1.4740735e-39
-0.012460027 0.048830435 0.80500001 1.4740735e-39
-0.0097151939 0.048951752 0.80699998 1.0127198e-39
-0.0069394317 0.048951752 0.80699998 4.5954602e-40
-0.0041843075 0.049194388 0.81099999 2.7623376e-40
-0.0013982266 0.04931571 0.81300002 5.6051939e-45
0.0014067723 0.049619004 0.81800002 9.1909765e-41
0.0041223941 0.048466485 0.79900002 5.5252918e-40
0.0068706395 0.048466485 0.79900002 3.7999711e-40
-0.046950776 0.044610292 0.77999997 1.8066641e-38
-0.044267856 0.044610292 0.77999997 1.0045621e-38
-0.041584965 0.044610292 0.77999997 6.8177094e-39
-0.03890207 0.044610292 0.77999997 1.2994803e-38
-0.03621918 0.044610292 0.77999997 9.2911693e-41
-0.033536259 0.044610292 0.77999997 7.6529505e-39
-0.030892927 0.04466749 0.78100002 1.9819209e-38
-0.028459404 0.045067832 0.78799999 1.0599646e-38
-0.025879676 0.045296606 0.792 4.6171663e-40
-0.023213983 0.045410994 0.79400003 2.121238e-39
-0.020534527 0.045525376 0.796 1.3829344e-39
-0.017863648 0.045696955 0.79900002 9.219563e-40
-0.015191073 0.045925725 0.80299997 1.1060098e-39
-0.012460027 0.04604011 0.80500001 1.566988e-39
-0.0097151939 0.046154492 0.80699998 1.5651775e-39
-0.0069394317 0.046154492 0.80699998 1.196395e-39
-0.0041739885 0.04626888 0.80900002 5.5497165e-40
-0.0014016661 0.046612035 0.815 9.2375416e-40
0.0014050524 0.046726421 0.81699997 2.5814776e-39
0.0042204238 0.046783619 0.81800002 3.226847e-39
-0.044267856 0.041906621 0.77999997 1.428774e-38
-0.041584965 0.041906621 0.77999997 1.3915307e-38
-0.03890207 0.041906621 0.77999997 1.3269938e-38
-0.03621918 0.041906621 0.77999997 8.2976067e-40
-0.033536259 0.041906621 0.77999997 3.6878252e-40
-0.030892927 0.041960351 0.78100002 1.622393e-38
-0.028423289 0.042282708 0.787 9.9546267e-39
-0.025814323 0.04244389 0.79000002 3.7058039e-40
-0.023213983 0.042658795 0.79400003 1.4769279e-39
-0.020534527 0.042766247 0.796 6.4716727e-40
-0.017863648 0.042927425 0.79900002 6.4716727e-40
-0.015191073 0.04314233 0.80299997 1.0138114e-39
-0.012460027 0.043249782 0.80500001 1.2903983e-39
-0.0096911173 0.043249782 0.80500001 1.3825841e-39
-0.0069222338 0.043249782 0.80500001 1.1059972e-39
-0.0041739885 0.04346469 0.80900002 9.2160597e-40
-0.0013947869 0.043572139 0.81099999 1.2903885e-39
0.0014016129 0.043787047 0.815 1.9357579e-39
0.0042152638 0.0438945 0.81699997 2.3045404e-39
0.0070340219 0.043948229 0.81800002 8.2976067e-40
-0.044267856 0.039202988 0.77999997 1.7700469e-38
-0.041584965 0.039202988 0.77999997 5.2687029e-39
-0.03890207 0.039202988 0.77999997 8.9565182e-39
-0.036265619 0.039253253 0.78100002 2.6758411e-39
-0.03357926 0.039253253 0.78100002 2.787547e-40
-0.030972036 0.039353773 0.78299999 1.5487443e-38
-0.028423289 0.039554816 0.787 1.0508879e-38
-0.025814323 0.039705593 0.79000002 4.5953621e-40
-0.023213983 0.039906636 0.79400003 1.4736853e-39
-0.020534527 0.040007155 0.796 9.219563e-40
-0.017863648 0.040157937 0.79900002 1.1063476e-39
-0.015191073 0.040358976 0.80299997 1.1981929e-39
-0.012460027 0.040459495 0.80500001 1.4747798e-39
-0.0096911173 0.040459495 0.80500001 1.4747798e-39
-0.0069222338 0.040459495 0.80500001 1.2903885e-39
-0.0041636694 0.040560015 0.80699998 1.0155995e-39
-0.0013913471 0.040660538 0.80900002 1.0155995e-39
0.0013947338 0.040761057 0.81099999 1.5694935e-39
0.0041946266 0.040861581 0.81300002 9.2412411e-40
0.0070082243 0.0409621 0.815 1.1070258e-42
-0.038951948 0.036546115 0.78100002 2.7945254e-40
-0.036265619 0.036546115 0.78100002 2.1523944e-42
-0.03357926 0.036546115 0.78100002 2.2148433e-39
-0.030892927 0.036546115 0.78100002 1.4201011e-38
-0.028278824 0.036639702 0.78299999 2.0311877e-39
-0.025814323 0.036967263 0.79000002 1.4349296e-42
-0.023213983 0.03715444 0.79400003 7.1746481e-43
-0.02058612 0.03734161 0.79799998 3.5873241e-43
-0.017908363 0.037481993 0.801 7.1746481e-43
-0.015228909 0.037669171 0.80500001 7.1746481e-43
-0.012460027 0.037669171 0.80500001 7.1746481e-43
-0.0096911173 0.037669171 0.80500001 1.8439126e-40
-0.0069222338 0.037669171 0.80500001 9.219563e-41
-0.0041636694 0.037762757 0.80699998 1.8439126e-40
-0.0013913471 0.037856348 0.80900002 2.7658689e-40
0.0013947338 0.037949935 0.81099999 3.239802e-42
0.0041946266 0.038043521 0.81300002 2.0315437e-39
0.0070082243 0.038137108 0.815 7.5655137e-39
0.0098716961 0.038371082 0.81999999 1.3281643e-38
-0.036265619 0.033839017 0.78100002 6.0037946e-39
-0.03357926 0.033839017 0.78100002 1.3195054e-38
-0.030892927 0.033839017 0.78100002 1.8525924e-38
-0.028278824 0.033925671 0.78299999 1.8157141e-38
-0.025814323 0.034228966 0.79000002 1.4745164e-38
-0.023213983 0.034402277 0.79400003 6.2631665e-39
-0.020611919 0.034618918 0.79900002 8.4802001e-39
-0.017908363 0.034705572 0.801 8.1114176e-39
-0.015228909 0.034878884 0.80500001 8.1132028e-39
-0.012460027 0.034878884 0.80500001 8.3897897e-39
-0.0097151939 0.034965537 0.80699998 8.2050229e-39
-0.0069394317 0.034965537 0.80699998 7.0064797e-39
-0.0041636694 0.034965537 0.80699998 6.3614732e-39
-0.0013913471 0.035052195 0.80900002 6.2692776e-39
0.0013981734 0.035225507 0.81300002 4.6212974e-39
0.0042049452 0.035312161 0.815 1.0429622e-38
0.0070254221 0.035398815 0.81699997 1.9454009e-38
0.0098716961 0.035528801 0.81999999 1.8900836e-38
-0.026304469 0.032088555 0.80500001 1.9821335e-38
-0.023535585 0.032088555 0.80500001 1.5303749e-38
-0.020766702 0.032088555 0.80500001 1.7425315e-38
-0.017953077 0.032008834 0.80299997 1.5304815e-38
-0.015191073 0.032008834 0.80299997 1.3921162e-38
-0.012490982 0.032168277 0.80699998 1.4289944e-38
-0.0097151939 0.032168277 0.80699998 1.5027149e-38
-0.0069394317 0.032168277 0.80699998 1.4012997e-38
-0.0041739885 0.032248002 0.80900002 1.373677e-38
-0.0013913471 0.032248002 0.80900002 1.3921162e-38
0.0013981734 0.032407451 0.81300002 1.4936395e-38
0.0042152638 0.032566894 0.81699997 1.6688112e-38
0.0070340219 0.032606758 0.81800002 1.8991558e-38
0.0098355804 0.032566894 0.81699997 1.8622776e-38
-0.023535585 0.029298229 0.80500001 1.2630779e-38
-0.020766702 0.029298229 0.80500001 1.7053668e-38
-0.017953077 0.029225441 0.80299997 1.3365843e-38
-0.015191073 0.029225441 0.80299997 9.8699617e-39
-0.012490982 0.029371019 0.80699998 1.1068505e-38
-0.0097151939 0.029371019 0.80699998 1.1618081e-38
-0.0069394317 0.029371019 0.80699998 1.1157103e-38
-0.0041739885 0.029443812 0.80900002 1.1247867e-38
-0.0013913471 0.029443812 0.80900002 1.2169823e-38
0.0013981734 0.029589394 0.81300002 1.2633319e-38
0.0042152638 0.029734973 0.81699997 1.2817711e-38
0.0070340219 0.029771371 0.81800002 1.9634404e-38
0.0098355804 0.029734973 0.81699997 1.8896839e-38
-0.026173761 0.026376227 0.801 1.8531287e-38
-0.023535585 0.026507944 0.80500001 4.6097114e-40
-0.020766702 0.026507944 0.80500001 3.0828566e-44
-0.017953077 0.026442086 0.80299997 2.8025969e-44
-0.015191073 0.026442086 0.80299997 2.8025969e-45
-0.012460027 0.026507944 0.80500001 2.8025969e-45
-0.0097151939 0.0265738 0.80699998 3.7835059e-43
-0.0069394317 0.0265738 0.80699998 1.6815582e-44
-0.0041739885 0.026639661 0.80900002 5.6051939e-45
-0.0013913471 0.026639661 0.80900002 3.657389e-43
0.0013981734 0.026771378 0.81300002 3.629363e-43
0.0042049452 0.026837233 0.815 3.629363e-43
0.0070340219 0.026936024 0.81800002 1.8624574e-38
0.0098716961 0.02700188 0.81999999 1.8255791e-38
-0.026173761 0.023599803 0.801 1.6133847e-38
-0.023418637 0.023599803 0.801 3.6841818e-40
-0.020663513 0.023599803 0.801 1.1996572e-39
-0.017953077 0.023658732 0.80299997 1.1996572e-39
-0.015191073 0.023658732 0.80299997 9.2340384e-40
-0.012460027 0.023717657 0.80500001 1.4765776e-39
-0.0097151939 0.023776582 0.80699998 1.3840485e-39
-0.0069394317 0.023776582 0.80699998 1.2918529e-39
-0.0041739885 0.023835508 0.80900002 9.2412411e-40
-0.0013913471 0.023835508 0.80900002 1.4772979e-39
0.0013981734 0.02395336 0.81300002 1.2903885e-39
0.0042049452 0.024012286 0.815 1.5669754e-39
0.0070340219 0.024100676 0.81800002 1.9176669e-38
0.0098716961 0.024159601 0.81999999 1.8439104e-38
-0.023418637 0.020823343 0.801 2.8698593e-42
-0.020663513 0.020823343 0.801 1.0761972e-42
-0.017997792 0.02092733 0.80500001 1.0761972e-42
-0.015228909 0.02092733 0.80500001 3.5873241e-43
-0.012460027 0.02092733 0.80500001 7.1746481e-43
-0.0097151939 0.020979322 0.80699998 1.8474719e-40
-0.0069394317 0.020979322 0.80699998 9.2552961e-41
-0.0041739885 0.021031316 0.80900002 7.1886611e-43
-0.0013913471 0.021031316 0.80900002 9.327463e-41
0.0013981734 0.021135304 0.81300002 1.4349296e-42
0.0042049452 0.021187296 0.815 9.3630559e-41
0.0070340219 0.021265289 0.81800002 1.8624934e-38
0.0098716961 0.021317281 0.81999999 1.807176e-38
-0.023477111 0.018091943 0.80299997 1.7239516e-38
-0.020715106 0.018091943 0.80299997 1.5115414e-38
-0.017997792 0.018137002 0.80500001 1.1058806e-38
-0.015228909 0.018137002 0.80500001 8.9447614e-39
-0.012490982 0.018182063 0.80699998 1.0696478e-38
-0.0097151939 0.018182063 0.80699998 9.4950583e-39
-0.0069394317 0.018182063 0.80699998 8.1121238e-39
-0.0041739885 0.018227125 0.80900002 7.46889e-39
-0.0013913471 0.018227125 0.80900002 5.8093686e-39
0.0013981734 0.018317247 0.81300002 6.7342312e-39
0.0042049452 0.018362308 0.815 9.2235132e-39
0.0070340219 0.0184299 0.81800002 1.9082312e-38
0.0098716961 0.018474961 0.81999999 1.8805725e-38
-0.023535585 0.015346716 0.80500001 2.2955283e-38
-0.020766702 0.015346716 0.80500001 2.0279804e-38
-0.017997792 0.015346716 0.80500001 1.6223197e-38
-0.015228909 0.015346716 0.80500001 1.5581064e-38
-0.012490982 0.015384845 0.80699998 1.6226434e-38
-0.0097151939 0.015384845 0.80699998 1.6687409e-38
-0.0069394317 0.015384845 0.80699998 1.4290323e-38
-0.0041739885 0.015422974 0.80900002 1.3922234e-38
-0.0013947869 0.015461101 0.81099999 1.3092473e-38
0.0013981734 0.01549923 0.81300002 1.4565831e-38
0.0042049452 0.015537359 0.815 1.6409743e-38
0.0070340219 0.015594553 0.81800002 1.7978488e-38
0.0098716961 0.015632682 0.81999999 1.816288e-38
-0.026304469 0.01255639 0.80500001 1.9545446e-38
-0.023535585 0.01255639 0.80500001 1.9361054e-38
-0.020766702 0.01255639 0.80500001 1.410808e-38
-0.017997792 0.01255639 0.80500001 1.0881233e-38
-0.015228909 0.01255639 0.80500001 1.0973804e-38
-0.012460027 0.01255639 0.80500001 1.1711369e-38
-0.0097151939 0.012587585 0.80699998 1.3460565e-38
-0.0069394317 0.012587585 0.80699998 1.1801043e-38
-0.0041739885 0.012618782 0.80900002 1.0971633e-38
-0.0013947869 0.012649978 0.81099999 1.0602851e-38
0.0014016129 0.01271237 0.815 1.3000678e-38
0.0042152638 0.012743565 0.81699997 1.25397e-38
0.0070340219 0.012759165 0.81800002 1.5859043e-38
0.0098957745 0.012821557 0.82200003 1.844052e-38
-0.026304469 0.0097661028 0.80500001 1.0514447e-38
-0.023535585 0.0097661028 0.80500001 8.3405285e-40
-0.020766702 0.0097661028 0.80500001 5.6051939e-45
-0.017997792 0.0097661028 0.80500001 5.6051939e-45
-0.015228909 0.0097661028 0.80500001 5.6051939e-45
-0.012460027 0.0097661028 0.80500001 5.6051939e-45
-0.0097151939 0.0097903665 0.80699998 5.6051939e-45
-0.0069394317 0.0097903665 0.80699998 5.6051939e-45
-0.0041843075 0.009838894 0.81099999 7.286752e-43
-0.0013982266 0.0098631578 0.81300002 7.286752e-43
0.0014016129 0.0098874215 0.815 5.6051939e-45
0.0042152638 0.0099116843 0.81699997 5.6051939e-45
0.0070340219 0.0099238176 0.81800002 1.1616215e-38
0.0098957745 0.0099723451 0.82200003 1.9360648e-38
-0.026304469 0.0069757765 0.80500001 9.7727214e-39
-0.023535585 0.0069757765 0.80500001 1.2907234e-39
-0.020715106 0.0069584455 0.80299997 1.015266e-39
-0.017953077 0.0069584455 0.80299997 9.2307033e-40
-0.015191073 0.0069584455 0.80299997 1.3818779e-39
-0.012460027 0.0069757765 0.80500001 1.3818779e-39
-0.0097151939 0.0069931075 0.80699998 1.4740735e-39
-0.0069394317 0.0069931075 0.80699998 1.7506604e-39
-0.0041843075 0.0070277699 0.81099999 1.5669754e-39
-0.0013982266 0.0070451014 0.81300002 1.7513666e-39
0.0014016129 0.0070624324 0.815 1.7513666e-39
0.0042152638 0.0070797629 0.81699997 1.8404094e-40
0.0070512192 0.0071057603 0.81999999 8.482686e-39
0.0098957745 0.0071230917 0.82200003 1.8808597e-38
-0.029073378 0.0041854503 0.80500001 1.9177385e-38
-0.026304469 0.0041854503 0.80500001 9.128096e-39
-0.023535585 0.0041854503 0.80500001 1.4758588e-39
-0.020715106 0.0041750516 0.80299997 1.0142136e-39
-0.017953077 0.0041750516 0.80299997 1.0142136e-39
-0.015191073 0.0041750516 0.80299997 1.4747798e-39
-0.012460027 0.0041854503 0.80500001 1.659171e-39
-0.0097151939 0.0041958485 0.80699998 1.7506604e-39
-0.0069394317 0.0041958485 0.80699998 1.6584648e-39
-0.0041739885 0.0042062472 0.80900002 1.200711e-39
-0.0013982266 0.0042270445 0.81300002 1.200711e-39
0.0014016129 0.0042374432 0.815 1.2925591e-39
0.0042204238 0.0042530415 0.81800002 1.1000193e-42
0.0070512192 0.0042634401 0.81999999 7.1915968e-39
0.0098957745 0.0042738388 0.82200003 1.8531659e-38
-0.026304469 0.0013951632 0.80500001 9.9592986e-39
-0.023535585 0.0013951632 0.80500001 8.3193128e-40
-0.020715106 0.0013916971 0.80299997 1.3829961e-39
-0.017953077 0.0013916971 0.80299997 1.2908005e-39
-0.015191073 0.0013916971 0.80299997 1.2925591e-39
-0.012429069 0.0013916971 0.80299997 1.2925591e-39
-0.0097151939 0.0013986295 0.80699998 1.659171e-39
-0.0069394317 0.0013986295 0.80699998 1.5669754e-39
-0.0041739885 0.0014020958 0.80900002 1.200711e-39
-0.0013982266 0.0014090283 0.81300002 1.0163197e-39
0.0014016129 0.0014124945 0.815 1.2925591e-39
0.0042204238 0.0014176939 0.81800002 1.460153e-42
0.007068418 0.0014246264 0.82200003 7.0990663e-39
0.0099198511 0.0014280927 0.824 1.8807911e-38
-0.026304469 -0.0013951632 0.80500001 1.1895034e-38
-0.023477111 -0.0013916971 0.80299997 1.0159498e-39
-0.020715106 -0.0013916971 0.80299997 2.1209073e-39
-0.017953077 -0.0013916971 0.80299997 1.5677335e-39
-0.015191073 -0.0013916971 0.80299997 1.659171e-39
-0.012429069 -0.0013916971 0.80299997 1.659171e-39
-0.0096911173 -0.0013951632 0.80500001 1.5669754e-39
-0.0069394317 -0.0013986295 0.80699998 1.659171e-39
-0.0041636694 -0.0013986295 0.80699998 1.2003635e-39
-0.0013982266 -0.0014090283 0.81300002 1.2003635e-39
0.0014050524 -0.0014159607 0.81699997 1.659171e-39
0.0042204238 -0.0014176939 0.81800002 4.6062782e-40
0.007068418 -0.0014246264 0.82200003 5.5310343e-39
0.0099198511 -0.0014280927 0.824 1.8715009e-38
-0.026239114 -0.0041750516 0.80299997 1.2446397e-38
-0.023477111 -0.0041750516 0.80299997 8.2974806e-40
-0.020715106 -0.0041750516 0.80299997 1.936516e-39
-0.017953077 -0.0041750516 0.80299997 1.4755379e-39
-0.015191073 -0.0041750516 0.80299997 1.4747798e-39
-0.012429069 -0.0041750516 0.80299997 1.4747798e-39
-0.0096911173 -0.0041854503 0.80500001 1.2903885e-39
-0.0069394317 -0.0041958485 0.80699998 1.4747798e-39
-0.0041636694 -0.0041958485 0.80699998 1.0159722e-39
-0.0013982266 -0.0042270445 0.81300002 1.2003635e-39
0.0014050524 -0.0042478419 0.81699997 1.0163197e-39
0.0042204238 -0.0042530415 0.81800002 1.807675e-42
0.007068418 -0.0042738388 0.82200003 4.0555287e-39
0.0099198511 -0.0042842375 0.824 1.8714634e-38
-0.026239114 -0.0069584455 0.80299997 1.1068833e-38
-0.023477111 -0.0069584455 0.80299997 9.7575215e-41
-0.020663513 -0.0069411141 0.801 4.6388724e-40
-0.017908363 -0.0069411141 0.801 1.1092567e-39
-0.015153238 -0.0069411141 0.801 1.4740735e-39
-0.012429069 -0.0069584455 0.80299997 1.3818779e-39
-0.0096911173 -0.0069757765 0.80500001 1.5651775e-39
-0.0069394317 -0.0069931075 0.80699998 1.5651775e-39
-0.0041636694 -0.0069931075 0.80699998 1.2903885e-39
-0.0013982266 -0.0070451014 0.81300002 1.3825841e-39
0.0014050524 -0.0070797629 0.81699997 1.6573731e-39
0.0042204238 -0.0070884293 0.81800002 3.6735179e-40
0.007068418 -0.0071230917 0.82200003 7.0123105e-39
0.0099198511 -0.0071404227 0.824 1.6416265e-38
-0.020663513 -0.0097175362 0.801 9.5107528e-41
-0.017908363 -0.0097175362 0.801 1.0170638e-39
-0.015153238 -0.0097175362 0.801 1.4740735e-39
-0.012429069 -0.0097417999 0.80299997 1.2896822e-39
-0.0096911173 -0.0097660637 0.80500001 1.1981929e-39
-0.0069394317 -0.0097903265 0.80699998 1.1059972e-39
-0.0041739885 -0.0098145902 0.80900002 8.3120821e-40
-0.0013982266 -0.0098631177 0.81300002 5.5462132e-40
0.0014067723 -0.0099237766 0.81800002 5.5499126e-40
0.0042410614 -0.0099723041 0.82200003 1.6815582e-44
0.0070856158 -0.0099965669 0.824 1.8069277e-38
0.0099439286 -0.010020831 0.82599998 1.779269e-38
-0.020715106 -0.012525194 0.80299997 1.8146815e-42
-0.017953077 -0.012525194 0.80299997 2.1223142e-39
-0.015191073 -0.012525194 0.80299997 1.6613416e-39
-0.012460027 -0.01255639 0.80500001 1.3847547e-39
-0.0097151939 -0.012587585 0.80699998 1.2003635e-39
-0.0069394317 -0.012587585 0.80699998 9.2377659e-40
-0.0041739885 -0.012618782 0.80900002 6.4681695e-40
-0.0013982266 -0.012681174 0.81300002 6.4681695e-40
0.0014102117 -0.01279036 0.81999999 1.2886004e-39
0.0042513805 -0.012852753 0.824 1.8368781e-40
0.007102814 -0.012883948 0.82599998 1.6317512e-38
0.0099439286 -0.012883948 0.82599998 1.8069229e-38
-0.020715106 -0.015308549 0.80299997 2.1804204e-42
-0.017953077 -0.015308549 0.80299997 2.0304843e-39
-0.015191073 -0.015308549 0.80299997 2.4882254e-39
-0.012460027 -0.015346677 0.80500001 1.7506604e-39
-0.0097151939 -0.015384804 0.80699998 1.2925591e-39
-0.0069394317 -0.015384804 0.80699998 1.0159722e-39
-0.0041636694 -0.015384804 0.80699998 8.3120821e-40
-0.0014051058 -0.015575446 0.81699997 5.5462132e-40
0.0014102117 -0.015632641 0.81999999 1.0138114e-39
0.0042513805 -0.015708897 0.824 1.6815582e-44
0.007102814 -0.015747026 0.82599998 1.327758e-38
0.0099680061 -0.015785154 0.82800001 1.7702971e-38
-0.023477111 -0.018091943 0.80299997 1.4290297e-38
-0.020715106 -0.018091943 0.80299997 1.1238414e-42
-0.017953077 -0.018091943 0.80299997 2.6747971e-39
-0.015191073 -0.018091943 0.80299997 2.0301241e-39
-0.012429069 -0.018091943 0.80299997 1.2925591e-39
-0.0096911173 -0.018137002 0.80500001 1.659171e-39
-0.0069394317 -0.018182063 0.80699998 1.4747798e-39
-0.0041636694 -0.018182063 0.80699998 8.3120821e-40
-0.0014051058 -0.018407367 0.81699997 8.3120821e-40
0.0014136513 -0.018520022 0.82200003 1.1981929e-39
0.0042513805 -0.018565083 0.824 8.4077908e-45
0.0070856158 -0.018565083 0.824 1.4106284e-38
0.0099439286 -0.018610142 0.82599998 1.7609718e-38
-0.020715106 -0.020875297 0.80299997 9.4055153e-41
-0.017908363 -0.020823304 0.801 3.0443153e-39
-0.015153238 -0.020823304 0.801 1.8443204e-39
-0.012429069 -0.020875297 0.80299997 1.2911466e-39
-0.0096911173 -0.02092729 0.80500001 1.659171e-39
-0.0069222338 -0.02092729 0.80500001 1.659171e-39
-0.0041636694 -0.020979283 0.80699998 9.2160597e-40
-0.0014051058 -0.021239249 0.81699997 9.2160597e-40
0.0014136513 -0.021369236 0.82200003 1.1981929e-39
0.0042513805 -0.021421228 0.824 8.4077908e-45
0.0070856158 -0.021421228 0.824 1.438179e-38
0.0099439286 -0.02147322 0.82599998 1.7424245e-38
-0.020715106 -0.023658691 0.80299997 2.1523944e-42
-0.017908363 -0.023599764 0.801 1.5694739e-39
-0.015153238 -0.023599764 0.801 1.8480324e-40
-0.012429069 -0.023658691 0.80299997 4.6139013e-40
-0.0096670389 -0.023658691 0.80299997 1.2003635e-39
-0.0069222338 -0.023717616 0.80500001 9.2377659e-40
-0.0041636694 -0.023776541 0.80699998 9.2160597e-40
-0.0014068257 -0.024100635 0.81800002 9.2160597e-40
0.0014136513 -0.024218488 0.82200003 8.3158096e-40
0.0042513805 -0.024277413 0.824 1.9618179e-44
0.0070856158 -0.024277413 0.824 1.3553098e-38
0.0099439286 -0.024336338 0.82599998 1.7425315e-38
-0.020663513 -0.026376227 0.801 6.1692781e-39
-0.017908363 -0.026376227 0.801 8.1053864e-39
-0.015153238 -0.026376227 0.801 5.7132424e-39
-0.012398113 -0.026376227 0.801 1.1956565e-39
-0.0096670389 -0.026442086 0.80299997 1.0761972e-42
-0.0069222338 -0.026507944 0.80500001 7.1746481e-43
-0.0041636694 -0.0265738 0.80699998 6.4466876e-40
-0.0014068257 -0.026936024 0.81800002 9.2125565e-40
0.0014136513 -0.027067741 0.82200003 7.3938533e-40
0.0042513805 -0.027133597 0.824 1.9618179e-44
0.0070856158 -0.027133597 0.824 1.3183965e-38
0.0099439286 -0.027199455 0.82599998 1.7424964e-38
-0.020663513 -0.029152649 0.801 2.341769e-38
-0.017908363 -0.029152649 0.801 2.341769e-38
-0.015153238 -0.029152649 0.801 2.0100095e-38
-0.012398113 -0.029152649 0.801 1.6965443e-38
-0.0096429624 -0.029152649 0.801 1.7699746e-38
-0.0069050356 -0.029225441 0.80299997 7.0972488e-39
-0.0041636694 -0.029371019 0.80699998 3.5873241e-43
-0.0014102653 -0.029844161 0.81999999 9.2911693e-41
0.0014136513 -0.029916953 0.82200003 7.286752e-43
0.0042513805 -0.029989742 0.824 1.8511993e-40
0.0070856158 -0.029989742 0.824 1.2724076e-38
0.0099198511 -0.029989742 0.824 1.6872879e-38
-0.020663513 -0.031929109 0.801 2.341769e-38
-0.017908363 -0.031929109 0.801 2.3325494e-38
-0.015153238 -0.031929109 0.801 2.2492146e-38
-0.012398113 -0.031929109 0.801 1.8712126e-38
-0.0096429624 -0.031929109 0.801 1.7973829e-38
-0.0069050356 -0.032008834 0.80299997 1.1151352e-38
-0.0041533508 -0.032088555 0.80500001 6.2645524e-39
-0.0014137051 -0.032766204 0.82200003 7.1865087e-39
0.0014170909 -0.032845929 0.824 6.7320788e-39
0.0042513805 -0.032845929 0.824 7.2852526e-39
0.0070856158 -0.032845929 0.824 1.5855853e-38
0.0099198511 -0.032845929 0.824 1.7238788e-38
-0.020663513 -0.034705531 0.801 1.0109079e-39
-0.017908363 -0.034705531 0.801 1.0109079e-39
-0.015153238 -0.034705531 0.801 3.0828566e-44
-0.012398113 -0.034705531 0.801 2.9427268e-44
-0.0096429624 -0.034705531 0.801 4.614438e-39
-0.0069050356 -0.034792189 0.80299997 1.1436915e-38
-0.0041533508 -0.034878843 0.80500001 1.1247851e-38
-0.0014137051 -0.035615418 0.82200003 1.2262003e-38
0.0014170909 -0.035702072 0.824 1.373641e-38
0.0042513805 -0.035702072 0.824 1.585691e-38
0.0070856158 -0.035702072 0.824 1.7332053e-38
0.0099198511 -0.035702072 0.824 1.6778879e-38
-0.017908363 -0.037481993 0.801 9.8651412e-41
-0.015153238 -0.037481993 0.801 1.3851023e-39
-0.012398113 -0.037481993 0.801 1.3851023e-39
-0.0096429624 -0.037481993 0.801 9.219563e-41
-0.0069050356 -0.037575584 0.80299997 8.9429761e-39
-0.0041636694 -0.037762757 0.80699998 8.2983129e-39
-0.0014171447 -0.03855826 0.824 9.4968561e-39
0.0014170909 -0.03855826 0.824 9.6834124e-39
0.0042513805 -0.03855826 0.824 1.0513173e-38
0.0070856158 -0.03855826 0.824 1.5855443e-38
0.0099198511 -0.03855826 0.824 1.760716e-38
-0.017908363 -0.040258415 0.801 8.1074197e-39
-0.015153238 -0.040258415 0.801 1.8439126e-39
-0.012398113 -0.040258415 0.801 1.1063476e-39
-0.0096429624 -0.040258415 0.801 8.29472e-40
-0.0069050356 -0.040358938 0.80299997 6.5861028e-44
-0.0041636694 -0.040559974 0.80699998 2.8025969e-45
-0.0014171447 -0.041414402 0.824 2.8025969e-45
0.0014170909 -0.041414402 0.824 5.6051939e-45
0.0042513805 -0.041414402 0.824 5.6051939e-45
0.0070856158 -0.041414402 0.824 1.1619138e-38
0.0099439286 -0.041514922 0.82599998 1.6782093e-38
-0.017953077 -0.04314233 0.80299997 7.003956e-39
-0.015191073 -0.04314233 0.80299997 3.0446236e-39
-0.012429069 -0.04314233 0.80299997 1.8655907e-40
-0.0096670389 -0.04314233 0.80299997 8.9426482e-39
-0.0069050356 -0.04314233 0.80299997 8.9426482e-39
-0.0041636694 -0.043357234 0.80699998 7.3648604e-40
-0.0014171447 -0.044270586 0.824 6.4429041e-40
0.0014170909 -0.044270586 0.824 1.8582619e-40
0.0042513805 -0.044270586 0.824 1.5687606e-39
0.0070856158 -0.044270586 0.824 1.3644225e-38
0.0099198511 -0.044270586 0.824 1.7239854e-38
-0.017953077 -0.045925684 0.80299997 3.9626142e-39
-0.015191073 -0.045925684 0.80299997 3.1325032e-39
-0.012429069 -0.045925684 0.80299997 2.0261557e-39
-0.0096429624 -0.045811299 0.801 8.295792e-39
-0.0068878378 -0.045811299 0.801 5.2533362e-39
-0.0041327132 -0.045811299 0.801 2.3989039e-39
-0.0013775885 -0.045811299 0.801 3.597447e-39
0.0014170909 -0.047126733 0.824 2.674727e-39
0.0042513805 -0.047126733 0.824 7.7454867e-39
0.0070856158 -0.047126733 0.824 9.2660581e-40
0.0098957745 -0.047012348 0.82200003 1.4663749e-38
-0.017953077 -0.04870908 0.80299997 4.8856649e-39
-0.015191073 -0.04870908 0.80299997 5.6239334e-39
-0.012398113 -0.048587758 0.801 3.0424558e-39
-0.0096429624 -0.048587758 0.801 3.7800208e-39
-0.0068878378 -0.048587758 0.801 1.6595213e-39
-0.0041327132 -0.048587758 0.801 4.6103981e-40
-0.0013775885 -0.048587758 0.801 5.465064e-44
0.0014067723 -0.049618967 0.81800002 3.5873241e-43
0.0042410614 -0.049861602 0.82200003 3.5873241e-43
0.0070856158 -0.049982917 0.824 9.6861954e-41
0.0098957745 -0.049861602 0.82200003 8.0256861e-39
-0.017953077 -0.051492475 0.80299997 2.6750676e-39
-0.015191073 -0.051492475 0.80299997 6.4894692e-40
-0.012398113 -0.051364221 0.801 2.1523944e-42
-0.0096429624 -0.051364221 0.801 1.4349296e-42
-0.0068878378 -0.051364221 0.801 3.8736486e-39
-0.0041430318 -0.051492475 0.80299997 1.2627917e-38
-0.0013810281 -0.051492475 0.80299997 1.3642069e-38
0.0014067723 -0.052454352 0.81800002 1.3184676e-38
0.0042410614 -0.052710854 0.82200003 1.3737849e-38
-0.015228909 -0.054411009 0.80500001 1.8440536e-38
-0.012429069 -0.054275829 0.80299997 1.8071753e-38
-0.0096670389 -0.054275829 0.80299997 1.8347271e-38
-0.0069050356 -0.054275829 0.80299997 1.8255075e-38
-0.012521939 -0.057485566 0.80900002 1.8993003e-38
-0.0097392714 -0.057485566 0.80900002 1.9177032e-38
