# .PCD v0.7 - Point Cloud Data file format
VERSION 0.7
FIELDS x y z rgb
SIZE 4 4 4 4
TYPE F F F F
COUNT 1 1 1 1
WIDTH 773
HEIGHT 1
VIEWPOINT 0 0 0 1 0 0 0
POINTS 773
DATA ascii
-0.015342416 0.077305429 0.81099999 2.1020604e-38
-0.012490982 0.076924145 0.80699998 2.341769e-38
-0.0097151939 0.076924145 0.80699998 2.2495371e-38
-0.015266744 0.074126922 0.80699998 2.2028644e-38
-0.012429069 0.073759511 0.80299997 2.3411579e-38
-0.0096670389 0.073759511 0.80299997 2.341769e-38
-0.0069050356 0.073759511 0.80299997 2.341769e-38
-0.0041430318 0.073759511 0.80299997 2.184927e-38
-0.0013844678 0.073943213 0.80500001 1.8530227e-38
-0.023594057 0.071329661 0.80699998 1.8532025e-38
-0.020818295 0.071329661 0.80699998 2.341769e-38
-0.017997792 0.071152888 0.80500001 1.9176691e-38
-0.015153238 0.070799336 0.801 2.2771602e-38
-0.012398113 0.070799336 0.801 2.3509167e-38
-0.0096429624 0.070799336 0.801 2.3417687e-38
-0.0068878378 0.070799336 0.801 2.3417687e-38
-0.0041327132 0.070799336 0.801 2.3047087e-38
-0.0013775885 0.070799336 0.801 2.0281218e-38
0.0013775361 0.070799336 0.801 1.8807899e-38
-0.023477111 0.06819272 0.80299997 2.2682643e-38
-0.020715106 0.06819272 0.80299997 2.341769e-38
-0.017908363 0.06802287 0.801 2.341769e-38
-0.015153238 0.06802287 0.801 2.3417687e-38
-0.012398113 0.06802287 0.801 2.3417687e-38
-0.0096188849 0.067853026 0.79900002 2.2587907e-38
-0.0068706395 0.067853026 0.79900002 1.9914234e-38
-0.0041223941 0.067853026 0.79900002 1.8898951e-38
-0.0013775885 0.06802287 0.801 1.9359929e-38
0.0013775361 0.06802287 0.801 1.917595e-38
0.0041430318 0.06819272 0.80299997 1.9083754e-38
-0.023477111 0.065409362 0.80299997 2.3509167e-38
-0.020715106 0.065409362 0.80299997 2.341769e-38
-0.017908363 0.065246448 0.801 2.3048907e-38
-0.015115402 0.065083541 0.79900002 2.0651796e-38
-0.012367156 0.065083541 0.79900002 1.9176666e-38
-0.0096188849 0.065083541 0.79900002 1.7887349e-38
-0.0068706395 0.065083541 0.79900002 1.7149784e-38
-0.0041223941 0.065083541 0.79900002 1.788663e-38
-0.0013775885 0.065246448 0.801 1.8071022e-38
0.0013775361 0.065246448 0.801 1.9177029e-38
0.0041430318 0.065409362 0.80299997 1.9177029e-38
0.0069222338 0.065572277 0.80500001 1.899229e-38
0.0096911173 0.065572277 0.80500001 1.8900094e-38
0.01246 0.065572277 0.80500001 1.8531306e-38
-0.023477111 0.062625974 0.80299997 1.5763623e-38
-0.020715106 0.062625974 0.80299997 1.6316459e-38
-0.017908363 0.062469989 0.801 1.650085e-38
-0.015115402 0.062314011 0.79900002 1.5669985e-38
-0.012367156 0.062314011 0.79900002 1.5116811e-38
-0.0096188849 0.062314011 0.79900002 1.4840921e-38
-0.0068706395 0.062314011 0.79900002 1.4748725e-38
-0.0041223941 0.062314011 0.79900002 1.4659067e-38
-0.0013775885 0.062469989 0.801 1.4843459e-38
0.0013775361 0.062469989 0.801 1.5858702e-38
0.0041327132 0.062469989 0.801 1.7610419e-38
0.0069222338 0.062781952 0.80500001 1.917776e-38
-0.023477111 0.059842616 0.80299997 1.5768278e-38
-0.020715106 0.059842616 0.80299997 1.7700144e-38
-0.017908363 0.059693567 0.801 2.0189426e-38
-0.015153238 0.059693567 0.801 1.6962178e-38
-0.012398113 0.059693567 0.801 1.2813375e-38
-0.0096188849 0.059544522 0.79900002 1.4929872e-38
-0.0068706395 0.059544522 0.79900002 1.1979612e-38
-0.0041327132 0.059693567 0.801 8.482274e-39
-0.0013775885 0.059693567 0.801 9.1276434e-39
0.0013775361 0.059693567 0.801 9.408245e-39
0.0041327132 0.059693567 0.801 1.1713136e-38
0.0069394317 0.060140707 0.80699998 1.5948001e-38
-0.023535585 0.057201337 0.80500001 1.8069978e-38
-0.020766702 0.057201337 0.80500001 2.1201017e-38
-0.017908363 0.056917105 0.801 1.5300496e-38
-0.015153238 0.056917105 0.801 1.9907744e-38
-0.012398113 0.056917105 0.801 1.6865288e-38
-0.0096429624 0.056917105 0.801 1.5669958e-38
-0.0068878378 0.056917105 0.801 1.3457263e-38
-0.0041327132 0.056917105 0.801 1.0230776e-38
-0.0013775885 0.056917105 0.801 6.6351468e-39
0.0013775361 0.056917105 0.801 5.0703813e-39
0.0041327132 0.056917105 0.801 5.1625769e-39
0.0068276445 0.056419708 0.79400003 1.0876489e-38
0.0095586926 0.056419708 0.79400003 2.055703e-38
0.01228974 0.056419708 0.79400003 1.9084117e-38
-0.029542886 0.055289701 0.81800002 1.9177041e-38
-0.026729262 0.055289701 0.81800002 1.9545464e-38
-0.023915663 0.055289701 0.81800002 1.9268877e-38
-0.020663513 0.054140642 0.801 2.0186492e-38
-0.017908363 0.054140642 0.801 1.5945493e-38
-0.015153238 0.054140642 0.801 1.9079029e-38
-0.012398113 0.054140642 0.801 1.631316e-38
-0.0096429624 0.054140642 0.801 1.5757463e-38
-0.0068878378 0.054140642 0.801 1.3636963e-38
-0.0041327132 0.054140642 0.801 8.9404005e-39
-0.0013775885 0.054140642 0.801 5.5291622e-39
0.0013775361 0.054140642 0.801 5.1640497e-39
0.0041223941 0.054005463 0.79900002 4.8874628e-39
0.0068276445 0.053667508 0.79400003 6.3658145e-39
0.0095586926 0.053667508 0.79400003 1.5400986e-38
0.012258783 0.053532325 0.792 1.7242397e-38
0.014945115 0.053397141 0.79000002 1.8256549e-38
0.017550617 0.053059187 0.78500003 1.8623167e-38
0.020250708 0.053059187 0.78500003 1.8069993e-38
0.02295085 0.053059187 0.78500003 1.8623129e-38
0.025650941 0.053059187 0.78500003 1.8715325e-38
0.028278798 0.052924003 0.78299999 1.8530227e-38
0.03097201 0.052924003 0.78299999 1.8530227e-38
-0.046538007 0.052582603 0.81999999 2.0651844e-38
-0.04371753 0.052582603 0.81999999 1.9083754e-38
-0.040996801 0.052710854 0.82200003 1.9544732e-38
-0.038169447 0.052710854 0.82200003 2.0283404e-38
-0.035342064 0.052710854 0.82200003 2.0467796e-38
-0.032514706 0.052710854 0.82200003 2.0742935e-38
-0.029542886 0.052454352 0.81800002 2.0374152e-38
-0.026729262 0.052454352 0.81800002 1.8895773e-38
-0.023915663 0.052454352 0.81800002 1.4562578e-38
-0.02086989 0.051877223 0.80900002 1.548814e-38
-0.017908363 0.051364221 0.801 1.8254009e-38
-0.015153238 0.051364221 0.801 1.8613391e-38
-0.012398113 0.051364221 0.801 1.3634827e-38
-0.0096429624 0.051364221 0.801 8.8467531e-39
-0.0068878378 0.051364221 0.801 5.0667365e-39
-0.0041327132 0.051364221 0.801 1.7538427e-39
-0.0013741488 0.051235974 0.79900002 2.1226253e-39
0.0013740966 0.051235974 0.79900002 2.2094931e-39
0.0041172346 0.051171847 0.79799998 3.500232e-39
0.0068276445 0.050915349 0.79400003 2.3067503e-39
0.0095586926 0.050915349 0.79400003 3.7064204e-40
0.012258783 0.050787095 0.792 7.0064923e-44
0.014907279 0.050530594 0.78799999 6.1771787e-39
0.017550617 0.050338224 0.78500003 2.341769e-38
0.020250708 0.050338224 0.78500003 2.3325494e-38
0.02295085 0.050338224 0.78500003 1.4560948e-38
0.025650941 0.050338224 0.78500003 1.5482891e-38
0.028278798 0.050209973 0.78299999 1.908593e-38
0.030892901 0.050081722 0.78100002 1.8440561e-38
0.033579234 0.050081722 0.78100002 1.8529857e-38
0.036265567 0.050081722 0.78100002 1.8622053e-38
-0.055804335 0.050468229 0.83200002 5.556765e-40
-0.052688051 0.050225597 0.82800001 1.558356e-38
-0.049719669 0.050104275 0.82599998 2.3325494e-38
-0.046538007 0.049740322 0.81999999 1.1801041e-38
-0.04371753 0.049740322 0.81999999 2.6639469e-39
-0.040996801 0.049861643 0.82200003 2.6639469e-39
-0.038169447 0.049861643 0.82200003 3.136155e-39
-0.035342064 0.049861643 0.82200003 4.0581113e-39
-0.032435592 0.049740322 0.81999999 3.6889196e-39
-0.029542886 0.049619004 0.81800002 2.5825721e-39
-0.026729262 0.049619004 0.81800002 1.8402972e-40
-0.023886424 0.049558342 0.81699997 6.4500647e-40
-0.02086989 0.049073074 0.80900002 3.2496111e-42
-0.017953077 0.048709121 0.80299997 5.627183e-39
-0.015153238 0.048587799 0.801 7.9234166e-39
-0.012398113 0.048587799 0.801 1.4697267e-39
-0.0096429624 0.048587799 0.801 5.5244791e-40
-0.0068878378 0.048587799 0.801 1.1056217e-39
-0.0041223941 0.048466485 0.79900002 2.1201618e-39
-0.0013741488 0.048466485 0.79900002 1.566988e-39
0.0013740966 0.048466485 0.79900002 1.5659216e-39
0.0041172346 0.048405822 0.79799998 3.0410517e-39
0.0068448423 0.048284508 0.796 2.7680787e-39
0.0095586926 0.04816319 0.79400003 3.1368613e-39
0.012258783 0.048041869 0.792 3.8815967e-43
0.014907279 0.047799233 0.78799999 2.0652209e-38
0.017595332 0.047738578 0.787 2.341769e-38
0.020250708 0.04761726 0.78500003 1.5304475e-38
0.022892375 0.047495943 0.78299999 1.1031022e-39
0.025585586 0.047495943 0.78299999 1.9911006e-38
0.028278798 0.047495943 0.78299999 2.2116837e-38
0.030892901 0.047374625 0.78100002 2.0641707e-38
0.033579234 0.047374625 0.78100002 1.7790832e-38
0.036265567 0.047374625 0.78100002 1.9081571e-38
0.038951948 0.047374625 0.78100002 1.7794097e-38
-0.061379962 0.047469929 0.82999998 1.2820737e-38
-0.058525089 0.047469929 0.82999998 1.8997826e-38
-0.055670187 0.047469929 0.82999998 1.1031022e-39
-0.052688051 0.047355544 0.82800001 1.7882705e-38
-0.049719669 0.047241159 0.82599998 2.341769e-38
-0.046651516 0.047012389 0.82200003 4.8863684e-39
-0.043824159 0.047012389 0.82200003 4.6312634e-40
-0.040996801 0.047012389 0.82200003 2.2148433e-39
-0.038076572 0.046898 0.81999999 1.4769504e-39
-0.035256069 0.046898 0.81999999 7.3938533e-40
-0.032435592 0.046898 0.81999999 3.706e-40
-0.029542886 0.046783619 0.81800002 7.3938252e-40
-0.026729262 0.046783619 0.81800002 1.3818779e-39
-0.023886424 0.046726421 0.81699997 3.9633555e-39
-0.020973079 0.046497654 0.81300002 1.659171e-39
-0.017997792 0.04604011 0.80500001 3.6843219e-40
-0.015191073 0.045925725 0.80299997 1.8441648e-40
-0.012429069 0.045925725 0.80299997 1.290764e-39
-0.0096429624 0.045811336 0.801 9.2412411e-40
-0.0068706395 0.045696955 0.79900002 1.8460804e-39
-0.0041223941 0.045696955 0.79900002 1.569146e-39
-0.001372429 0.045639761 0.79799998 8.3158096e-40
0.0013723767 0.045639761 0.79799998 9.2377659e-40
0.0041172346 0.045639761 0.79799998 2.3989067e-39
0.0068448423 0.045525376 0.796 2.676232e-39
0.0095586926 0.045410994 0.79400003 2.7684277e-39
0.012258783 0.045296606 0.792 4.3440252e-44
0.014907279 0.045067832 0.78799999 2.0835894e-38
0.017595332 0.045010645 0.787 2.3141466e-38
0.020302301 0.045010645 0.787 1.2911018e-39
0.022892375 0.044781871 0.78299999 7.5528418e-39
0.025585586 0.044781871 0.78299999 1.5481666e-38
0.028206568 0.04466749 0.78100002 1.1241956e-38
0.030892901 0.04466749 0.78100002 1.2348287e-38
0.033579234 0.04466749 0.78100002 1.0883012e-38
0.036265567 0.04466749 0.78100002 1.8166467e-38
0.038951948 0.04466749 0.78100002 1.8254356e-38
-0.058525089 0.044592947 0.82999998 1.6500096e-38
-0.055670187 0.044592947 0.82999998 3.2285917e-42
-0.052688051 0.044485494 0.82800001 1.3279398e-38
-0.049840055 0.044485494 0.82800001 2.1943301e-38
-0.046765022 0.044270586 0.824 4.057349e-39
-0.043824159 0.044163138 0.82200003 9.2927108e-41
-0.040996801 0.044163138 0.82200003 2.121231e-39
-0.038076572 0.044055682 0.81999999 1.5669754e-39
-0.035256069 0.044055682 0.81999999 1.9357579e-39
-0.032435592 0.044055682 0.81999999 1.7535373e-39
-0.029542886 0.043948229 0.81800002 1.8457329e-39
-0.026696583 0.0438945 0.81699997 2.4868227e-39
-0.023886424 0.0438945 0.81699997 1.9336489e-39
-0.020973079 0.043679595 0.81300002 1.5659216e-39
-0.018087223 0.04346469 0.80900002 1.1971391e-39
-0.015228909 0.043249782 0.80500001 1.7503129e-39
-0.012429069 0.04314233 0.80299997 2.7644648e-39
-0.0096429624 0.043034878 0.801 2.029771e-39
-0.0068706395 0.042927425 0.79900002 1.7531841e-39
-0.0041223941 0.042927425 0.79900002 1.569146e-39
-0.001372429 0.042873699 0.79799998 6.471897e-40
0.0013723767 0.042873699 0.79799998 7.3938533e-40
0.0041172346 0.042873699 0.79799998 1.9379285e-39
0.0068448423 0.042766247 0.796 2.4918408e-39
0.0095586926 0.042658795 0.79400003 2.2152539e-39
0.012258783 0.042551339 0.792 5.3249342e-44
0.014945115 0.04244389 0.79000002 1.9913592e-38
0.017617688 0.042336434 0.78799999 2.1573787e-38
0.020250708 0.042175259 0.78500003 3.6879233e-40
0.022892375 0.042067803 0.78299999 2.6707642e-39
0.025585586 0.042067803 0.78299999 1.5946935e-38
0.028206568 0.041960351 0.78100002 1.5111355e-38
0.030892901 0.041960351 0.78100002 1.2529877e-38
0.033579234 0.041960351 0.78100002 1.7699763e-38
0.036265567 0.041960351 0.78100002 1.8529524e-38
0.038951948 0.041960351 0.78100002 1.8069965e-38
-0.058525089 0.041716006 0.82999998 1.8991571e-38
-0.055670187 0.041716006 0.82999998 1.3732092e-38
-0.052688051 0.041615486 0.82800001 2.0232508e-39
-0.049840055 0.041615486 0.82800001 1.7427492e-38
-0.046878528 0.041514963 0.82599998 1.3002102e-38
-0.043930788 0.041414443 0.824 1.0761972e-42
-0.040996801 0.041313924 0.82200003 1.4349296e-42
-0.038076572 0.041213401 0.81999999 9.2160597e-40
-0.035256069 0.041213401 0.81999999 2.3045404e-39
-0.032435592 0.041213401 0.81999999 1.9372195e-39
-0.029615115 0.041213401 0.81999999 4.1499146e-39
-0.026696583 0.041062616 0.81699997 4.1506461e-39
-0.023827951 0.0409621 0.815 3.5974723e-39
-0.020973079 0.040861581 0.81300002 3.2290527e-39
-0.018042507 0.040560015 0.80699998 2.8602702e-39
-0.015191073 0.040358976 0.80299997 3.2283114e-39
-0.012398113 0.040258456 0.801 2.582942e-39
-0.0096429624 0.040258456 0.801 1.8450238e-39
-0.0068706395 0.040157937 0.79900002 1.8450238e-39
-0.0041223941 0.040157937 0.79900002 1.6613416e-39
-0.0013741488 0.040157937 0.79900002 9.2377659e-40
0.0013740966 0.040157937 0.79900002 7.3938533e-40
0.0041223941 0.040157937 0.79900002 1.9379285e-39
0.0068620401 0.040107675 0.79799998 2.3978501e-39
0.0095586926 0.039906636 0.79400003 2.3978501e-39
0.012258783 0.039806113 0.792 4.59951e-40
0.014945115 0.039705593 0.79000002 1.9913229e-38
0.017617688 0.03960507 0.78799999 2.0928058e-38
0.020250708 0.039454296 0.78500003 5.5282345e-40
0.022892375 0.039353773 0.78299999 1.1985432e-39
0.025585586 0.039353773 0.78299999 1.8439126e-40
0.028206568 0.039253253 0.78100002 1.0145807e-38
0.030892901 0.039253253 0.78100002 1.8443414e-38
0.033579234 0.039253253 0.78100002 1.8438394e-38
0.036265567 0.039253253 0.78100002 1.8161808e-38
-0.049840055 0.038745433 0.82800001 1.6225667e-38
-0.046878528 0.038651846 0.82599998 1.6502254e-38
-0.043930788 0.03855826 0.824 1.0781785e-38
-0.040996801 0.038464673 0.82200003 6.2641993e-39
-0.038076572 0.038371082 0.81999999 9.2194229e-41
-0.035256069 0.038371082 0.81999999 9.2194229e-41
-0.032435592 0.038371082 0.81999999 3.5873241e-43
-0.029615115 0.038371082 0.81999999 1.6602374e-39
-0.026696583 0.038230695 0.81699997 2.8574003e-39
-0.023711005 0.037949935 0.81099999 3.4105741e-39
-0.020818295 0.037762757 0.80699998 3.8715522e-39
-0.017953077 0.037575584 0.80299997 3.3183785e-39
-0.015153238 0.037481993 0.801 2.8595289e-39
-0.012398113 0.037481993 0.801 2.3063551e-39
-0.0096429624 0.037481993 0.801 1.7535373e-39
-0.0068706395 0.037388407 0.79900002 2.0301241e-39
-0.0041223941 0.037388407 0.79900002 2.1201618e-39
-0.0013741488 0.037388407 0.79900002 1.2904011e-39
0.0013740966 0.037388407 0.79900002 9.2160597e-40
0.0041223941 0.037388407 0.79900002 9.2160597e-40
0.0068620401 0.03734161 0.79799998 8.5479206e-44
0.0095827691 0.037248023 0.796 7.8472714e-44
0.01228974 0.03715444 0.79400003 1.0080381e-40
0.014945115 0.036967263 0.79000002 1.4206734e-38
0.017617688 0.036873672 0.78799999 1.8255814e-38
0.020302301 0.036826879 0.787 5.4406212e-39
0.022892375 0.036639702 0.78299999 1.0761972e-42
0.025585586 0.036639702 0.78299999 3.7021745e-40
0.028278798 0.036639702 0.78299999 1.5119017e-38
0.03097201 0.036639702 0.78299999 1.8530255e-38
0.033837203 0.036826879 0.787 1.7977416e-38
-0.041096549 0.035702113 0.824 1.9729852e-38
-0.038076572 0.035528801 0.81999999 1.9267057e-38
-0.035256069 0.035528801 0.81999999 1.6316796e-38
-0.032435592 0.035528801 0.81999999 1.0416311e-38
-0.029615115 0.035528801 0.81999999 1.3811394e-39
-0.026696583 0.035398815 0.81699997 2.7655536e-39
-0.023711005 0.035138849 0.81099999 3.2265318e-39
-0.020818295 0.034965537 0.80699998 3.3190833e-39
-0.017953077 0.03479223 0.80299997 3.0424964e-39
-0.015153238 0.034705572 0.801 2.4907492e-39
-0.012398113 0.034705572 0.801 2.029771e-39
-0.0096429624 0.034705572 0.801 1.6613416e-39
-0.0068706395 0.034618918 0.79900002 1.8457329e-39
-0.0041223941 0.034618918 0.79900002 1.8457329e-39
-0.0013741488 0.034618918 0.79900002 1.4769504e-39
0.0013775361 0.034705572 0.801 2.766023e-40
0.0041327132 0.034705572 0.801 5.3473619e-39
0.0068878378 0.034705572 0.801 1.7426807e-38
0.0096188849 0.034618918 0.79900002 1.7795589e-38
0.012320695 0.034488935 0.796 1.7701901e-38
0.015058622 0.034488935 0.796 1.7333119e-38
0.017707119 0.034315623 0.792 1.7148375e-38
0.020431288 0.034315623 0.792 1.4198114e-38
0.023009323 0.034098983 0.787 1.2903736e-38
0.025716294 0.034098983 0.787 1.1612998e-38
0.028423263 0.034098983 0.787 1.8989776e-38
-0.032435592 0.032686479 0.81999999 1.7334949e-38
-0.029615115 0.032686479 0.81999999 2.1706113e-42
-0.026696583 0.032566894 0.81699997 2.582942e-39
-0.023711005 0.032327726 0.81099999 3.0439201e-39
-0.020818295 0.032168277 0.80699998 3.2268877e-39
-0.017997792 0.032088555 0.80500001 2.7659095e-39
-0.015191073 0.032008834 0.80299997 2.1219666e-39
-0.012429069 0.032008834 0.80299997 1.9375754e-39
-0.0096429624 0.031929109 0.801 1.7535373e-39
-0.0068878378 0.031929109 0.801 1.4769504e-39
-0.0041327132 0.031929109 0.801 1.5684369e-39
-0.0013775885 0.031929109 0.801 1.4762413e-39
0.0013775361 0.031929109 0.801 9.2218051e-41
0.0041327132 0.031929109 0.801 8.1132378e-39
0.0069050356 0.032008834 0.80299997 1.9544039e-38
0.0096670389 0.032008834 0.80299997 1.8806474e-38
0.020869838 0.032248002 0.80900002 1.8715697e-38
-0.032316927 0.029734973 0.81699997 1.8902625e-38
-0.029506767 0.029734973 0.81699997 2.7910783e-40
-0.026696583 0.029734973 0.81699997 1.8450238e-39
-0.023711005 0.029516602 0.81099999 3.043567e-39
-0.02086989 0.029443812 0.80900002 3.1335976e-39
-0.017997792 0.029298229 0.80500001 2.9492064e-39
-0.015191073 0.029225441 0.80299997 1.8450238e-39
-0.012429069 0.029225441 0.80299997 1.9372195e-39
-0.0096429624 0.029152649 0.801 1.7528282e-39
-0.0068878378 0.029152649 0.801 1.8450238e-39
-0.0041327132 0.029152649 0.801 1.9372195e-39
-0.0013775885 0.029152649 0.801 1.9372195e-39
0.0013775361 0.029152649 0.801 7.3867627e-40
0.0041327132 0.029152649 0.801 4.8874796e-39
0.0069050356 0.029225441 0.80299997 1.9724432e-38
0.0097151939 0.029371019 0.80699998 1.9632236e-38
0.012490956 0.029371019 0.80699998 1.8255075e-38
-0.029506767 0.026903091 0.81699997 9.2199133e-39
-0.026696583 0.026903091 0.81699997 1.011666e-39
-0.023769479 0.026771378 0.81300002 3.4087524e-39
-0.02086989 0.026639661 0.80900002 2.7655536e-39
-0.018042507 0.0265738 0.80699998 2.5811623e-39
-0.015191073 0.026442086 0.80299997 2.029771e-39
-0.012429069 0.026442086 0.80299997 1.7531841e-39
-0.0096429624 0.026376227 0.801 2.0287116e-39
-0.0068878378 0.026376227 0.801 1.936516e-39
-0.0041327132 0.026376227 0.801 1.9372195e-39
-0.0013775885 0.026376227 0.801 2.1216107e-39
0.0013775361 0.026376227 0.801 1.9379285e-39
0.0041327132 0.026376227 0.801 3.7975188e-43
0.0069050356 0.026442086 0.80299997 1.6688803e-38
0.0096911173 0.026507944 0.80500001 1.8717107e-38
0.012521913 0.026639661 0.80900002 1.8071753e-38
-0.029434536 0.024012286 0.815 1.2908094e-38
-0.02663123 0.024012286 0.815 1.126644e-42
-0.023827951 0.024012286 0.815 2.9513868e-39
-0.020921484 0.023894433 0.81099999 3.0424964e-39
-0.018042507 0.023776582 0.80699998 2.8581052e-39
-0.015228909 0.023717657 0.80500001 2.673358e-39
-0.012429069 0.023658732 0.80299997 2.5811623e-39
-0.0096429624 0.023599803 0.801 2.3063579e-39
-0.0068878378 0.023599803 0.801 1.9375754e-39
-0.0041327132 0.023599803 0.801 2.0287116e-39
-0.0013775885 0.023599803 0.801 2.3052985e-39
0.0013775361 0.023599803 0.801 2.4882254e-39
0.0041327132 0.023599803 0.801 1.9618179e-44
0.0069050356 0.023658732 0.80299997 1.6780658e-38
0.0096670389 0.023658732 0.80299997 1.8624571e-38
0.012490956 0.023776582 0.80699998 1.7979202e-38
-0.029434536 0.021187296 0.815 1.2907373e-38
-0.02663123 0.021187296 0.815 3.7134409e-43
-0.023827951 0.021187296 0.815 3.5041654e-39
-0.020973079 0.021135304 0.81300002 3.2268877e-39
-0.018042507 0.020979322 0.80699998 3.0424964e-39
-0.015228909 0.02092733 0.80500001 2.9499449e-39
-0.012429069 0.020875337 0.80299997 2.673358e-39
-0.0096429624 0.020823343 0.801 2.1223198e-39
-0.0068878378 0.020823343 0.801 1.3847547e-39
-0.0041327132 0.020823343 0.801 1.0142136e-39
-0.0013775885 0.020823343 0.801 5.5323544e-40
0.0013775361 0.020823343 0.801 4.0637655e-44
0.0041327132 0.020823343 0.801 1.844319e-40
0.0069050356 0.020875337 0.80299997 1.5950182e-38
0.0096670389 0.020875337 0.80299997 1.8716051e-38
0.01246 0.02092733 0.80500001 1.8071044e-38
-0.02663123 0.018362308 0.815 4.5918028e-40
-0.023827951 0.018362308 0.815 3.6734339e-40
-0.020973079 0.018317247 0.81300002 3.5873241e-43
-0.018087223 0.018227125 0.80900002 3.5873241e-43
-0.015266744 0.018182063 0.80699998 3.0828566e-44
-0.012460027 0.018137002 0.80500001 1.8406336e-40
-0.0096670389 0.018091943 0.80299997 4.3440252e-44
-0.0068878378 0.018046882 0.801 1.8407597e-40
-0.0041327132 0.018046882 0.801 1.5735587e-39
-0.0013775885 0.018046882 0.801 6.2755358e-39
0.0013775361 0.018046882 0.801 8.3916226e-39
0.0041327132 0.018046882 0.801 8.3916226e-39
0.0068878378 0.018046882 0.801 1.7239116e-38
0.0096429624 0.018046882 0.801 1.8990833e-38
0.012429043 0.018091943 0.80299997 1.8162164e-38
-0.02663123 0.015537359 0.815 2.341769e-38
-0.023827951 0.015537359 0.815 2.0651821e-38
-0.020973079 0.01549923 0.81300002 1.6313594e-38
-0.018087223 0.015422974 0.80900002 1.2717965e-38
-0.015266744 0.015384845 0.80699998 1.0238059e-38
-0.012460027 0.015346716 0.80500001 1.4663449e-38
-0.0096670389 0.015308589 0.80299997 1.7334959e-38
-0.0069050356 0.015308589 0.80299997 1.9455458e-38
-0.0041327132 0.015270459 0.801 2.2773049e-38
-0.0013775885 0.015270459 0.801 1.9730593e-38
0.0013775361 0.015270459 0.801 1.6321513e-38
0.0041327132 0.015270459 0.801 1.4754187e-38
0.0068706395 0.015232331 0.79900002 1.7055813e-38
0.0096188849 0.015232331 0.79900002 1.8254356e-38
0.012398086 0.015270459 0.801 1.8162526e-38
0.015153212 0.015270459 0.801 1.8070331e-38
-0.02663123 0.01271237 0.815 2.3326213e-38
-0.023827951 0.01271237 0.815 2.3326213e-38
-0.020973079 0.012681174 0.81300002 2.341769e-38
-0.018087223 0.012618782 0.80900002 2.2587929e-38
-0.015266744 0.012587585 0.80699998 2.2587579e-38
-0.012490982 0.012587585 0.80699998 2.2310992e-38
-0.0096911173 0.01255639 0.80500001 2.194221e-38
-0.0069050356 0.012525194 0.80299997 2.2310992e-38
-0.0041327132 0.012493998 0.801 2.2955993e-38
-0.0013775885 0.012493998 0.801 2.0743298e-38
0.0013740966 0.012462802 0.79900002 1.411025e-38
0.0041223941 0.012462802 0.79900002 1.263512e-38
0.0068706395 0.012462802 0.79900002 1.447684e-38
0.0096188849 0.012462802 0.79900002 1.8533447e-38
0.012398086 0.012493998 0.801 1.8254359e-38
0.015153212 0.012493998 0.801 1.8069968e-38
-0.02663123 0.0098874215 0.815 8.1044825e-39
-0.023827951 0.0098874215 0.815 1.4558163e-38
-0.021024672 0.0098874215 0.815 1.2726262e-38
-0.018131938 0.009838894 0.81099999 1.5860913e-38
-0.015304581 0.0098146303 0.80900002 1.8348395e-38
-0.012490982 0.0097903665 0.80699998 1.6596678e-38
-0.0097151939 0.0097903665 0.80699998 1.5945904e-38
-0.0069050356 0.00974184 0.80299997 1.0414166e-38
-0.0041327132 0.0097175753 0.801 5.3357858e-39
-0.0013775885 0.0097175753 0.801 2.3877229e-39
0.0013740966 0.0096933125 0.79900002 0
0.0041223941 0.0096933125 0.79900002 0
0.0068706395 0.0096933125 0.79900002 3.4136976e-39
0.0096188849 0.0096933125 0.79900002 1.8902554e-38
0.01236713 0.0096933125 0.79900002 1.7702264e-38
-0.026729262 0.0070884293 0.81800002 2.7622395e-40
-0.023915663 0.0070884293 0.81800002 4.6061241e-40
-0.021076266 0.0070797629 0.81699997 3.0828566e-44
-0.018221367 0.0070624324 0.815 9.1867726e-41
-0.015342416 0.0070277699 0.81099999 5.3249342e-44
-0.012521939 0.0070104389 0.80900002 5.0446745e-44
-0.0097151939 0.0069931075 0.80699998 3.0828566e-44
-0.0069222338 0.0069757765 0.80500001 1.8406336e-40
-0.0041327132 0.0069411141 0.801 1.015266e-39
-0.0013775885 0.0069411141 0.801 1.5684397e-39
0.0013740966 0.0069237831 0.79900002 1.9357579e-39
0.0041223941 0.0069237831 0.79900002 7.3721471e-40
0.0068706395 0.0069237831 0.79900002 1.1074139e-39
0.0096188849 0.0069237831 0.79900002 1.8716779e-38
0.01236713 0.0069237831 0.79900002 1.7793741e-38
0.015153212 0.0069411141 0.801 1.7793741e-38
-0.029687349 0.0042738388 0.82200003 1.2999568e-38
-0.026859967 0.0042738388 0.82200003 1.8407877e-40
-0.023974136 0.0042634401 0.81999999 3.4109258e-39
-0.021102065 0.0042530415 0.81800002 3.2268877e-39
-0.018266082 0.0042478419 0.81699997 3.0424964e-39
-0.015418088 0.0042374432 0.815 2.7677256e-39
-0.012552896 0.0042166458 0.81099999 2.3989431e-39
-0.0097151939 0.0041958485 0.80699998 3.1339844e-39
-0.0069222338 0.0041854503 0.80500001 3.0417888e-39
-0.0041430318 0.0041750516 0.80299997 3.0424964e-39
-0.0013775885 0.0041646529 0.801 2.6737139e-39
0.0013775361 0.0041646529 0.801 1.8457329e-39
0.0041327132 0.0041646529 0.801 7.3938533e-40
0.0068878378 0.0041646529 0.801 4.5953621e-40
0.0096429624 0.0041646529 0.801 1.8714271e-38
0.012398086 0.0041646529 0.801 1.788593e-38
0.015153212 0.0041646529 0.801 1.788593e-38
-0.02975958 0.0014280927 0.824 1.2539309e-38
-0.026925318 0.0014280927 0.824 9.3326478e-41
-0.02403261 0.0014246264 0.82200003 3.5045648e-39
-0.021153659 0.0014211602 0.81999999 3.5953171e-39
-0.018288441 0.0014176939 0.81800002 3.5031214e-39
-0.015418088 0.0014124945 0.815 3.5034746e-39
-0.012552896 0.0014055619 0.81099999 3.4112789e-39
-0.0097392714 0.0014020958 0.80900002 3.3190833e-39
-0.0069222338 0.0013951632 0.80500001 3.2268877e-39
-0.0041430318 0.0013916971 0.80299997 3.1346921e-39
-0.0013775885 0.0013882307 0.801 2.7659095e-39
0.0013775361 0.0013882307 0.801 1.9379285e-39
0.0041327132 0.0013882307 0.801 1.2003635e-39
0.0068878378 0.0013882307 0.801 0
0.0096429624 0.0013882307 0.801 1.7517167e-38
0.012398086 0.0013882307 0.801 1.8070328e-38
0.015153212 0.0013882307 0.801 1.760935e-38
-0.02975958 -0.0014280927 0.824 1.2262359e-38
-0.026925318 -0.0014280927 0.824 7.3797982e-40
-0.02403261 -0.0014246264 0.82200003 3.68824e-39
-0.021153659 -0.0014211602 0.81999999 3.5956674e-39
-0.018288441 -0.0014176939 0.81800002 3.5956674e-39
-0.015418088 -0.0014124945 0.815 3.0450146e-39
-0.012552896 -0.0014055619 0.81099999 3.0450146e-39
-0.0097392714 -0.0014020958 0.80900002 3.5034746e-39
-0.0069394317 -0.0013986295 0.80699998 3.5956702e-39
-0.0041533508 -0.0013951632 0.80500001 3.2268877e-39
-0.0013775885 -0.0013882307 0.801 2.7659095e-39
0.0013775361 -0.0013882307 0.801 1.8457329e-39
0.0041327132 -0.0013882307 0.801 1.4769504e-39
0.0068878378 -0.0013882307 0.801 5.6051939e-45
0.0096670389 -0.0013916971 0.80299997 1.4382884e-38
0.012398086 -0.0013882307 0.801 1.8346918e-38
0.015153212 -0.0013882307 0.801 1.7517157e-38
-0.02975958 -0.0042842375 0.824 9.7723612e-39
-0.026925318 -0.0042842375 0.824 2.1154828e-39
-0.023974136 -0.0042634401 0.81999999 4.6969605e-39
-0.021102065 -0.0042530415 0.81800002 3.7800587e-39
-0.018266082 -0.0042478419 0.81699997 3.5956674e-39
-0.015418088 -0.0042374432 0.815 2.9528189e-39
-0.012552896 -0.0042166458 0.81099999 2.8606233e-39
-0.0097392714 -0.0042062472 0.80900002 3.1346921e-39
-0.0069394317 -0.0041958485 0.80699998 3.2268877e-39
-0.0041533508 -0.0041854503 0.80500001 3.0424964e-39
-0.0013775885 -0.0041646529 0.801 2.7659095e-39
0.0013775361 -0.0041646529 0.801 1.7535373e-39
0.0041327132 -0.0041646529 0.801 1.2925591e-39
0.0068878378 -0.0041646529 0.801 2.8025969e-45
0.0096670389 -0.0041750516 0.80299997 1.1893599e-38
0.012429043 -0.0041750516 0.80299997 1.7978851e-38
-0.026925318 -0.0071404227 0.824 3.2285917e-42
-0.023974136 -0.0071057603 0.81999999 1.793662e-42
-0.021102065 -0.0070884293 0.81800002 1.0142136e-39
-0.018266082 -0.0070797629 0.81699997 3.3191043e-39
-0.015418088 -0.0070624324 0.815 3.0424964e-39
-0.012552896 -0.0070277699 0.81099999 2.8581052e-39
-0.0097392714 -0.0070104389 0.80900002 3.1335976e-39
-0.0069394317 -0.0069931075 0.80699998 3.5023802e-39
-0.0041533508 -0.0069757765 0.80500001 2.9499449e-39
-0.0013775885 -0.0069411141 0.801 2.5811623e-39
0.0013775361 -0.0069411141 0.801 1.7535373e-39
0.0041327132 -0.0069411141 0.801 6.471897e-40
0.0068878378 -0.0069411141 0.801 1.1238414e-42
0.0096670389 -0.0069584455 0.80299997 1.2631925e-38
0.012429043 -0.0069584455 0.80299997 1.7704783e-38
-0.026794612 -0.0099480404 0.81999999 1.8807883e-38
-0.023974136 -0.0099480404 0.81999999 1.8346905e-38
-0.021102065 -0.0099237766 0.81800002 7.2863765e-39
-0.018266082 -0.0099116443 0.81699997 9.5117337e-41
-0.015418088 -0.0098873805 0.815 2.4889667e-39
-0.012583853 -0.0098631177 0.81300002 2.4889667e-39
-0.0097874263 -0.0098631177 0.81300002 1.4776482e-39
-0.0069566299 -0.0098145902 0.80900002 1.8464307e-39
-0.0041636694 -0.0097903265 0.80699998 2.0287116e-39
-0.0013844678 -0.0097660637 0.80500001 1.936516e-39
0.0013809756 -0.0097417999 0.80299997 1.2925591e-39
0.0041430318 -0.0097417999 0.80299997 2.7840718e-40
0.0069050356 -0.0097417999 0.80299997 2.7604963e-39
0.0097151939 -0.0097903265 0.80699998 1.935571e-38
0.012490956 -0.0097903265 0.80699998 1.7701183e-38
-0.021076266 -0.012743565 0.81699997 9.3179047e-39
-0.018266082 -0.012743565 0.81699997 1.8244906e-42
-0.015455923 -0.012743565 0.81699997 2.9499449e-39
-0.012614809 -0.01271237 0.815 2.4889667e-39
-0.0098115029 -0.01271237 0.815 5.5462132e-40
-0.0069566299 -0.012618782 0.80900002 1.9375558e-39
-0.0041636694 -0.012587585 0.80699998 2.8577492e-39
-0.0013879074 -0.012587585 0.80699998 2.4889667e-39
0.0013844152 -0.01255639 0.80500001 1.7528282e-39
0.0041533508 -0.01255639 0.80500001 9.2306753e-40
0.0069222338 -0.01255639 0.80500001 0
0.0097151939 -0.012587585 0.80699998 1.6871797e-38
0.012490956 -0.012587585 0.80699998 1.7517876e-38
0.015304554 -0.012618782 0.80900002 1.7149093e-38
-0.021076266 -0.015575446 0.81699997 1.4472919e-38
-0.018266082 -0.015575446 0.81699997 1.1967481e-39
-0.015455923 -0.015575446 0.81699997 3.4112789e-39
-0.012645765 -0.015575446 0.81699997 2.6737139e-39
-0.0098115029 -0.015537319 0.815 7.3938533e-40
-0.0069910265 -0.01549919 0.81300002 6.1789275e-39
-0.0041739885 -0.015422934 0.80900002 2.4889667e-39
-0.0013879074 -0.015384804 0.80699998 2.5811623e-39
0.0013878547 -0.015384804 0.80699998 1.7528282e-39
0.0041636694 -0.015384804 0.80699998 1.29185e-39
0.0069394317 -0.015384804 0.80699998 2.8025969e-45
0.0097151939 -0.015384804 0.80699998 1.3553121e-38
0.012521913 -0.015422934 0.80900002 1.7885221e-38
0.015304554 -0.015422934 0.80900002 1.7147656e-38
-0.018266082 -0.018407367 0.81699997 1.9375137e-39
-0.015455923 -0.018407367 0.81699997 3.2283114e-39
-0.012645765 -0.018407367 0.81699997 2.582942e-39
-0.0098115029 -0.018362308 0.815 5.5424297e-40
-0.0069910265 -0.018317247 0.81300002 9.5894147e-39
-0.0041739885 -0.018227125 0.80900002 2.0287116e-39
-0.0013879074 -0.018182063 0.80699998 2.4896898e-39
0.0013878547 -0.018182063 0.80699998 1.6613416e-39
0.0041636694 -0.018182063 0.80699998 1.0159722e-39
0.0069394317 -0.018182063 0.80699998 1.0818024e-42
0.0097151939 -0.018182063 0.80699998 8.5752754e-39
0.012521913 -0.018227125 0.80900002 1.8620621e-38
0.015304554 -0.018227125 0.80900002 1.7698664e-38
-0.021102065 -0.021265248 0.81800002 1.0761972e-42
-0.018266082 -0.021239249 0.81699997 2.9516923e-39
-0.015455923 -0.021239249 0.81699997 3.504178e-39
-0.012645765 -0.021239249 0.81699997 2.8588086e-39
-0.0098115029 -0.021187257 0.815 3.5873241e-43
-0.0069910265 -0.021135263 0.81300002 1.005004e-38
-0.0041739885 -0.021031277 0.80900002 1.3829961e-39
-0.0013879074 -0.020979283 0.80699998 2.4893437e-39
0.0013878547 -0.020979283 0.80699998 1.9379285e-39
0.0041636694 -0.020979283 0.80699998 1.2925591e-39
0.0069394317 -0.020979283 0.80699998 6.4648064e-40
0.0097151939 -0.020979283 0.80699998 1.8550249e-40
0.012521913 -0.021031277 0.80900002 1.8619529e-38
0.015304554 -0.021031277 0.80900002 1.7881964e-38
-0.018288441 -0.024100635 0.81800002 3.4116461e-39
-0.015455923 -0.02407117 0.81699997 3.3190833e-39
-0.012645765 -0.02407117 0.81699997 2.6737139e-39
-0.0098355804 -0.02407117 0.81699997 5.6051939e-45
-0.0070082243 -0.024012245 0.815 1.1985798e-38
-0.0041739885 -0.023835469 0.80900002 1.2011188e-39
-0.0013879074 -0.023776541 0.80699998 2.1230751e-39
0.0013878547 -0.023776541 0.80699998 2.3038342e-39
0.0041636694 -0.023776541 0.80699998 1.6584648e-39
0.0069394317 -0.023776541 0.80699998 9.3326478e-41
0.0097151939 -0.023776541 0.80699998 5.0446745e-44
0.012490956 -0.023776541 0.80699998 1.5951964e-38
0.015266717 -0.023776541 0.80699998 1.687392e-38
-0.021102065 -0.026936024 0.81800002 7.6651026e-43
-0.018288441 -0.026936024 0.81800002 3.4123649e-39
-0.015455923 -0.026903091 0.81699997 3.2268877e-39
-0.012645765 -0.026903091 0.81699997 2.5815183e-39
-0.0098355804 -0.026903091 0.81699997 5.6051939e-45
-0.0070082243 -0.026837233 0.815 1.3276536e-38
-0.0041739885 -0.026639661 0.80900002 3.5873241e-42
-0.0013879074 -0.0265738 0.80699998 2.5111268e-42
0.0013878547 -0.0265738 0.80699998 3.0828566e-44
0.0041636694 -0.0265738 0.80699998 1.8406336e-40
0.0069394317 -0.0265738 0.80699998 5.6577145e-40
0.0097151939 -0.0265738 0.80699998 4.9911617e-39
0.012490956 -0.0265738 0.80699998 1.7514624e-38
0.015266717 -0.0265738 0.80699998 1.7422428e-38
-0.018288441 -0.029771371 0.81800002 1.8869325e-40
-0.015455923 -0.029734973 0.81699997 2.4882254e-39
-0.012645765 -0.029734973 0.81699997 1.6584648e-39
-0.0098355804 -0.029734973 0.81699997 3.629363e-43
-0.0070082243 -0.029662183 0.815 1.5028251e-38
-0.0041739885 -0.029443812 0.80900002 1.502613e-38
-0.0013879074 -0.029371019 0.80699998 1.4749544e-38
0.0013878547 -0.029371019 0.80699998 1.4476897e-38
0.0041636694 -0.029371019 0.80699998 1.6781788e-38
0.0069394317 -0.029371019 0.80699998 1.5951276e-38
0.0097392714 -0.029443812 0.80900002 1.6227863e-38
0.012521913 -0.029443812 0.80900002 1.6872507e-38
0.015304554 -0.029443812 0.80900002 1.6780311e-38
0.01813191 -0.029516602 0.81099999 1.6780295e-38
-0.018333154 -0.032686479 0.81999999 6.1696018e-39
-0.015474843 -0.032606758 0.81800002 1.0761972e-42
-0.012645765 -0.032566894 0.81699997 1.0761972e-42
-0.0098355804 -0.032566894 0.81699997 9.7933947e-41
-0.0069910265 -0.032407451 0.81300002 1.7061924e-38
-0.0041739885 -0.032248002 0.80900002 2.341769e-38
-0.0013879074 -0.032168277 0.80699998 2.341769e-38
0.0013878547 -0.032168277 0.80699998 1.9913177e-38
0.0041636694 -0.032168277 0.80699998 1.7331699e-38
0.0069394317 -0.032168277 0.80699998 1.7792312e-38
0.0097392714 -0.032248002 0.80900002 1.5579617e-38
0.012521913 -0.032248002 0.80900002 1.4292458e-38
0.015304554 -0.032248002 0.80900002 1.678174e-38
0.01813191 -0.032327726 0.81099999 1.6688097e-38
-0.02403261 -0.035615418 0.82200003 1.8531306e-38
-0.01837787 -0.035615418 0.82200003 2.341769e-38
-0.015474843 -0.035442106 0.81800002 2.221915e-38
-0.012645765 -0.035398774 0.81699997 1.9637672e-38
-0.0098355804 -0.035398774 0.81699997 1.0238343e-38
-0.0069910265 -0.035225466 0.81300002 1.6876429e-38
-0.0041739885 -0.035052154 0.80900002 2.0559638e-38
-0.0013879074 -0.034965497 0.80699998 1.862353e-38
0.0013878547 -0.034965497 0.80699998 1.4198114e-38
0.0041636694 -0.034965497 0.80699998 6.9146596e-39
0.0069394317 -0.034965497 0.80699998 2.9412526e-39
0.0097392714 -0.035052154 0.80900002 1.7448744e-39
0.012521913 -0.035052154 0.80900002 3.5873241e-42
0.015304554 -0.035052154 0.80900002 1.6414407e-38
0.01813191 -0.035138808 0.81099999 1.6503706e-38
-0.021205254 -0.038464673 0.82200003 2.0376326e-38
-0.01837787 -0.038464673 0.82200003 2.3142185e-38
-0.015512677 -0.038371082 0.81999999 2.2954564e-38
-0.012661245 -0.038277496 0.81800002 1.9174543e-38
-0.0098476196 -0.038277496 0.81800002 8.5820647e-39
-0.0070082243 -0.038137108 0.815 1.4390389e-38
-0.0041739885 -0.037856348 0.80900002 1.9156311e-40
-0.0013879074 -0.037762757 0.80699998 3.9460565e-42
0.0013878547 -0.037762757 0.80699998 3.629363e-43
0.0041636694 -0.037762757 0.80699998 2.7694983e-40
0.0069394317 -0.037762757 0.80699998 1.8439406e-40
0.0097392714 -0.037856348 0.80900002 7.7444357e-39
0.012521913 -0.037856348 0.80900002 1.042459e-38
0.015304554 -0.037856348 0.80900002 1.5310958e-38
0.01813191 -0.037949935 0.81099999 1.6503706e-38
-0.021205254 -0.041313883 0.82200003 2.2966049e-39
-0.01837787 -0.041313883 0.82200003 2.1122164e-39
-0.015512677 -0.04121336 0.81999999 2.7553031e-40
-0.012661245 -0.041112844 0.81800002 9.2089972e-40
-0.0098476196 -0.041112844 0.81800002 1.4349296e-42
-0.0070254221 -0.041062579 0.81699997 1.5766885e-38
-0.0041739885 -0.040660497 0.80900002 1.1802082e-38
-0.0013879074 -0.040559974 0.80699998 1.226306e-38
0.0013878547 -0.040559974 0.80699998 2.8596018e-40
0.0041636694 -0.040559974 0.80699998 1.0235252e-39
0.0069394317 -0.040559974 0.80699998 3.5873241e-43
0.0097392714 -0.040660497 0.80900002 1.5212995e-38
0.012521913 -0.040660497 0.80900002 1.7885221e-38
0.01534239 -0.040761016 0.81099999 1.6778873e-38
-0.021102065 -0.043948229 0.81800002 3.7093071e-40
-0.018288441 -0.043948229 0.81800002 2.1226477e-39
-0.015474843 -0.043948229 0.81800002 1.4776482e-39
-0.012661245 -0.043948229 0.81800002 1.4377322e-42
-0.0098476196 -0.043948229 0.81800002 5.9909335e-39
-0.0070254221 -0.0438945 0.81699997 1.8068561e-38
-0.0042152638 -0.0438945 0.81699997 1.7515705e-38
-0.0013913471 -0.04346469 0.80900002 1.5487401e-38
0.0013878547 -0.043357234 0.80699998 2.8629789e-40
0.0041636694 -0.043357234 0.80699998 8.3947167e-40
0.0069394317 -0.043357234 0.80699998 1.0789998e-42
0.0097392714 -0.04346469 0.80900002 1.0050403e-38
-0.021102065 -0.046783578 0.81800002 1.2903885e-39
-0.018288441 -0.046783578 0.81800002 1.0138016e-39
-0.015474843 -0.046783578 0.81800002 6.4536941e-40
-0.012661245 -0.046783578 0.81800002 3.6878252e-40
-0.0098476196 -0.046783578 0.81800002 4.5161537e-39
-0.0070340219 -0.046783578 0.81800002 1.050887e-38
-0.0042204238 -0.046783578 0.81800002 3.5008696e-39
-0.021076266 -0.049558301 0.81699997 0
-0.018221367 -0.049436986 0.815 0
-0.015418088 -0.049436986 0.815 3.5873241e-43
-0.012614809 -0.049436986 0.815 3.5873241e-43
-0.0098355804 -0.049558301 0.81699997 3.2285917e-42
-0.0070512192 -0.049740281 0.81999999 3.8754436e-39
-0.0042307423 -0.049740281 0.81999999 6.2696532e-39
