# .PCD v0.7 - Point Cloud Data file format
VERSION 0.7
FIELDS x y z rgb
SIZE 4 4 4 4
TYPE F F F F
COUNT 1 1 1 1
WIDTH 1010
HEIGHT 1
VIEWPOINT 0 0 0 1 0 0 0
POINTS 1010
DATA ascii
0.014437784 0.022140509 0.36500001 4.6242569e-40
0.01569324 0.022140509 0.36500001 4.6062782e-40
0.016948696 0.022140509 0.36500001 3.6843219e-40
0.018453548 0.022443805 0.37 4.6097815e-40
0.019726202 0.022443805 0.37 6.4536941e-40
0.020942101 0.022383144 0.36899999 6.4501908e-40
0.022211315 0.022383144 0.36899999 6.4501908e-40
0.023416899 0.022322485 0.368 6.4536941e-40
0.024615603 0.022261828 0.36700001 5.5317378e-40
0.025877938 0.022261828 0.36700001 6.4536941e-40
0.027066344 0.022201167 0.366 6.4536941e-40
0.028325241 0.022201167 0.366 4.6242569e-40
0.029584136 0.022201167 0.366 6.4681695e-40
0.030843033 0.022201167 0.366 1.0163197e-39
0.032189641 0.022261828 0.36700001 1.5694935e-39
0.033543125 0.022322485 0.368 2.3967361e-39
0.0348089 0.022322485 0.368 2.7655186e-39
0.036172725 0.022383144 0.36899999 2.8577142e-39
0.037441939 0.022383144 0.36899999 2.9499098e-39
0.039445516 0.022807756 0.37599999 1.4772979e-39
0.040738806 0.022807756 0.37599999 2.787547e-40
0.042032097 0.022807756 0.37599999 3.7023006e-40
0.043901529 0.023111051 0.38100001 6.4681695e-40
0.045330707 0.023171712 0.382 1.2904011e-39
0.046644635 0.023171712 0.382 2.0279661e-39
0.047958564 0.023171712 0.382 2.4907492e-39
0.049401481 0.023232369 0.38299999 2.9517273e-39
0.050718848 0.023232369 0.38299999 3.6874721e-39
0.052036218 0.023232369 0.38299999 1.9357551e-39
0.053632196 0.023353688 0.38499999 1.0130729e-39
0.05495647 0.023353688 0.38499999 1.2896598e-39
0.056280717 0.023353688 0.38499999 1.8439406e-40
0.057604965 0.023353688 0.38499999 6.5458925e-39
0.059082281 0.023414345 0.38600001 1.576545e-38
0.060409967 0.023414345 0.38600001 1.5027885e-38
0.061897598 0.023475004 0.38699999 1.622715e-38
0.063228749 0.023475004 0.38699999 1.622715e-38
0.064559877 0.023475004 0.38699999 4.2420682e-39
0.065891005 0.023475004 0.38699999 7.3863423e-40
0.067395836 0.023535665 0.38800001 1.473726e-39
0.068730406 0.023535665 0.38800001 3.5020298e-39
0.070064969 0.023535665 0.38800001 1.1611196e-38
0.071583554 0.023596322 0.389 1.2072174e-38
0.073109046 0.023656981 0.38999999 4.3334875e-39
0.074641392 0.02371764 0.391 7.9291058e-39
-0.024615616 0.020989716 0.36700001 1.8156704e-38
-0.023353279 0.020989716 0.36700001 1.8381449e-39
-0.022151137 0.021046909 0.368 2.1219666e-39
-0.02088535 0.021046909 0.368 2.1219666e-39
-0.019619575 0.021046909 0.368 5.6051939e-45
-0.018353799 0.021046909 0.368 8.2979724e-39
-0.01704159 0.020989716 0.36700001 2.0924079e-38
-0.015779242 0.020989716 0.36700001 2.0370906e-38
-0.014516907 0.020989716 0.36700001 1.9269227e-38
-0.013290687 0.021046909 0.368 1.9084836e-38
-0.0120249 0.021046909 0.368 1.8439123e-38
-0.010759125 0.021046909 0.368 5.4395394e-39
-0.0094933491 0.021046909 0.368 2.7731276e-40
-0.0082499189 0.021104099 0.36899999 1.5680516e-39
-0.0069807046 0.021104099 0.36899999 9.2412411e-40
-0.0057114898 0.021104099 0.36899999 9.2412411e-40
-0.0044422634 0.021104099 0.36899999 1.2003635e-39
-0.0031816477 0.021161294 0.37 1.2003635e-39
-0.0019089936 0.021161294 0.37 1.0159722e-39
-0.00063633925 0.021161294 0.37 9.2377659e-40
0.00063631503 0.021161294 0.37 1.0155995e-39
0.0019089936 0.021161294 0.37 8.3120821e-40
0.0031902469 0.021218486 0.37099999 9.2160597e-40
0.0044663409 0.021218486 0.37099999 8.2941034e-40
0.005757913 0.021275679 0.37200001 7.3721471e-40
0.0070374468 0.021275679 0.37200001 7.3721471e-40
0.0083169807 0.021275679 0.37200001 5.5499126e-40
0.0095965136 0.021275679 0.37200001 1.0159694e-39
0.010905308 0.021332871 0.373 1.1996572e-39
0.011926871 0.020875331 0.36500001 1.015266e-39
0.013182327 0.020875331 0.36500001 9.2412411e-40
0.014437784 0.020875331 0.36500001 6.4753722e-40
0.01569324 0.020875331 0.36500001 6.4681695e-40
0.016948696 0.020875331 0.36500001 4.6242569e-40
0.018204177 0.020875331 0.36500001 6.4501908e-40
0.019726202 0.021161294 0.37 6.4501908e-40
0.020942101 0.021104099 0.36899999 3.7023006e-40
0.022211315 0.021104099 0.36899999 4.6242569e-40
0.023289632 0.020932522 0.366 4.6242569e-40
0.024548529 0.020932522 0.366 4.6242569e-40
0.025807425 0.020932522 0.366 4.6242569e-40
0.027066344 0.020932522 0.366 5.5462132e-40
0.028325241 0.020932522 0.366 6.4681695e-40
0.029584136 0.020932522 0.366 8.3120821e-40
0.030843033 0.020932522 0.366 1.2903885e-39
0.032101929 0.020932522 0.366 1.2903885e-39
0.033543125 0.021046909 0.368 1.659171e-39
0.0348089 0.021046909 0.368 1.7513666e-39
0.036172725 0.021104099 0.36899999 1.8435623e-39
0.037746351 0.021275679 0.37200001 1.9357579e-39
0.039130788 0.021332871 0.373 1.200711e-39
0.040738806 0.021504449 0.37599999 4.6314596e-40
0.041920312 0.021447256 0.375 6.4536941e-40
0.043210164 0.021447256 0.375 6.4536941e-40
0.045330707 0.021847606 0.382 9.2160597e-40
0.046644635 0.021847606 0.382 1.4747798e-39
0.047958564 0.021847606 0.382 2.3992542e-39
0.049401481 0.021904798 0.38299999 1.7538848e-39
0.050718848 0.021904798 0.38299999 1.5651775e-39
0.052036218 0.021904798 0.38299999 1.3807863e-39
0.053353589 0.021904798 0.38299999 9.219563e-40
0.054813728 0.021961991 0.384 1.1063476e-39
0.056280717 0.022019183 0.38499999 1.0818024e-42
0.057604965 0.022019183 0.38499999 7.5611235e-39
0.059082281 0.022076376 0.38600001 1.5212279e-38
0.060409967 0.022076376 0.38600001 1.5120083e-38
0.061737657 0.022076376 0.38600001 1.5765453e-38
0.063228749 0.022133568 0.38699999 1.5673257e-38
0.064559877 0.022133568 0.38699999 3.6867336e-39
0.065891005 0.022133568 0.38699999 1.1052559e-39
0.067395836 0.022190761 0.38800001 1.0138114e-39
0.068730406 0.022190761 0.38800001 3.3187022e-39
0.070064969 0.022190761 0.38800001 9.5836147e-39
0.071583554 0.022247953 0.389 8.9382453e-39
0.073109046 0.022305146 0.38999999 7.6529253e-39
0.074641392 0.022362338 0.391 1.2908076e-38
-0.024615616 0.019717604 0.36700001 1.8617316e-38
-0.023353279 0.019717604 0.36700001 3.4972822e-39
-0.022090944 0.019717604 0.36700001 1.9347041e-39
-0.020828595 0.019717604 0.36700001 2.5800735e-39
-0.01956626 0.019717604 0.36700001 1.4769504e-39
-0.018303925 0.019717604 0.36700001 1.1000193e-42
-0.01704159 0.019717604 0.36700001 1.7235879e-38
-0.015779242 0.019717604 0.36700001 1.9540769e-38
-0.014516907 0.019717604 0.36700001 1.6595551e-38
-0.013254571 0.019717604 0.36700001 1.724092e-38
-0.011992224 0.019717604 0.36700001 1.6780311e-38
-0.010759125 0.01977133 0.368 1.0142226e-38
-0.0094933491 0.01977133 0.368 3.0828566e-44
-0.0082275625 0.01977133 0.368 1.5669978e-39
-0.0069617871 0.01977133 0.368 9.2412411e-40
-0.0057114898 0.019825056 0.36899999 1.0163197e-39
-0.0044422634 0.019825056 0.36899999 1.3818779e-39
-0.0031816477 0.019878782 0.37 1.3818779e-39
-0.0019089936 0.019878782 0.37 1.3825841e-39
-0.00063633925 0.019878782 0.37 1.3825841e-39
0.00063631503 0.019878782 0.37 1.1059972e-39
0.0019089936 0.019878782 0.37 1.1059972e-39
0.0031902469 0.019932508 0.37099999 6.4681695e-40
0.0044783796 0.019986236 0.37200001 6.4681695e-40
0.005757913 0.019986236 0.37200001 8.2941034e-40
0.0070374468 0.019986236 0.37200001 9.2160597e-40
0.0083393371 0.020039963 0.373 6.4718689e-40
0.0096223103 0.020039963 0.373 1.0159694e-39
0.010905308 0.020039963 0.373 1.6584648e-39
0.011926871 0.019610152 0.36500001 1.4740735e-39
0.013182327 0.019610152 0.36500001 1.2903885e-39
0.014437784 0.019610152 0.36500001 1.3825841e-39
0.01569324 0.019610152 0.36500001 9.2340384e-40
0.016948696 0.019610152 0.36500001 8.3120821e-40
0.018204177 0.019610152 0.36500001 8.3120821e-40
0.019459633 0.019610152 0.36500001 8.3120821e-40
0.020771841 0.019663876 0.366 6.4681695e-40
0.021970546 0.019610152 0.36500001 6.4681695e-40
0.023226002 0.019610152 0.36500001 8.2941034e-40
0.024481459 0.019610152 0.36500001 9.2160597e-40
0.025736915 0.019610152 0.36500001 9.2160597e-40
0.026992396 0.019610152 0.36500001 9.2160597e-40
0.028325241 0.019663876 0.366 1.1059972e-39
0.029584136 0.019663876 0.366 1.1059972e-39
0.030843033 0.019663876 0.366 1.1059972e-39
0.032101929 0.019663876 0.366 1.1059972e-39
0.033451974 0.019717604 0.36700001 1.2903885e-39
0.0348089 0.01977133 0.368 1.1981929e-39
0.036270756 0.019878782 0.37 1.1059972e-39
0.037746351 0.019986236 0.37200001 1.2903885e-39
0.039025884 0.019986236 0.37200001 1.2903885e-39
0.04052211 0.020093691 0.37400001 1.1981929e-39
0.041920312 0.020147415 0.375 6.4501908e-40
0.043210164 0.020147415 0.375 4.6062782e-40
0.044737376 0.020254869 0.377 7.3721471e-40
0.046766743 0.020577226 0.38299999 9.2160597e-40
0.04808411 0.020577226 0.38299999 1.1981929e-39
0.049401481 0.020577226 0.38299999 1.1059972e-39
0.050718848 0.020577226 0.38299999 9.2160597e-40
0.052036218 0.020577226 0.38299999 8.2941034e-40
0.053353589 0.020577226 0.38299999 9.2160597e-40
0.054813728 0.020630952 0.384 1.1059972e-39
0.056280717 0.02068468 0.38499999 1.0818024e-42
0.057754591 0.020738406 0.38600001 7.3767322e-39
0.059235342 0.02079213 0.38699999 1.4751298e-38
0.060409967 0.020738406 0.38600001 1.4382515e-38
0.061737657 0.020738406 0.38600001 1.4475064e-38
0.063228749 0.02079213 0.38699999 1.4014086e-38
0.064559877 0.02079213 0.38699999 1.5727081e-39
0.065891005 0.02079213 0.38699999 3.9460565e-42
0.067395836 0.020845858 0.38800001 2.766023e-40
0.068730406 0.020845858 0.38800001 3.9644275e-39
0.070064969 0.020845858 0.38800001 7.5600066e-39
0.071583554 0.020899585 0.389 8.8507454e-39
0.073109046 0.020953311 0.38999999 1.4934247e-38
0.075023197 0.021114491 0.39300001 1.7515725e-38
-0.025877962 0.01844551 0.36700001 1.4748002e-38
-0.024615616 0.01844551 0.36700001 1.5758494e-38
-0.023353279 0.01844551 0.36700001 6.2623916e-39
-0.022090944 0.01844551 0.36700001 1.0138114e-39
-0.020828595 0.01844551 0.36700001 2.2123546e-39
-0.01956626 0.01844551 0.36700001 2.3038342e-39
-0.018254049 0.018395249 0.366 1.9618179e-44
-0.016995154 0.018395249 0.366 9.4957589e-39
-0.015736246 0.018395249 0.366 1.7240192e-38
-0.01447735 0.018395249 0.366 1.6410807e-38
-0.013218454 0.018395249 0.366 1.613422e-38
-0.011992224 0.01844551 0.36700001 1.5858364e-38
-0.010729888 0.01844551 0.36700001 1.3184691e-38
-0.0094933491 0.01849577 0.368 1.8567205e-42
-0.0082275625 0.01849577 0.368 4.6283487e-40
-0.0069617871 0.01849577 0.368 1.200711e-39
-0.0056960122 0.01849577 0.368 1.0163197e-39
-0.0044302251 0.01849577 0.368 1.0159722e-39
-0.0031816477 0.018596292 0.37 8.3158096e-40
-0.0019089936 0.018596292 0.37 9.2412411e-40
-0.00063633925 0.018596292 0.37 7.3973285e-40
0.00063631503 0.018596292 0.37 8.3120821e-40
0.0019089936 0.018596292 0.37 4.6242569e-40
0.0031902469 0.018646551 0.37099999 8.2941034e-40
0.0044783796 0.018696811 0.37200001 7.3721471e-40
0.005757913 0.018696811 0.37200001 7.3721471e-40
0.0070374468 0.018696811 0.37200001 8.2941034e-40
0.0083393371 0.018747071 0.373 7.3938533e-40
0.0096223103 0.018747071 0.373 1.1081678e-39
0.010934545 0.018797332 0.37400001 1.6584648e-39
0.011992224 0.01844551 0.36700001 1.3818779e-39
0.013218442 0.018395249 0.366 8.3158096e-40
0.014437784 0.018344989 0.36500001 1.0159722e-39
0.01569324 0.018344989 0.36500001 9.2412411e-40
0.016948696 0.018344989 0.36500001 8.3192848e-40
0.018204177 0.018344989 0.36500001 7.3938533e-40
0.019406319 0.018294729 0.36399999 7.3938533e-40
0.020658335 0.018294729 0.36399999 8.3120821e-40
0.021910351 0.018294729 0.36399999 8.3120821e-40
0.023162369 0.018294729 0.36399999 1.1059972e-39
0.024414385 0.018294729 0.36399999 9.2160597e-40
0.025736915 0.018344989 0.36500001 9.2160597e-40
0.026992396 0.018344989 0.36500001 9.2160597e-40
0.028247852 0.018344989 0.36500001 1.0141519e-39
0.029584136 0.018395249 0.366 9.219563e-40
0.030843033 0.018395249 0.366 9.2160597e-40
0.032101929 0.018395249 0.366 8.2941034e-40
0.033451974 0.01844551 0.36700001 8.3120821e-40
0.0348089 0.01849577 0.368 8.3120821e-40
0.036270756 0.018596292 0.37 1.1059972e-39
0.037746351 0.018696811 0.37200001 1.1059972e-39
0.039025884 0.018696811 0.37200001 1.1059972e-39
0.04052211 0.018797332 0.37400001 1.2903885e-39
0.041920312 0.018847592 0.375 1.0127198e-39
0.043325391 0.018897852 0.37599999 6.4393728e-40
0.044737376 0.018948114 0.377 4.6062782e-40
0.046888851 0.019299934 0.384 7.3721471e-40
0.04820966 0.019299934 0.384 6.4681695e-40
0.049530469 0.019299934 0.384 6.4681695e-40
0.050851278 0.019299934 0.384 8.2941034e-40
0.052172087 0.019299934 0.384 7.3721471e-40
0.053492896 0.019299934 0.384 8.2941034e-40
0.055099215 0.019400455 0.38600001 1.0138016e-39
0.056426905 0.019400455 0.38600001 5.6051939e-45
0.057904214 0.019450713 0.38699999 9.4965156e-39
0.059235342 0.019450713 0.38699999 1.4014815e-38
0.06056647 0.019450713 0.38699999 1.327725e-38
0.061897598 0.019450713 0.38699999 1.3920802e-38
0.063228749 0.019450713 0.38699999 1.2630063e-38
0.064559877 0.019450713 0.38699999 1.0761972e-42
0.066061273 0.019500975 0.38800001 7.3899997e-40
0.067395836 0.019500975 0.38800001 1.0818024e-42
0.068730406 0.019500975 0.38800001 1.1986514e-38
0.070064969 0.019500975 0.38800001 1.6321861e-38
0.071583554 0.019551234 0.389 1.6782839e-38
-0.028557412 0.017266985 0.36899999 2.1109903e-38
-0.027288198 0.017266985 0.36899999 2.0742922e-38
-0.025877962 0.017173398 0.36700001 1.4842402e-38
-0.02454854 0.017126605 0.366 1.4191541e-38
-0.023289645 0.017126605 0.366 9.2129769e-39
-0.022090944 0.017173398 0.36700001 1.4740385e-39
-0.020828595 0.017173398 0.36700001 2.0272122e-39
-0.019512946 0.017126605 0.366 1.842856e-39
-0.018254049 0.017126605 0.366 1.3818779e-39
-0.016995154 0.017126605 0.366 2.0257619e-39
-0.015736246 0.017126605 0.366 1.5394124e-38
-0.01447735 0.017126605 0.366 1.6596999e-38
-0.013218454 0.017126605 0.366 1.5214064e-38
-0.011992224 0.017173398 0.36700001 1.5764724e-38
-0.010729888 0.017173398 0.36700001 1.5488137e-38
-0.0094675524 0.017173398 0.36700001 1.117565e-39
-0.0082275625 0.017220192 0.368 3.2944527e-42
-0.0069617871 0.017220192 0.368 1.2903885e-39
-0.0056960122 0.017220192 0.368 1.4747798e-39
-0.0044302251 0.017220192 0.368 1.0159722e-39
-0.0031816477 0.01731378 0.37 8.3158096e-40
-0.0019089936 0.01731378 0.37 1.2903885e-39
-0.00063633925 0.01731378 0.37 1.1059972e-39
0.00063631503 0.01731378 0.37 9.2160597e-40
0.001914153 0.017360574 0.37099999 9.2160597e-40
0.003198846 0.017407369 0.37200001 8.2941034e-40
0.0044783796 0.017407369 0.37200001 7.3721471e-40
0.0057733911 0.017454162 0.373 7.3721471e-40
0.0070563639 0.017454162 0.373 7.3721471e-40
0.0083393371 0.017454162 0.373 7.3938533e-40
0.0096481079 0.017500957 0.37400001 1.2003635e-39
0.010934545 0.017500957 0.37400001 1.0159722e-39
0.011992224 0.017173398 0.36700001 1.0159722e-39
0.013218442 0.017126605 0.366 1.3825841e-39
0.014477338 0.017126605 0.366 1.2903885e-39
0.01569324 0.017079812 0.36500001 9.2412411e-40
0.016948696 0.017079812 0.36500001 8.3192848e-40
0.018204177 0.017079812 0.36500001 9.2340384e-40
0.019406319 0.017033016 0.36399999 1.0155995e-39
0.020658335 0.017033016 0.36399999 7.3938533e-40
0.021910351 0.017033016 0.36399999 7.3938533e-40
0.023162369 0.017033016 0.36399999 7.3938533e-40
0.024414385 0.017033016 0.36399999 6.471897e-40
0.025736915 0.017079812 0.36500001 8.3120821e-40
0.026992396 0.017079812 0.36500001 8.3120821e-40
0.028247852 0.017079812 0.36500001 8.3120821e-40
0.029584136 0.017126605 0.366 6.4681695e-40
0.030843033 0.017126605 0.366 6.4681695e-40
0.032189641 0.017173398 0.36700001 6.4681695e-40
0.033543125 0.017220192 0.368 6.4681695e-40
0.034903485 0.017266985 0.36899999 6.4681695e-40
0.036270756 0.01731378 0.37 9.2160597e-40
0.037746351 0.017407369 0.37200001 9.2160597e-40
0.039130788 0.017454162 0.373 6.4681695e-40
0.04052211 0.017500957 0.37400001 9.2340384e-40
0.042032097 0.017594544 0.37599999 8.3120821e-40
0.043440621 0.017641339 0.377 3.7023006e-40
0.044737376 0.017641339 0.377 3.7058039e-40
0.046034109 0.017641339 0.377 4.6277602e-40
0.048335202 0.01801569 0.38499999 4.6242569e-40
0.04965945 0.01801569 0.38499999 5.5462132e-40
0.050983697 0.01801569 0.38499999 4.6242569e-40
0.052307948 0.01801569 0.38499999 4.6242569e-40
0.053632196 0.01801569 0.38499999 4.6279563e-40
0.055241961 0.018109277 0.38699999 2.7840437e-40
0.056573085 0.018109277 0.38699999 3.657389e-43
0.057904214 0.018109277 0.38699999 1.1340788e-38
0.059388407 0.018156072 0.38800001 1.2632233e-38
0.06056647 0.018109277 0.38699999 1.2724429e-38
0.061897598 0.018109277 0.38699999 1.3644575e-38
0.063392133 0.018156072 0.38800001 9.864554e-39
0.064726703 0.018156072 0.38800001 3.5873241e-43
0.066061273 0.018156072 0.38800001 9.2911693e-41
0.067395836 0.018156072 0.38800001 9.581098e-41
0.068730406 0.018156072 0.38800001 1.6045655e-38
0.070064969 0.018156072 0.38800001 1.7333119e-38
0.071583554 0.018202865 0.389 1.7056532e-38
-0.028480025 0.015944632 0.368 2.1662335e-38
-0.02721425 0.015944632 0.368 1.9912426e-38
-0.025877962 0.015901305 0.36700001 1.4196297e-38
-0.02454854 0.015857976 0.366 1.3824591e-38
-0.023289645 0.015857976 0.366 1.0136766e-38
-0.022090944 0.015901305 0.36700001 4.9774332e-39
-0.020771841 0.015857976 0.366 1.5662257e-39
-0.019512946 0.015857976 0.366 1.842856e-39
-0.018254049 0.015857976 0.366 1.7506604e-39
-0.016995154 0.015857976 0.366 3.5873241e-43
-0.015736246 0.015857976 0.366 1.0695409e-38
-0.01447735 0.015857976 0.366 1.686962e-38
-0.013218454 0.015857976 0.366 1.5855468e-38
-0.011992224 0.015901305 0.36700001 1.5396655e-38
-0.010729888 0.015901305 0.36700001 1.5949829e-38
-0.0094675524 0.015901305 0.36700001 8.9448062e-39
-0.0082275625 0.015944632 0.368 7.4969468e-43
-0.0069617871 0.015944632 0.368 1.4747798e-39
-0.0056960122 0.015944632 0.368 1.659171e-39
-0.0044422634 0.015987961 0.36899999 1.0159722e-39
-0.0031816477 0.016031289 0.37 8.3158096e-40
-0.0019089936 0.016031289 0.37 1.2903885e-39
-0.00063633925 0.016031289 0.37 1.1981929e-39
0.00063803483 0.016074616 0.37099999 1.1059972e-39
0.0019193125 0.016117945 0.37200001 1.1059972e-39
0.003198846 0.016117945 0.37200001 8.2941034e-40
0.0044904179 0.016161272 0.373 8.2941034e-40
0.0057733911 0.016161272 0.373 6.4681695e-40
0.0070752823 0.016204601 0.37400001 8.3120821e-40
0.0083616953 0.016204601 0.37400001 1.0155995e-39
0.0096481079 0.016204601 0.37400001 1.1999907e-39
0.010788361 0.015987961 0.36899999 1.3818779e-39
0.011992224 0.015901305 0.36700001 1.3818779e-39
0.013254559 0.015901305 0.36700001 1.2903885e-39
0.014477338 0.015857976 0.366 1.2903885e-39
0.015736233 0.015857976 0.366 9.2412411e-40
0.016948696 0.015814649 0.36500001 1.0163197e-39
0.018204177 0.015814649 0.36500001 1.2903885e-39
0.019406319 0.01577132 0.36399999 1.3825841e-39
0.020658335 0.01577132 0.36399999 1.2904011e-39
0.021910351 0.01577132 0.36399999 1.2904011e-39
0.023162369 0.01577132 0.36399999 9.2377659e-40
0.024414385 0.01577132 0.36399999 9.2377659e-40
0.025736915 0.015814649 0.36500001 1.0155995e-39
0.026992396 0.015814649 0.36500001 8.3120821e-40
0.028247852 0.015814649 0.36500001 1.1059972e-39
0.029584136 0.015857976 0.366 9.2160597e-40
0.030927304 0.015901305 0.36700001 1.0141519e-39
0.032277349 0.015944632 0.368 1.1063476e-39
0.033634271 0.015987961 0.36899999 8.3120821e-40
0.034903485 0.015987961 0.36899999 8.3120821e-40
0.036270756 0.016031289 0.37 8.3120821e-40
0.037746351 0.016117945 0.37200001 8.3120821e-40
0.0392357 0.016204601 0.37400001 8.3120821e-40
0.04052211 0.016204601 0.37400001 9.2340384e-40
0.042032097 0.016291255 0.37599999 1.1059972e-39
0.043440621 0.016334584 0.377 7.3721471e-40
0.044737376 0.016334584 0.377 5.5317378e-40
0.046034109 0.016334584 0.377 7.3756504e-40
0.048335202 0.016681205 0.38499999 6.4681695e-40
0.04965945 0.016681205 0.38499999 6.4681695e-40
0.050983697 0.016681205 0.38499999 7.3721471e-40
0.052443814 0.016724532 0.38600001 7.3721471e-40
0.053910807 0.016767859 0.38699999 3.6917068e-40
0.055384707 0.016811188 0.38800001 2.6624671e-44
0.056719273 0.016811188 0.38800001 1.8874229e-40
0.05805384 0.016811188 0.38800001 1.1436609e-38
0.059388407 0.016811188 0.38800001 1.2631152e-38
0.060722977 0.016811188 0.38800001 1.2538956e-38
0.062057544 0.016811188 0.38800001 1.2815518e-38
0.063392133 0.016811188 0.38800001 8.7589099e-39
0.064726703 0.016811188 0.38800001 8.5748578e-39
0.066061273 0.016811188 0.38800001 1.0326575e-38
0.067395836 0.016811188 0.38800001 1.4659821e-38
0.068730406 0.016811188 0.38800001 1.7241299e-38
0.070245549 0.016854515 0.389 1.696469e-38
-0.028480025 0.014669055 0.368 1.6408539e-38
-0.02721425 0.014669055 0.368 1.5116024e-38
-0.025877962 0.014629194 0.36700001 1.456285e-38
-0.024615616 0.014629194 0.36700001 1.4378478e-38
-0.023353279 0.014629194 0.36700001 1.1059436e-38
-0.022030748 0.014589331 0.366 1.050561e-38
-0.020771841 0.014589331 0.366 1.8392211e-39
-0.019512946 0.014589331 0.366 1.2925591e-39
-0.018254049 0.014589331 0.366 1.2003635e-39
-0.016995154 0.014589331 0.366 4.6062782e-40
-0.015736246 0.014589331 0.366 6.2689525e-39
-0.01447735 0.014589331 0.366 1.6683787e-38
-0.013218454 0.014589331 0.366 1.6683787e-38
-0.011992224 0.014629194 0.36700001 1.5212619e-38
-0.010729888 0.014629194 0.36700001 1.5581402e-38
-0.0094933491 0.014669055 0.368 1.3094676e-38
-0.0082275625 0.014669055 0.368 2.8964839e-42
-0.0069617871 0.014669055 0.368 1.2903885e-39
-0.0056960122 0.014669055 0.368 1.2903885e-39
-0.0044422634 0.014708916 0.36899999 1.0163197e-39
-0.0031816477 0.014748778 0.37 1.0163197e-39
-0.001914153 0.014788639 0.37099999 1.2903885e-39
-0.00063977897 0.014828501 0.37200001 1.2903885e-39
0.00064147433 0.014868363 0.373 1.1060098e-39
0.0019296313 0.014908225 0.37400001 1.0138142e-39
0.003216044 0.014908225 0.37400001 8.2906002e-40
0.0045024566 0.014908225 0.37400001 7.3686439e-40
0.0057888697 0.014908225 0.37400001 6.4681695e-40
0.0070752823 0.014908225 0.37400001 9.2340384e-40
0.0083840527 0.014948086 0.375 1.0159722e-39
0.0096997013 0.014987947 0.37599999 1.2003635e-39
0.010788361 0.014708916 0.36899999 1.473726e-39
0.0120249 0.014669055 0.368 1.473726e-39
0.013290674 0.014669055 0.368 1.0159722e-39
0.014477338 0.014589331 0.366 8.3158096e-40
0.015736233 0.014589331 0.366 1.3818779e-39
0.01699513 0.014589331 0.366 1.4740735e-39
0.018204177 0.014549471 0.36500001 1.0159722e-39
0.019459633 0.014549471 0.36500001 1.0159722e-39
0.02071509 0.014549471 0.36500001 9.2377659e-40
0.021970546 0.014549471 0.36500001 9.2377659e-40
0.023226002 0.014549471 0.36500001 9.2377659e-40
0.024481459 0.014549471 0.36500001 9.2377659e-40
0.025736915 0.014549471 0.36500001 9.2412411e-40
0.026992396 0.014549471 0.36500001 7.3973285e-40
0.028247852 0.014549471 0.36500001 9.2340384e-40
0.029584136 0.014589331 0.366 8.3120821e-40
0.030927304 0.014629194 0.36700001 9.2340384e-40
0.032277349 0.014669055 0.368 9.2340384e-40
0.033634271 0.014708916 0.36899999 7.3938533e-40
0.034903485 0.014708916 0.36899999 6.471897e-40
0.036270756 0.014748778 0.37 1.0138114e-39
0.037746351 0.014828501 0.37200001 8.2942015e-40
0.0392357 0.014908225 0.37400001 9.2160597e-40
0.04052211 0.014908225 0.37400001 9.2160597e-40
0.042032097 0.014987947 0.37599999 1.1059972e-39
0.043440621 0.015027809 0.377 9.2160597e-40
0.044856038 0.01506767 0.37799999 7.3721471e-40
0.046156209 0.01506767 0.37799999 6.4501908e-40
0.04758193 0.015107533 0.37900001 2.7623376e-40
0.049788438 0.015386563 0.38600001 9.1842503e-41
0.051116128 0.015386563 0.38600001 3.0828566e-44
0.052579679 0.015426423 0.38699999 2.9427268e-44
0.053910807 0.015426423 0.38699999 4.3047889e-42
0.055384707 0.015466286 0.38800001 3.6921258e-39
0.056719273 0.015466286 0.38800001 9.4968814e-39
0.05805384 0.015466286 0.38800001 1.4567641e-38
0.059388407 0.015466286 0.38800001 1.6409002e-38
0.060722977 0.015466286 0.38800001 1.7146567e-38
0.062057544 0.015466286 0.38800001 1.7423863e-38
0.066061273 0.015466286 0.38800001 1.7886643e-38
0.067395836 0.015466286 0.38800001 1.7517863e-38
-0.028480025 0.013393477 0.368 1.6590463e-38
-0.02721425 0.013393477 0.368 1.6496817e-38
-0.025877962 0.013357082 0.36700001 1.6035839e-38
-0.024615616 0.013357082 0.36700001 1.5023119e-38
-0.023353279 0.013357082 0.36700001 1.7973379e-38
-0.022030748 0.013320686 0.366 1.2630088e-38
-0.020771841 0.013320686 0.366 6.4465615e-40
-0.019512946 0.013320686 0.366 1.200711e-39
-0.018254049 0.013320686 0.366 1.0163197e-39
-0.016995154 0.013320686 0.366 7.3938533e-40
-0.015736246 0.013320686 0.366 4.6279844e-40
-0.01447735 0.013320686 0.366 1.5025695e-38
-0.013254571 0.013357082 0.36700001 1.6224238e-38
-0.011992224 0.013357082 0.36700001 1.5302654e-38
-0.010759125 0.013393477 0.368 1.5026067e-38
-0.0094933491 0.013393477 0.368 1.5397749e-38
-0.0082275625 0.013393477 0.368 1.9371872e-39
-0.0069807046 0.013429872 0.36899999 5.5209198e-40
-0.0057269684 0.013466268 0.37 1.3818526e-39
-0.0044543021 0.013466268 0.37 1.1059972e-39
-0.003198846 0.013539059 0.37200001 1.3825841e-39
-0.0019244718 0.013575453 0.373 1.3818779e-39
-0.00064321858 0.013611849 0.37400001 1.2896822e-39
0.00064319413 0.013611849 0.37400001 8.2906002e-40
0.0019296313 0.013611849 0.37400001 3.6808187e-40
0.003216044 0.013611849 0.37400001 1.8439406e-40
0.0045024566 0.013611849 0.37400001 3.6878532e-40
0.0058198259 0.013684639 0.37599999 9.2160597e-40
0.0071131177 0.013684639 0.37599999 1.1981929e-39
0.0084287673 0.013721035 0.377 1.1060098e-39
0.0095449192 0.013466268 0.37 6.450317e-40
0.010817598 0.013466268 0.37 2.7589325e-40
0.012090252 0.013466268 0.37 3.6808888e-40
0.013326789 0.013429872 0.36899999 1.8548567e-40
0.014477338 0.013320686 0.366 7.3865945e-40
0.015736233 0.013320686 0.366 4.6171663e-40
0.01699513 0.013320686 0.366 8.3049915e-40
0.018204177 0.013284291 0.36500001 4.6171663e-40
0.019459633 0.013284291 0.36500001 1.0148904e-39
0.02071509 0.013284291 0.36500001 6.4466876e-40
0.021970546 0.013284291 0.36500001 4.602775e-40
0.023226002 0.013284291 0.36500001 4.6279563e-40
0.024481459 0.013284291 0.36500001 5.5499126e-40
0.025736915 0.013284291 0.36500001 7.3938533e-40
0.026992396 0.013284291 0.36500001 7.3938533e-40
0.028325241 0.013320686 0.366 3.69521e-40
0.029584136 0.013320686 0.366 9.2934114e-41
0.030927304 0.013357082 0.36700001 4.6062782e-40
0.032277349 0.013393477 0.368 4.6062782e-40
0.033543125 0.013393477 0.368 7.3686439e-40
0.034903485 0.013429872 0.36899999 4.602775e-40
0.036270756 0.013466268 0.37 2.7695263e-40
0.037746351 0.013539059 0.37200001 6.4573515e-40
0.0392357 0.013611849 0.37400001 9.2160597e-40
0.04052211 0.013611849 0.37400001 1.0138016e-39
0.042032097 0.013684639 0.37599999 1.1063476e-39
0.043440621 0.013721035 0.377 1.1063476e-39
0.044856038 0.01375743 0.37799999 7.2166871e-43
0.04627832 0.013793826 0.37900001 2.7766869e-40
0.04758193 0.013793826 0.37900001 1.7950633e-42
0.049788438 0.014048592 0.38600001 7.6540323e-39
0.05124855 0.014084987 0.38699999 1.4105929e-38
0.052579679 0.014084987 0.38699999 1.6595211e-38
0.054050114 0.014121383 0.38800001 1.4936736e-38
0.055384707 0.014121383 0.38800001 1.6227475e-38
0.056719273 0.014121383 0.38800001 1.742604e-38
0.05805384 0.014121383 0.38800001 1.7333845e-38
-0.019512946 0.012052059 0.366 6.4501908e-40
-0.018254049 0.012052059 0.366 1.7513666e-39
-0.016995154 0.012052059 0.366 1.7506604e-39
-0.015779242 0.012084989 0.36700001 1.9618179e-44
-0.014516907 0.012084989 0.36700001 1.1522611e-38
-0.013254571 0.012084989 0.36700001 1.6224588e-38
-0.0120249 0.012117918 0.368 1.5211901e-38
-0.010759125 0.012117918 0.368 1.438214e-38
-0.0095191458 0.012150845 0.36899999 1.6041661e-38
-0.0082499189 0.012150845 0.36899999 8.4816196e-39
-0.0069807046 0.012150845 0.36899999 1.8402972e-40
-0.0057424465 0.012216704 0.37099999 1.8402972e-40
-0.0044783796 0.012249635 0.37200001 0
-0.003198846 0.012249635 0.37200001 0
-0.0019244718 0.012282562 0.373 5.6051939e-45
-0.00064493844 0.012348421 0.375 5.6051939e-45
0.00064491387 0.012348421 0.375 1.0761972e-42
0.0019347908 0.012348421 0.375 3.5048689e-39
0.003216044 0.012315493 0.37400001 2.4870918e-39
0.0045024566 0.012315493 0.37400001 7.3540143e-40
0.0058353045 0.012414279 0.377 1.8618632e-40
0.0071320361 0.012414279 0.377 5.5496884e-40
0.0082722651 0.012183776 0.37 7.404391e-40
0.0095449192 0.012183776 0.37 3.2297211e-39
0.010817598 0.012183776 0.37 4.4274964e-39
0.012090252 0.012183776 0.37 4.7040833e-39
0.013326789 0.012150845 0.36899999 4.1480719e-39
0.014516895 0.012084989 0.36700001 2.7651374e-39
0.015736233 0.012052059 0.366 2.0275626e-39
0.01699513 0.012052059 0.366 2.4885407e-39
0.018204177 0.01201913 0.36500001 2.6729292e-39
0.019459633 0.01201913 0.36500001 3.1339073e-39
0.02071509 0.01201913 0.36500001 3.5966833e-39
0.022030737 0.012052059 0.366 3.9654659e-39
0.023226002 0.01201913 0.36500001 2.3977674e-39
0.024481459 0.01201913 0.36500001 1.5680194e-39
0.025736915 0.01201913 0.36500001 6.4679453e-40
0.026992396 0.01201913 0.36500001 3.7021184e-40
0.028325241 0.012052059 0.366 2.674727e-39
0.029584136 0.012052059 0.366 4.1498571e-39
0.030927304 0.012084989 0.36700001 2.859456e-39
0.032189641 0.012084989 0.36700001 2.1219022e-39
0.033543125 0.012117918 0.368 3.4112005e-39
0.034903485 0.012150845 0.36899999 2.9502223e-39
0.036270756 0.012183776 0.37 2.5825146e-39
0.037746351 0.012249635 0.37200001 1.7527665e-39
0.039130788 0.012282562 0.373 7.1746481e-43
0.04052211 0.012315493 0.37400001 3.5873241e-43
0.042032097 0.01238135 0.37599999 3.5873241e-43
0.043440621 0.012414279 0.377 7.1746481e-43
0.044856038 0.012447208 0.37799999 1.7950633e-42
0.04627832 0.012480138 0.37900001 1.5675052e-38
0.047833025 0.012545995 0.38100001 1.7333845e-38
0.049917422 0.01274357 0.38699999 1.7794823e-38
0.05124855 0.01274357 0.38699999 1.8070671e-38
0.052715547 0.0127765 0.38800001 1.7701889e-38
-0.018303925 0.010812895 0.36700001 1.5684075e-39
-0.01704159 0.010812895 0.36700001 1.0159722e-39
-0.015779242 0.010812895 0.36700001 1.8202867e-42
-0.014516907 0.010812895 0.36700001 6.2674363e-39
-0.013290687 0.010842358 0.368 1.6408956e-38
-0.0120249 0.010842358 0.368 1.5211901e-38
-0.010788361 0.01087182 0.36899999 1.4566531e-38
-0.0095191458 0.01087182 0.36899999 1.5212254e-38
-0.0082722772 0.010901283 0.37 1.318395e-38
-0.0070185405 0.010930746 0.37099999 7.0010217e-39
-0.0057579256 0.010960209 0.37200001 1.2901528e-38
-0.0044783796 0.010960209 0.37200001 1.2723688e-38
-0.0032074449 0.010989673 0.373 1.4014427e-38
0.0019347908 0.011048598 0.375 1.9545446e-38
0.003216044 0.011019136 0.37400001 1.7054374e-38
0.0045024566 0.011019136 0.37400001 1.3919723e-38
0.0057888697 0.011019136 0.37400001 1.4105922e-38
0.0070374468 0.010960209 0.37200001 1.45669e-38
0.0082722651 0.010901283 0.37 1.5027522e-38
0.0095449192 0.010901283 0.37 1.4935326e-38
0.010817598 0.010901283 0.37 1.521154e-38
0.012090252 0.010901283 0.37 1.5303736e-38
0.013362906 0.010901283 0.37 1.5395228e-38
0.01455645 0.010842358 0.368 1.5487424e-38
0.015736233 0.010783431 0.366 1.5120436e-38
0.01699513 0.010783431 0.366 1.4659458e-38
0.018204177 0.010753969 0.36500001 1.4475054e-38
0.019459633 0.010753969 0.36500001 1.4475054e-38
0.020771841 0.010783431 0.366 1.4935677e-38
0.022030737 0.010783431 0.366 1.4843481e-38
0.023226002 0.010753969 0.36500001 1.493567e-38
0.024481459 0.010753969 0.36500001 1.4843474e-38
0.025736915 0.010753969 0.36500001 1.4843837e-38
0.026992396 0.010753969 0.36500001 1.4659446e-38
0.028325241 0.010783431 0.366 1.4935314e-38
0.029584136 0.010783431 0.366 1.4843118e-38
0.030927304 0.010812895 0.36700001 1.4566881e-38
0.032189641 0.010812895 0.36700001 1.3921512e-38
0.033543125 0.010842358 0.368 1.4198833e-38
0.034903485 0.01087182 0.36899999 1.4198833e-38
0.036368784 0.010930746 0.37099999 1.4013348e-38
0.037746351 0.010960209 0.37200001 1.4289934e-38
0.039130788 0.010989673 0.373 1.3921518e-38
0.04052211 0.011019136 0.37400001 1.4474691e-38
0.041920312 0.011048598 0.375 1.3920802e-38
0.043325391 0.011078061 0.37599999 1.0970541e-38
0.044856038 0.011136986 0.37799999 8.4877559e-39
0.04627832 0.011166451 0.37900001 1.7338536e-38
0.04758193 0.011166451 0.37900001 1.7425665e-38
-0.018353799 0.0095667792 0.368 3.2776371e-42
-0.017088024 0.0095667792 0.368 1.2003635e-39
-0.015822237 0.0095667792 0.368 3.7975188e-43
-0.014556462 0.0095667792 0.368 1.7950633e-42
-0.013290687 0.0095667792 0.368 1.3738944e-38
-0.012057575 0.0095927762 0.36899999 1.5491384e-38
-0.010788361 0.0095927762 0.36899999 1.6044558e-38
-0.0095449435 0.0096187731 0.37 1.7608624e-38
-0.0083169928 0.009670767 0.37200001 1.8899363e-38
-0.0070374589 0.009670767 0.37200001 1.9453255e-38
-0.0057579256 0.009670767 0.37200001 2.0006429e-38
-0.0044904179 0.009696763 0.373 1.9637281e-38
0.0069996109 0.0096187731 0.37 1.4750938e-38
0.0082722651 0.0096187731 0.37 1.4568342e-38
0.0095449192 0.0096187731 0.37 1.4568342e-38
0.010817598 0.0096187731 0.37 1.4383597e-38
0.012090252 0.0096187731 0.37 1.4660184e-38
0.013326789 0.0095927762 0.36899999 1.4936771e-38
0.01455645 0.0095667792 0.368 1.5305554e-38
0.015779231 0.0095407832 0.36700001 1.5488866e-38
0.01699513 0.0095147863 0.366 1.5304475e-38
0.018254049 0.0095147863 0.366 1.5580336e-38
0.019512946 0.0095147863 0.366 1.5303749e-38
0.020771841 0.0095147863 0.366 1.5397023e-38
0.022030737 0.0095147863 0.366 1.5397023e-38
0.023226002 0.0094887894 0.36500001 1.5397023e-38
0.024481459 0.0094887894 0.36500001 1.5397023e-38
0.025736915 0.0094887894 0.36500001 1.5212269e-38
0.027066344 0.0095147863 0.366 1.5027878e-38
0.028325241 0.0095147863 0.366 1.5028238e-38
0.029584136 0.0095147863 0.366 1.5120434e-38
0.030843033 0.0095147863 0.366 1.5119355e-38
0.032189641 0.0095407832 0.36700001 1.4934963e-38
0.033451974 0.0095407832 0.36700001 1.5212632e-38
0.0348089 0.0095667792 0.368 1.5489219e-38
0.036368784 0.0096447691 0.37099999 1.5027872e-38
0.037746351 0.009670767 0.37200001 1.4566894e-38
0.039025884 0.009670767 0.37200001 1.3920799e-38
0.04052211 0.0097227599 0.37400001 1.3920799e-38
0.041920312 0.0097487569 0.375 1.3645294e-38
0.043325391 0.0097747529 0.37599999 1.2538946e-38
0.044737376 0.0098007498 0.377 1.2999574e-38
0.046156209 0.0098267468 0.37799999 1.7793747e-38
0.04745638 0.0098267468 0.37799999 1.742423e-38
-0.018403672 0.0083137322 0.36899999 5.3964004e-42
-0.017088024 0.0082912017 0.368 4.0637655e-44
-0.015822237 0.0082912017 0.368 5.1629959e-39
-0.014556462 0.0082912017 0.368 7.3842824e-39
-0.013290687 0.0082912017 0.368 1.5681889e-38
0.0069996109 0.0083362628 0.37 1.4935695e-38
0.0082722651 0.0083362628 0.37 1.4752733e-38
0.0095449192 0.0083362628 0.37 1.4752733e-38
0.010817598 0.0083362628 0.37 1.4936045e-38
0.012090252 0.0083362628 0.37 1.5212632e-38
0.013326789 0.0083137322 0.36899999 1.493784e-38
0.01455645 0.0082912017 0.368 1.5030036e-38
0.015779231 0.008268672 0.36700001 1.5029317e-38
0.01699513 0.0082461406 0.366 1.5029317e-38
0.018254049 0.0082461406 0.366 1.5027885e-38
0.019512946 0.0082461406 0.366 1.5304472e-38
0.020771841 0.0082461406 0.366 1.5029317e-38
0.022030737 0.0082461406 0.366 1.5029317e-38
0.023226002 0.0082236109 0.36500001 1.5397023e-38
0.024481459 0.0082236109 0.36500001 1.5120436e-38
0.025736915 0.0082236109 0.36500001 1.5212619e-38
0.026992396 0.0082236109 0.36500001 1.4936033e-38
0.028325241 0.0082461406 0.366 1.4751285e-38
0.029584136 0.0082461406 0.366 1.4935677e-38
0.030843033 0.0082461406 0.366 1.4843121e-38
0.032189641 0.008268672 0.36700001 1.5119708e-38
0.033451974 0.008268672 0.36700001 1.502932e-38
0.0348089 0.0082912017 0.368 1.5398102e-38
0.036368784 0.0083587933 0.37099999 1.4935682e-38
0.037746351 0.0083813239 0.37200001 1.5304465e-38
0.039025884 0.0083813239 0.37200001 1.5304465e-38
0.04052211 0.008426385 0.37400001 1.4290313e-38
0.041920312 0.0084489146 0.375 1.4750925e-38
0.043325391 0.0084714452 0.37599999 1.3275795e-38
0.044737376 0.0084939757 0.377 1.3553098e-38
0.046156209 0.0085165063 0.37799999 1.7794097e-38
0.04745638 0.0085165063 0.37799999 1.7332034e-38
-0.017088024 0.0070156422 0.368 1.7701558e-38
-0.015822237 0.0070156422 0.368 1.9361079e-38
0.0082946224 0.0070728348 0.37099999 1.5212279e-38
0.0095707159 0.0070728348 0.37099999 1.539667e-38
0.010846835 0.0070728348 0.37099999 1.5396673e-38
0.012090252 0.0070537706 0.37 1.5765456e-38
0.013362906 0.0070537706 0.37 1.5488856e-38
0.01455645 0.0070156422 0.368 1.5581052e-38
0.015779231 0.0069965781 0.36700001 1.5304828e-38
0.01699513 0.0069775134 0.366 1.5765806e-38
0.018254049 0.0069775134 0.366 1.5397023e-38
0.019512946 0.0069775134 0.366 1.5397023e-38
0.020771841 0.0069775134 0.366 1.5304465e-38
0.022030737 0.0069775134 0.366 1.5488856e-38
0.023226002 0.0069584493 0.36500001 1.567361e-38
0.024481459 0.0069584493 0.36500001 1.567361e-38
0.025736915 0.0069584493 0.36500001 1.5489204e-38
0.026992396 0.0069584493 0.36500001 1.5212617e-38
0.028325241 0.0069775134 0.366 1.5304815e-38
0.029584136 0.0069775134 0.366 1.5212619e-38
0.030843033 0.0069775134 0.366 1.5211901e-38
0.032189641 0.0069965781 0.36700001 1.5304096e-38
0.033451974 0.0069965781 0.36700001 1.5857639e-38
0.0348089 0.0070156422 0.368 1.604203e-38
0.036368784 0.0070728348 0.37099999 1.6503005e-38
0.037644878 0.0070728348 0.37099999 1.6318614e-38
0.039025884 0.0070918994 0.37200001 1.6407923e-38
0.04041376 0.0071109631 0.373 1.4840597e-38
0.041808523 0.0071300277 0.37400001 1.4291016e-38
0.043325391 0.0071681556 0.37599999 1.336906e-38
0.044737376 0.0071872203 0.377 1.3277224e-38
0.046156209 0.0072062844 0.37799999 1.7702615e-38
0.04745638 0.0072062844 0.37799999 1.7241276e-38
0.0082946224 0.005786858 0.37099999 1.300031e-38
0.0095707159 0.005786858 0.37099999 1.3092505e-38
0.010846835 0.005786858 0.37099999 1.382972e-38
0.012090252 0.0057712602 0.37 1.4014111e-38
0.013362906 0.0057712602 0.37 1.3646035e-38
0.01455645 0.0057400642 0.368 1.3092861e-38
0.015736233 0.0057088681 0.366 1.3460209e-38
0.01699513 0.0057088681 0.366 1.4105578e-38
0.018254049 0.0057088681 0.366 1.3830426e-38
0.019512946 0.0057088681 0.366 1.4199209e-38
0.020771841 0.0057088681 0.366 1.4107013e-38
0.022030737 0.0057088681 0.366 1.4291404e-38
0.023226002 0.0056932704 0.36500001 1.4843499e-38
0.024481459 0.0056932704 0.36500001 1.4566912e-38
0.025736915 0.0056932704 0.36500001 1.4105566e-38
0.026992396 0.0056932704 0.36500001 1.401337e-38
0.028247852 0.0056932704 0.36500001 1.3552745e-38
0.029584136 0.0057088681 0.366 1.2907376e-38
0.030843033 0.0057088681 0.366 1.3460552e-38
0.032189641 0.0057244664 0.36700001 1.3183965e-38
0.033451974 0.0057244664 0.36700001 1.2538959e-38
0.0348089 0.0057400642 0.368 1.3092133e-38
0.036172725 0.005755662 0.36899999 1.3736783e-38
0.037644878 0.005786858 0.37099999 1.3091414e-38
0.039025884 0.0058024563 0.37200001 1.2999205e-38
0.04041376 0.0058180541 0.373 1.3275792e-38
0.041808523 0.0058336523 0.37400001 1.3921174e-38
0.043325391 0.0058648479 0.37599999 1.3460196e-38
0.044737376 0.0058804462 0.377 1.4383559e-38
0.046156209 0.005896044 0.37799999 1.7702602e-38
0.04758193 0.0059116427 0.37900001 1.705688e-38
0.0082946224 0.0045008999 0.37099999 2.8025969e-45
0.0095707159 0.0045008999 0.37099999 2.8025969e-45
0.010846835 0.0045008999 0.37099999 5.6051939e-45
0.012090252 0.0044887681 0.37 5.6051939e-45
0.013362906 0.0044887681 0.37 5.6051939e-45
0.014635561 0.0044887681 0.37 5.6051939e-45
0.015736233 0.0044402406 0.366 1.2611686e-44
0.01699513 0.0044402406 0.366 1.2611686e-44
0.018254049 0.0044402406 0.366 1.2611686e-44
0.019512946 0.0044402406 0.366 1.2611686e-44
0.020771841 0.0044402406 0.366 1.2611686e-44
0.022030737 0.0044402406 0.366 1.2611686e-44
0.023226002 0.0044281092 0.36500001 1.821688e-44
0.024481459 0.0044281092 0.36500001 1.821688e-44
0.025736915 0.0044281092 0.36500001 0
0.026992396 0.0044281092 0.36500001 0
0.028247852 0.0044281092 0.36500001 0
0.029503308 0.0044281092 0.36500001 0
0.030843033 0.0044402406 0.366 0
0.032101929 0.0044402406 0.366 0
0.033451974 0.0044523729 0.36700001 5.6051939e-45
0.0348089 0.0044645043 0.368 5.6051939e-45
0.036172725 0.0044766362 0.36899999 5.6051939e-45
0.037543412 0.0044887681 0.37 5.6051939e-45
0.038920972 0.0045008999 0.37099999 2.8025969e-45
0.040305417 0.0045130318 0.37200001 2.8025969e-45
0.041696735 0.0045251632 0.373 3.657389e-43
0.043325391 0.0045615588 0.37599999 3.657389e-43
0.044856038 0.0045858226 0.37799999 1.1250696e-38
0.04627832 0.0045979545 0.37900001 1.770439e-38
0.04758193 0.0045979545 0.37900001 1.7149081e-38
0.0070563639 0.0032322544 0.373 2.0268619e-39
0.0083169807 0.0032235889 0.37200001 1.6584648e-39
0.0095707159 0.0032149232 0.37099999 1.7506604e-39
0.010846835 0.0032149232 0.37099999 1.4747798e-39
0.012090252 0.0032062577 0.37 1.2903885e-39
0.013362906 0.0032062577 0.37 8.3120821e-40
0.014635561 0.0032062577 0.37 1.1999907e-39
0.015908215 0.0032062577 0.37 1.3815303e-39
0.01699513 0.0031715953 0.366 1.473726e-39
0.018254049 0.0031715953 0.366 1.1982055e-39
0.019512946 0.0031715953 0.366 1.2904011e-39
0.020771841 0.0031715953 0.366 1.1982055e-39
0.022030737 0.0031715953 0.366 1.2904011e-39
0.023226002 0.00316293 0.36500001 1.3825841e-39
0.024481459 0.00316293 0.36500001 1.2903885e-39
0.025736915 0.00316293 0.36500001 1.4747798e-39
0.026992396 0.00316293 0.36500001 1.3825841e-39
0.028247852 0.00316293 0.36500001 1.7506604e-39
0.029503308 0.00316293 0.36500001 1.7506604e-39
0.030843033 0.0031715953 0.366 1.200711e-39
0.032101929 0.0031715953 0.366 1.2929066e-39
0.033451974 0.003180261 0.36700001 1.3847547e-39
0.0348089 0.0031889265 0.368 1.569146e-39
0.036172725 0.003197592 0.36899999 1.569146e-39
0.037543412 0.0032062577 0.37 1.4769504e-39
0.038920972 0.0032149232 0.37099999 1.3825841e-39
0.040305417 0.0032235889 0.37200001 8.2941034e-40
0.041696735 0.0032322544 0.373 8.2941034e-40
0.043555845 0.0032755821 0.37799999 8.4077908e-45
0.044974707 0.0032842478 0.37900001 1.1524804e-38
0.04627832 0.0032842478 0.37900001 1.7978498e-38
0.04758193 0.0032842478 0.37900001 1.7149081e-38
0.0070563639 0.0019393453 0.373 1.0159722e-39
0.0083169807 0.001934146 0.37200001 1.6584648e-39
0.0095707159 0.0019289466 0.37099999 1.4740735e-39
0.010846835 0.0019289466 0.37099999 1.2903885e-39
0.012090252 0.0019237474 0.37 1.2903885e-39
0.013362906 0.0019237474 0.37 9.2412411e-40
0.014635561 0.0019237474 0.37 7.3973285e-40
0.015822224 0.0019133487 0.368 1.0159722e-39
0.01699513 0.00190295 0.366 9.2377659e-40
0.018254049 0.00190295 0.366 1.2904011e-39
0.019512946 0.00190295 0.366 1.3825967e-39
0.020771841 0.00190295 0.366 1.3818779e-39
0.022030737 0.00190295 0.366 1.3818779e-39
0.023226002 0.0018977508 0.36500001 1.2904011e-39
0.024481459 0.0018977508 0.36500001 1.2904011e-39
0.025736915 0.0018977508 0.36500001 1.0163197e-39
0.026992396 0.0018977508 0.36500001 8.3192848e-40
0.028247852 0.0018977508 0.36500001 1.0163197e-39
0.029503308 0.0018977508 0.36500001 1.0163197e-39
0.030843033 0.00190295 0.366 1.200711e-39
0.032101929 0.00190295 0.366 1.1085154e-39
0.033451974 0.0019081495 0.36700001 1.5669754e-39
0.034714311 0.0019081495 0.36700001 1.3825841e-39
0.036074698 0.0019133487 0.368 1.7506604e-39
0.037441939 0.0019185479 0.36899999 1.6584648e-39
0.038920972 0.0019289466 0.37099999 1.2903885e-39
0.040197067 0.0019289466 0.37099999 1.0138016e-39
0.04158495 0.001934146 0.37200001 9.2340384e-40
0.043555845 0.0019653419 0.37799999 3.671402e-43
0.044974707 0.0019705412 0.37900001 1.0234418e-38
0.04627832 0.0019705412 0.37900001 1.779446e-38
0.04758193 0.0019705412 0.37900001 1.7148715e-38
0.0070563639 0.00064645457 0.373 1.015266e-39
0.0083393371 0.00064645457 0.373 1.4740735e-39
0.0095965136 0.00064472144 0.37200001 1.4740735e-39
0.010846835 0.00064298831 0.37099999 1.3825841e-39
0.012122928 0.00064298831 0.37099999 1.3825841e-39
0.013362906 0.00064125517 0.37 9.2412411e-40
0.014635561 0.00064125517 0.37 9.2412411e-40
0.015822224 0.00063778897 0.368 1.3825841e-39
0.01699513 0.0006343227 0.366 1.3825841e-39
0.018254049 0.0006343227 0.366 1.0159722e-39
0.019512946 0.0006343227 0.366 1.0159722e-39
0.020771841 0.0006343227 0.366 1.0159722e-39
0.021970546 0.00063258957 0.36500001 1.0159722e-39
0.023226002 0.00063258957 0.36500001 1.0159722e-39
0.024481459 0.00063258957 0.36500001 1.0159722e-39
0.025736915 0.00063258957 0.36500001 1.0159722e-39
0.026992396 0.00063258957 0.36500001 9.2377659e-40
0.028247852 0.00063258957 0.36500001 9.2412411e-40
0.029503308 0.00063258957 0.36500001 9.2412411e-40
0.030758765 0.00063258957 0.36500001 1.0163197e-39
0.032101929 0.0006343227 0.366 1.0163197e-39
0.033360824 0.0006343227 0.366 1.3825841e-39
0.034714311 0.00063605583 0.36700001 1.2903885e-39
0.036074698 0.00063778897 0.368 1.3825841e-39
0.037441939 0.00063952204 0.36899999 1.4747798e-39
0.038816065 0.00064125517 0.37 1.2903885e-39
0.040197067 0.00064298831 0.37099999 1.0138016e-39
0.04158495 0.00064472144 0.37200001 1.1059972e-39
0.043555845 0.00065512018 0.37799999 8.4077908e-45
0.044974707 0.00065685331 0.37900001 8.0217261e-39
0.04627832 0.00065685331 0.37900001 1.7517876e-38
0.04758193 0.00065685331 0.37900001 1.705688e-38
0.0070563639 -0.00064645457 0.373 1.4740735e-39
0.0083169807 -0.00064472144 0.37200001 1.6584648e-39
0.0095965136 -0.00064472144 0.37200001 1.4740735e-39
0.010846835 -0.00064298831 0.37099999 1.3825841e-39
0.012122928 -0.00064298831 0.37099999 1.3825841e-39
0.013362906 -0.00064125517 0.37 1.0155995e-39
0.014635561 -0.00064125517 0.37 1.1077951e-39
0.015822224 -0.00063778897 0.368 9.2412411e-40
0.017041566 -0.00063605583 0.36700001 9.2412411e-40
0.018254049 -0.0006343227 0.366 1.2904011e-39
0.019512946 -0.0006343227 0.366 1.2904011e-39
0.02071509 -0.00063258957 0.36500001 9.2377659e-40
0.021970546 -0.00063258957 0.36500001 9.2377659e-40
0.023226002 -0.00063258957 0.36500001 8.3158096e-40
0.024481459 -0.00063258957 0.36500001 9.2377659e-40
0.025736915 -0.00063258957 0.36500001 1.2904011e-39
0.026992396 -0.00063258957 0.36500001 1.1982055e-39
0.028247852 -0.00063258957 0.36500001 9.2377659e-40
0.029503308 -0.00063258957 0.36500001 8.3158096e-40
0.030758765 -0.00063258957 0.36500001 9.2412411e-40
0.032101929 -0.0006343227 0.366 8.3192848e-40
0.033360824 -0.0006343227 0.366 1.1059972e-39
0.034714311 -0.00063605583 0.36700001 1.1059972e-39
0.036074698 -0.00063778897 0.368 1.2903885e-39
0.037340473 -0.00063778897 0.368 1.3825841e-39
0.038816065 -0.00064125517 0.37 1.2903885e-39
0.040197067 -0.00064298831 0.37099999 1.1059972e-39
0.041473161 -0.00064298831 0.37099999 7.3938533e-40
0.043555845 -0.00065512018 0.37799999 1.9618179e-44
0.044856038 -0.00065512018 0.37799999 8.8518623e-39
0.04627832 -0.00065685331 0.37900001 1.7702643e-38
0.04758193 -0.00065685331 0.37900001 1.6964684e-38
0.0070563639 -0.0019393453 0.373 1.2918529e-39
0.0083169807 -0.001934146 0.37200001 1.0159722e-39
0.0095965136 -0.001934146 0.37200001 9.2377659e-40
0.010846835 -0.0019289466 0.37099999 1.2904011e-39
0.012122928 -0.0019289466 0.37099999 1.2904011e-39
0.013399022 -0.0019289466 0.37099999 9.2377659e-40
0.014675116 -0.0019289466 0.37099999 9.2377659e-40
0.015779231 -0.0019081495 0.36700001 9.2377659e-40
0.017041566 -0.0019081495 0.36700001 9.2377659e-40
0.018254049 -0.00190295 0.366 9.2377659e-40
0.019512946 -0.00190295 0.366 9.2377659e-40
0.02071509 -0.0018977508 0.36500001 1.2904011e-39
0.021970546 -0.0018977508 0.36500001 1.1982055e-39
0.023226002 -0.0018977508 0.36500001 1.2904011e-39
0.024481459 -0.0018977508 0.36500001 1.2904011e-39
0.025736915 -0.0018977508 0.36500001 1.2903885e-39
0.026992396 -0.0018977508 0.36500001 1.2903885e-39
0.028247852 -0.0018977508 0.36500001 1.1982055e-39
0.029503308 -0.0018977508 0.36500001 1.1982055e-39
0.030758765 -0.0018977508 0.36500001 9.2340384e-40
0.032101929 -0.00190295 0.366 9.2340384e-40
0.033360824 -0.00190295 0.366 1.1059972e-39
0.034714311 -0.0019081495 0.36700001 1.1981929e-39
0.036074698 -0.0019133487 0.368 7.3938533e-40
0.037340473 -0.0019133487 0.368 9.2377659e-40
0.038816065 -0.0019237474 0.37 1.4740735e-39
0.040197067 -0.0019289466 0.37099999 1.2896822e-39
0.041473161 -0.0019289466 0.37099999 7.3867627e-40
0.043440621 -0.0019601425 0.377 2.8025969e-44
0.044737376 -0.0019601425 0.377 9.0362535e-39
0.04627832 -0.0019705412 0.37900001 1.7518251e-38
0.04758193 -0.0019705412 0.37900001 1.6963968e-38
0.0057888697 -0.0032409201 0.37400001 4.6136911e-40
0.0070563639 -0.0032322544 0.373 4.6136911e-40
0.0083393371 -0.0032322544 0.373 4.6279563e-40
0.0095965136 -0.0032235889 0.37200001 4.6279563e-40
0.010846835 -0.0032149232 0.37099999 1.4719253e-39
