# .PCD v0.7 - Point Cloud Data file format
VERSION 0.7
FIELDS x y z rgb
SIZE 4 4 4 4
TYPE F F F F
COUNT 1 1 1 1
WIDTH 523
HEIGHT 1
VIEWPOINT 0 0 0 1 0 0 0
POINTS 523
DATA ascii
-0.027845435 0.017370969 0.77100003 1.9649426e-38
-0.025193471 0.017370969 0.77100003 1.8454424e-38
-0.022629244 0.017438559 0.77399999 1.7809055e-38
-0.01996699 0.017438559 0.77399999 1.7802302e-38
-0.030616036 0.014755724 0.77399999 1.9193424e-38
-0.027845435 0.014698533 0.77100003 1.8455859e-38
-0.025193471 0.014698533 0.77100003 1.854661e-38
-0.022600008 0.014736661 0.773 1.7993436e-38
-0.01996699 0.014755724 0.77399999 1.6977876e-38
-0.017349426 0.014793854 0.77600002 1.6240311e-38
-0.014718127 0.014831982 0.778 1.7430658e-38
-0.012042113 0.014831982 0.778 1.779944e-38
-0.035940573 0.012072852 0.77399999 1.9282792e-38
-0.033235297 0.012057254 0.773 1.8914009e-38
-0.030576481 0.012057254 0.773 1.8454414e-38
-0.027845435 0.012026059 0.77100003 1.7809045e-38
-0.025193471 0.012026059 0.77100003 1.7254767e-38
-0.022541536 0.012026059 0.77100003 1.633281e-38
-0.019941194 0.012057254 0.773 1.5503788e-38
-0.017349426 0.012104048 0.77600002 1.5411593e-38
-0.014718127 0.012135244 0.778 1.4488594e-38
-0.012042113 0.012135244 0.778 1.6609093e-38
-0.0093901502 0.01216644 0.77999997 1.8531299e-38
-0.035940573 0.009390017 0.77399999 1.8363323e-38
-0.03327829 0.009390017 0.77399999 1.7533562e-38
-0.03049737 0.0093536228 0.77100003 1.6979281e-38
-0.027845435 0.0093536228 0.77100003 1.6333912e-38
-0.025128119 0.0093293581 0.76899999 1.504423e-38
-0.02248306 0.0093293581 0.76899999 1.4491056e-38
-0.019889599 0.0093536228 0.77100003 1.4120864e-38
-0.017282352 0.0093778856 0.773 1.292232e-38
-0.014680291 0.0094142808 0.77600002 1.2830866e-38
-0.012042113 0.0094385445 0.778 1.3476235e-38
-0.0093901502 0.0094628073 0.77999997 1.8532366e-38
-0.040625315 0.0066031576 0.76200002 1.8994773e-38
-0.038004335 0.0066031576 0.76200002 1.9640142e-38
-0.035801269 0.006681148 0.77100003 1.7993458e-38
-0.033149306 0.006681148 0.77100003 1.6333937e-38
-0.030339146 0.0066464855 0.76700002 1.7066872e-38
-0.027700968 0.0066464855 0.76700002 1.5683938e-38
-0.025062766 0.0066464855 0.76700002 1.5224402e-38
-0.02248306 0.0066638165 0.76899999 1.4302445e-38
-0.019838003 0.0066638165 0.76899999 1.2924484e-38
-0.017237637 0.006681148 0.77100003 1.2002528e-38
-0.014623537 0.0066984789 0.773 1.2551046e-38
-0.012042113 0.0067418064 0.778 1.162909e-38
-0.0093660736 0.0067418064 0.778 1.6507272e-38
-0.0067072571 0.0067591374 0.77999997 1.7982402e-38
-0.038004335 0.0039618793 0.76200002 1.9270219e-38
-0.035383355 0.0039618793 0.76200002 1.780332e-38
-0.03293433 0.0039826767 0.76599997 1.6143799e-38
-0.030299591 0.0039826767 0.76599997 1.3290457e-38
-0.027664851 0.0039826767 0.76599997 9.1416536e-39
-0.025062766 0.0039878762 0.76700002 1.263609e-38
-0.022424588 0.0039878762 0.76700002 1.5770741e-38
-0.01978641 0.0039878762 0.76700002 1.347587e-38
-0.017192923 0.0039982749 0.76899999 1.3014892e-38
-0.014585701 0.0040086736 0.77100003 1.2276966e-38
-0.012011156 0.0040346701 0.77600002 1.1262814e-38
-0.0093660736 0.0040450683 0.778 1.3376867e-38
-0.0066900598 0.0040450683 0.778 1.7802257e-38
-0.040571999 0.0013189059 0.76099998 1.989505e-38
-0.037854709 0.0013154397 0.759 1.9618463e-38
-0.035244048 0.0013154397 0.759 1.8424925e-38
-0.03284834 0.0013241053 0.764 1.8885903e-38
-0.030220479 0.0013241053 0.764 1.5401224e-38
-0.02759262 0.0013241053 0.764 1.1344617e-38
-0.02503009 0.0013275716 0.76599997 1.4671225e-38
-0.02239535 0.0013275716 0.76599997 1.4855616e-38
-0.019760612 0.0013275716 0.76599997 1.3661333e-38
-0.017125849 0.0013275716 0.76599997 1.3015964e-38
-0.014510029 0.0013293047 0.76700002 1.2553927e-38
-0.011964721 0.0013397034 0.773 1.1908558e-38
-0.0093660736 0.0013483689 0.778 1.1169855e-38
-0.0066900598 0.0013483689 0.778 1.697818e-38
-0.0040140459 0.0013483689 0.778 1.7978132e-38
-0.040571999 -0.0013189059 0.76099998 1.5999107e-38
-0.037854709 -0.0013154397 0.759 1.8672759e-38
-0.035244048 -0.0013154397 0.759 1.7948547e-38
-0.032762352 -0.001320639 0.76200002 1.9239286e-38
-0.030220479 -0.0013241053 0.764 1.8233027e-38
-0.02759262 -0.0013241053 0.764 1.9984744e-38
-0.02503009 -0.0013275716 0.76599997 1.4576486e-38
-0.02239535 -0.0013275716 0.76599997 1.4299899e-38
-0.019760612 -0.0013275716 0.76599997 1.3382938e-38
-0.017125849 -0.0013275716 0.76599997 1.2553178e-38
-0.014510029 -0.0013293047 0.76700002 1.1908544e-38
-0.011964721 -0.0013397034 0.773 1.1908544e-38
-0.0093179187 -0.0013414364 0.77399999 1.1263165e-38
-0.0066728615 -0.0013449028 0.77600002 1.495099e-38
-0.0040140459 -0.0013483689 0.778 1.7887021e-38
-0.045867302 -0.0039618793 0.76200002 1.5201814e-38
-0.043246295 -0.0039618793 0.76200002 5.982251e-39
-0.040625315 -0.0039618793 0.76200002 1.2588638e-38
-0.037954457 -0.0039566802 0.76099998 1.4524733e-38
-0.035336919 -0.0039566802 0.76099998 1.3232204e-38
-0.032719351 -0.0039566802 0.76099998 1.3785376e-38
-0.03014137 -0.0039618793 0.76200002 1.5459579e-38
-0.02752039 -0.0039618793 0.76200002 1.9792773e-38
-0.024964737 -0.0039722784 0.764 1.5385755e-38
-0.02239535 -0.0039826767 0.76599997 1.6584299e-38
-0.019760612 -0.0039826767 0.76599997 1.1631947e-38
-0.017125849 -0.0039826767 0.76599997 1.0986578e-38
-0.014510029 -0.0039878762 0.76700002 1.0984388e-38
-0.011964721 -0.0040190723 0.773 1.1629757e-38
-0.0093179187 -0.0040242709 0.77399999 1.0249353e-38
-0.0066728615 -0.0040346701 0.77600002 1.3844983e-38
-0.0040037273 -0.0040346701 0.77600002 1.8070328e-38
-0.0013380323 -0.0040450683 0.778 1.760935e-38
-0.043246295 -0.0066031576 0.76200002 9.7658508e-39
-0.040625315 -0.0066031576 0.76200002 1.6002335e-38
-0.037954457 -0.0065944917 0.76099998 1.8675996e-38
-0.035336919 -0.0065944917 0.76099998 1.6005993e-38
-0.032719351 -0.0065944917 0.76099998 1.2594754e-38
-0.03014137 -0.0066031576 0.76200002 1.1117835e-38
-0.02752039 -0.0066031576 0.76200002 1.0933446e-38
-0.024964737 -0.0066204891 0.764 9.7611088e-39
-0.022336878 -0.0066204891 0.764 1.5292831e-38
-0.019760612 -0.00663782 0.76599997 1.1077325e-38
-0.017125849 -0.00663782 0.76599997 1.0247564e-38
-0.014510029 -0.0066464855 0.76700002 1.0247944e-38
-0.011964721 -0.0066984789 0.773 1.0063552e-38
-0.0093058804 -0.0066984789 0.773 8.8657253e-39
-0.0066728615 -0.0067244754 0.77600002 1.3106724e-38
-0.0040037273 -0.0067244754 0.77600002 1.7887375e-38
-0.0013380323 -0.0067418064 0.778 1.7518592e-38
-0.043530062 -0.0093050571 0.76700002 1.5929176e-38
-0.040838569 -0.0092929248 0.76599997 1.7291619e-38
-0.037754964 -0.0091837393 0.75700003 1.5171152e-38
-0.03515118 -0.0091837393 0.75700003 1.2878135e-38
-0.032762352 -0.0092443982 0.76200002 1.2601552e-38
-0.03014137 -0.0092443982 0.76200002 1.1686426e-38
-0.02752039 -0.0092443982 0.76200002 1.3806908e-38
-0.024964737 -0.009268662 0.764 1.1805582e-38
-0.022336878 -0.009268662 0.764 1.2635343e-38
-0.019760612 -0.0092929248 0.76599997 1.0985477e-38
-0.017125849 -0.0092929248 0.76599997 1.006352e-38
-0.014547865 -0.0093293199 0.76899999 9.0504599e-39
-0.011933764 -0.0093535846 0.77100003 8.8660714e-39
-0.0093058804 -0.0093778474 0.773 5.2773124e-39
-0.0066728615 -0.0094142426 0.77600002 1.3390507e-38
-0.0040037273 -0.0094142426 0.77600002 1.7703694e-38
-0.0013345927 -0.0094142426 0.77600002 1.7334911e-38
0.0014050524 -0.0099116443 0.81699997 1.7425299e-38
0.0042152638 -0.0099116443 0.81699997 1.760969e-38
-0.037754964 -0.011807687 0.75700003 1.2165733e-38
-0.03515118 -0.011807687 0.75700003 1.170221e-38
-0.032762352 -0.011885676 0.76200002 1.2255375e-38
-0.03014137 -0.011885676 0.76200002 1.2175797e-38
-0.02759262 -0.011916873 0.764 1.2452384e-38
-0.024964737 -0.011916873 0.764 1.0893666e-38
-0.02239535 -0.011948069 0.76599997 1.0709275e-38
-0.01978641 -0.011963666 0.76700002 1.0249351e-38
-0.017237637 -0.012026059 0.77100003 9.4195955e-39
-0.014585701 -0.012026059 0.77100003 9.0504599e-39
-0.011933764 -0.012026059 0.77100003 7.5753522e-39
-0.0093179187 -0.012072852 0.77399999 8.8665577e-39
-0.0066900598 -0.012135244 0.778 1.5689034e-38
-0.0040140459 -0.012135244 0.778 1.7059351e-38
-0.0014051058 -0.012743565 0.81699997 1.8073503e-38
0.0014050524 -0.012743565 0.81699997 1.8074916e-38
0.0042049452 -0.01271237 0.815 1.6876373e-38
0.0070082243 -0.01271237 0.815 1.7517495e-38
-0.03293433 -0.014603173 0.76599997 1.154224e-38
-0.030299591 -0.014603173 0.76599997 1.0803622e-38
-0.027664851 -0.014603173 0.76599997 1.0342643e-38
-0.02503009 -0.014603173 0.76599997 1.0616691e-38
-0.02248306 -0.014660366 0.76899999 9.8791318e-39
-0.019889599 -0.014698495 0.77100003 9.511431e-39
-0.017282352 -0.014736623 0.773 8.9582657e-39
-0.014623537 -0.014736623 0.773 8.3136235e-39
-0.011964721 -0.014736623 0.773 6.9307101e-39
-0.0093179187 -0.014755686 0.77399999 1.6509467e-38
-0.0066900598 -0.014831943 0.778 1.8722162e-38
-0.0042152638 -0.015575446 0.81699997 1.6238518e-38
-0.0014051058 -0.015575446 0.81699997 1.789804e-38
0.0014016129 -0.015537319 0.815 1.6610877e-38
0.0042049452 -0.015537319 0.815 1.6610877e-38
0.0070082243 -0.015537319 0.815 1.7522102e-38
0.0098115029 -0.015537319 0.815 1.6968928e-38
-0.033235297 -0.01741603 0.773 1.1450067e-38
-0.030576481 -0.01741603 0.773 1.0528079e-38
-0.0277732 -0.017325908 0.76899999 1.0067108e-38
-0.025128119 -0.017325908 0.76899999 9.4199543e-39
-0.02248306 -0.017325908 0.76899999 8.8667889e-39
-0.019889599 -0.017370969 0.77100003 8.3136235e-39
-0.017282352 -0.01741603 0.773 8.0370408e-39
-0.014623537 -0.01741603 0.773 6.1045494e-39
-0.011980199 -0.017438559 0.77399999 1.1175288e-38
-0.0093419962 -0.017483622 0.77600002 2.0014649e-38
-0.0066728615 -0.017483622 0.77600002 1.8078541e-38
-0.0042049452 -0.018362308 0.815 1.5874381e-38
-0.0014016661 -0.018362308 0.815 1.5966577e-38
0.0013981734 -0.018317247 0.81300002 1.6426839e-38
0.0041843075 -0.018272186 0.81099999 1.6980013e-38
0.0069566299 -0.018227125 0.80900002 1.7162979e-38
0.0097392714 -0.018227125 0.80900002 1.5226871e-38
-0.033149306 -0.020043407 0.77100003 1.4303849e-38
-0.03049737 -0.020043407 0.77100003 1.2646828e-38
-0.0277732 -0.019991411 0.76899999 1.1263893e-38
-0.025128119 -0.019991411 0.76899999 1.0434846e-38
-0.022541536 -0.020043407 0.77100003 8.8675204e-39
-0.019889599 -0.020043407 0.77100003 8.4047416e-39
-0.017237637 -0.020043407 0.77100003 7.759382e-39
-0.014623537 -0.020095399 0.773 5.924107e-39
-0.011980199 -0.020121394 0.77399999 9.796301e-39
-0.0093419962 -0.020173388 0.77600002 1.5963033e-38
-0.0067072571 -0.020277373 0.77999997 1.559425e-38
-0.0041946266 -0.021135263 0.81300002 1.5779696e-38
-0.0013982266 -0.021135263 0.81300002 1.6425065e-38
0.0013981734 -0.021135263 0.81300002 1.6610874e-38
0.0041739885 -0.021031277 0.80900002 1.6518679e-38
0.0069566299 -0.021031277 0.80900002 1.7715076e-38
0.0097151939 -0.020979283 0.80699998 1.5225794e-38
0.012490956 -0.020979283 0.80699998 1.5679316e-38
0.015304554 -0.021031277 0.80900002 1.6509077e-38
-0.035708398 -0.022656953 0.76899999 1.2647561e-38
-0.033063315 -0.022656953 0.76899999 1.246317e-38
-0.03049737 -0.02271588 0.77100003 1.2369162e-38
-0.0277732 -0.022656953 0.76899999 1.1815988e-38
-0.025128119 -0.022656953 0.76899999 1.0988023e-38
-0.022541536 -0.02271588 0.77100003 9.9738707e-39
-0.019889599 -0.02271588 0.77100003 9.2373623e-39
-0.017237637 -0.02271588 0.77100003 1.0989079e-38
-0.014585701 -0.02271588 0.77100003 1.2369189e-38
-0.011933764 -0.02271588 0.77100003 1.2645776e-38
-0.0093058804 -0.022774804 0.773 1.2829774e-38
-0.0066556633 -0.022804266 0.77399999 1.2553188e-38
-0.0040398431 -0.023069434 0.78299999 1.3198937e-38
-0.0013982266 -0.02395332 0.81300002 1.3844306e-38
0.0013689372 -0.023452451 0.796 1.5043186e-38
0.0041069156 -0.023452451 0.796 1.5965142e-38
0.0068448423 -0.023452451 0.796 1.6057338e-38
0.0096911173 -0.023717616 0.80500001 1.4858794e-38
0.012490956 -0.023776541 0.80699998 1.5128947e-38
0.015304554 -0.023835469 0.80900002 1.6511881e-38
-0.038253706 -0.025256637 0.76700002 1.4304934e-38
-0.03556909 -0.025223708 0.76599997 1.2370594e-38
-0.03293433 -0.025223708 0.76599997 1.1725225e-38
-0.030299591 -0.025223708 0.76599997 1.1814168e-38
-0.027664851 -0.025223708 0.76599997 1.1445385e-38
-0.025062766 -0.025256637 0.76700002 1.0803268e-38
-0.022424588 -0.025256637 0.76700002 1.181742e-38
-0.01978641 -0.025256637 0.76700002 1.3015274e-38
-0.017192923 -0.025322495 0.76899999 1.393723e-38
-0.014547865 -0.025322495 0.76899999 1.43971e-38
-0.011902807 -0.025322495 0.76899999 1.4304905e-38
-0.0092818029 -0.025388354 0.77100003 1.3844277e-38
-0.00659547 -0.025256637 0.76700002 1.3659885e-38
-0.0039572921 -0.025256637 0.76700002 1.3659898e-38
-0.0013173942 -0.025223708 0.76599997 1.4028681e-38
0.0013173441 -0.025223708 0.76599997 1.4581138e-38
0.0040604807 -0.02591522 0.787 1.5042116e-38
0.0067760497 -0.025948148 0.78799999 1.5319059e-38
0.0095346142 -0.026079865 0.792 1.4858081e-38
0.012320695 -0.026211582 0.796 1.3749903e-38
0.015304554 -0.026639661 0.80900002 1.614699e-38
-0.043757077 -0.028060792 0.77100003 1.8267564e-38
-0.040998511 -0.027988 0.76899999 1.624319e-38
-0.038253706 -0.02791521 0.76700002 1.4583669e-38
-0.03556909 -0.027878813 0.76599997 1.3291466e-38
-0.03293433 -0.027878813 0.76599997 1.236951e-38
-0.030299591 -0.027878813 0.76599997 1.1816329e-38
-0.027664851 -0.027878813 0.76599997 1.2738285e-38
-0.02503009 -0.027878813 0.76599997 1.3567006e-38
-0.02239535 -0.027878813 0.76599997 1.4581158e-38
-0.019760612 -0.027878813 0.76599997 1.4766262e-38
-0.017125849 -0.027878813 0.76599997 1.4674067e-38
-0.014491111 -0.027878813 0.76599997 1.4305961e-38
-0.011856372 -0.027878813 0.76599997 1.4305961e-38
-0.0092216088 -0.027878813 0.76599997 1.5320123e-38
-0.0065868706 -0.027878813 0.76599997 1.6242079e-38
-0.0039521325 -0.027878813 0.76599997 1.5135394e-38
-0.0013173942 -0.027878813 0.76599997 1.4674416e-38
0.0013173441 -0.027878813 0.76599997 1.4489306e-38
0.0039779302 -0.028060792 0.77100003 1.4489306e-38
0.006715857 -0.028424744 0.78100002 1.4673321e-38
0.0094744209 -0.028643116 0.787 1.5042104e-38
0.012258783 -0.028825091 0.792 1.3014545e-38
-0.046529427 -0.030812988 0.773 1.8639181e-38
-0.043643568 -0.03065354 0.76899999 1.7993812e-38
-0.040891882 -0.030573819 0.76700002 1.6887841e-38
-0.038253706 -0.030573819 0.76700002 1.5597102e-38
-0.03556909 -0.030533956 0.76599997 1.4858441e-38
-0.03284834 -0.030454235 0.764 1.4213072e-38
-0.03014137 -0.03037451 0.76200002 1.4488234e-38
-0.02752039 -0.03037451 0.76200002 1.4396038e-38
-0.024899386 -0.03037451 0.76200002 1.3936853e-38
-0.022336878 -0.030454235 0.764 1.4305636e-38
-0.019709019 -0.030454235 0.764 1.4582583e-38
-0.017081134 -0.030454235 0.764 1.5135757e-38
-0.014453275 -0.030454235 0.764 1.5689268e-38
-0.011825416 -0.030454235 0.764 1.8086355e-38
-0.0091975322 -0.030454235 0.764 1.8359354e-38
-0.0065696728 -0.030454235 0.764 1.6515442e-38
-0.0039418135 -0.030454235 0.764 1.485768e-38
-0.0013173942 -0.030533956 0.76599997 1.4396702e-38
0.0013173441 -0.030533956 0.76599997 1.4674779e-38
0.0039676107 -0.03065354 0.76899999 1.5135757e-38
0.0066470644 -0.030812988 0.773 1.5594581e-38
0.0093901502 -0.031092016 0.77999997 1.5871168e-38
0.012119478 -0.031211603 0.78299999 1.3291508e-38
-0.048806444 -0.033232391 0.76700002 1.890723e-38
-0.046168264 -0.033232391 0.76700002 1.7993456e-38
-0.043530062 -0.033232391 0.76700002 1.7624673e-38
-0.040838569 -0.033189062 0.76599997 1.7071519e-38
-0.038004335 -0.03301575 0.76200002 1.6333954e-38
-0.035383355 -0.03301575 0.76200002 1.5136107e-38
-0.032719351 -0.032972421 0.76099998 1.5228303e-38
-0.030101812 -0.032972421 0.76099998 1.4490392e-38
-0.027484272 -0.032972421 0.76099998 1.3937218e-38
-0.024899386 -0.03301575 0.76200002 1.3752457e-38
-0.022278406 -0.03301575 0.76200002 1.3936848e-38
-0.019657426 -0.03301575 0.76200002 1.3937564e-38
-0.017036421 -0.03301575 0.76200002 1.402976e-38
-0.01441544 -0.03301575 0.76200002 1.5319054e-38
-0.01177898 -0.032972421 0.76099998 1.7070771e-38
-0.0091614155 -0.032972421 0.76099998 1.3480096e-38
-0.006552475 -0.03301575 0.76200002 1.4402052e-38
-0.0039314949 -0.03301575 0.76200002 1.200211e-38
-0.0013139545 -0.033102408 0.764 1.4399175e-38
0.0013173441 -0.033189062 0.76599997 1.218327e-38
0.0039572921 -0.033232391 0.76700002 1.3842777e-38
0.0066298665 -0.033405703 0.77100003 1.393506e-38
0.0093419962 -0.033622339 0.77600002 1.328969e-38
0.012042088 -0.033708993 0.778 1.273831e-38
0.014755935 -0.033795647 0.77999997 1.2646115e-38
-0.048806444 -0.035891 0.76700002 1.5775395e-38
-0.046168264 -0.035891 0.76700002 1.6888553e-38
-0.043530062 -0.035891 0.76700002 1.7626118e-38
-0.040838569 -0.035844203 0.76599997 1.6333611e-38
-0.037954457 -0.035610233 0.76099998 1.5227263e-38
-0.035336919 -0.035610233 0.76099998 1.5871891e-38
-0.032633364 -0.035516646 0.759 1.4765544e-38
-0.030022701 -0.035516646 0.759 1.4489659e-38
-0.027484272 -0.035610233 0.76099998 1.3936485e-38
-0.024866708 -0.035610233 0.76099998 1.3752457e-38
-0.022249166 -0.035610233 0.76099998 1.3291478e-38
-0.019631626 -0.035610233 0.76099998 1.3475507e-38
-0.017014062 -0.035610233 0.76099998 1.3383311e-38
-0.014396521 -0.035610233 0.76099998 1.4949205e-38
-0.011748024 -0.035516646 0.759 1.6055552e-38
-0.009137339 -0.035516646 0.759 1.3013736e-38
-0.0065438757 -0.035610233 0.76099998 1.3290318e-38
-0.0039263354 -0.035610233 0.76099998 1.200038e-38
-0.001310515 -0.03565703 0.76200002 1.1078423e-38
0.0013173441 -0.035844203 0.76599997 1.282654e-38
0.0039572921 -0.035891 0.76700002 1.2549953e-38
0.0066298665 -0.036078177 0.77100003 1.2276215e-38
0.0093179187 -0.036218554 0.77399999 1.153865e-38
0.01201113 -0.036312144 0.77600002 1.126135e-38
0.0147181 -0.036405731 0.778 1.2828676e-38
-0.048806444 -0.038549572 0.76700002 1.7528897e-38
-0.046168264 -0.038549572 0.76700002 1.7164061e-38
-0.043473307 -0.038499311 0.76599997 1.6887474e-38
-0.04073194 -0.038398791 0.764 1.7254475e-38
-0.037954457 -0.038248006 0.76099998 1.6793497e-38
-0.035244048 -0.038147487 0.759 1.5412344e-38
-0.032633364 -0.038147487 0.759 1.4213801e-38
-0.030022701 -0.038147487 0.759 1.3844645e-38
-0.02741204 -0.038147487 0.759 1.3291471e-38
-0.024866708 -0.038248006 0.76099998 1.3382585e-38
-0.022249166 -0.038248006 0.76099998 1.3013803e-38
-0.019631626 -0.038248006 0.76099998 1.2828323e-38
-0.016969347 -0.038147487 0.759 1.2367345e-38
-0.014358685 -0.038147487 0.759 1.3014866e-38
-0.011748024 -0.038147487 0.759 1.3199258e-38
-0.009137339 -0.038147487 0.759 1.0989409e-38
-0.0065438757 -0.038248006 0.76099998 1.135819e-38
-0.0039263354 -0.038248006 0.76099998 1.1813114e-38
-0.001310515 -0.038298268 0.76200002 1.190531e-38
0.0013139045 -0.038398791 0.764 1.0800725e-38
0.0039521325 -0.038499311 0.76599997 1.1814877e-38
0.0066126678 -0.038650092 0.76899999 1.1905287e-38
0.0093058804 -0.038851131 0.773 1.1075527e-38
0.011980173 -0.038901389 0.77399999 1.0245072e-38
0.014680265 -0.039001912 0.77600002 1.3748506e-38
-0.048933707 -0.041315634 0.76899999 1.7067576e-38
-0.04628865 -0.041315634 0.76899999 1.6425404e-38
-0.043473307 -0.041154452 0.76599997 1.65176e-38
-0.04073194 -0.041047003 0.764 1.6241716e-38
-0.037954457 -0.040885817 0.76099998 1.5965129e-38
-0.035244048 -0.040778369 0.759 1.4215223e-38
-0.032633364 -0.040778369 0.759 1.384644e-38
-0.030022701 -0.040778369 0.759 1.375281e-38
-0.02741204 -0.040778369 0.759 1.2923049e-38
-0.024866708 -0.040885817 0.76099998 1.2554279e-38
-0.022249166 -0.040885817 0.76099998 1.2001105e-38
-0.019580033 -0.040778369 0.759 1.2001083e-38
-0.016969347 -0.040778369 0.759 1.1724496e-38
-0.014358685 -0.040778369 0.759 1.1631947e-38
-0.011748024 -0.040778369 0.759 1.4121229e-38
-0.0091614155 -0.040885817 0.76099998 1.1172764e-38
-0.0065438757 -0.040885817 0.76099998 1.0250808e-38
-0.0039263354 -0.040885817 0.76099998 1.107589e-38
-0.001310515 -0.040939547 0.76200002 1.107589e-38
0.0013139045 -0.041047003 0.764 1.1628384e-38
0.0039521325 -0.041154452 0.76599997 1.0983014e-38
0.0066126678 -0.041315634 0.76899999 1.1076268e-38
0.0093058804 -0.041530538 0.773 1.0799681e-38
0.011980173 -0.041584261 0.77399999 9.418553e-39
0.014680265 -0.041691717 0.77600002 1.4028334e-38
-0.049060978 -0.044095524 0.77100003 1.6329297e-38
-0.046409041 -0.044095524 0.77100003 1.6056271e-38
-0.043473307 -0.043809559 0.76599997 1.5779684e-38
-0.04073194 -0.043695174 0.764 1.5411602e-38
-0.038004335 -0.043580785 0.76200002 1.504282e-38
-0.035336919 -0.043523595 0.76099998 1.4398545e-38
-0.032719351 -0.043523595 0.76099998 1.3753176e-38
-0.030101812 -0.043523595 0.76099998 1.3108522e-38
-0.027484272 -0.043523595 0.76099998 1.2831935e-38
-0.024866708 -0.043523595 0.76099998 1.2554293e-38
-0.022190694 -0.04340921 0.759 1.2001119e-38
-0.019580033 -0.04340921 0.759 1.1908544e-38
-0.016969347 -0.04340921 0.759 1.1263175e-38
-0.014358685 -0.04340921 0.759 1.1446124e-38
-0.011748024 -0.04340921 0.759 1.3105645e-38
-0.0091614155 -0.043523595 0.76099998 1.062066e-38
-0.006552475 -0.043580785 0.76200002 1.0251877e-38
-0.0039418135 -0.043695174 0.764 1.1168451e-38
-0.0013139545 -0.043695174 0.764 1.0615277e-38
0.0013173441 -0.043809559 0.76599997 1.0340142e-38
0.0039572921 -0.043866754 0.76700002 1.0063555e-38
0.0066126678 -0.043981135 0.76899999 1.061601e-38
0.0093058804 -0.044209909 0.773 1.0062836e-38
0.011964696 -0.044209909 0.773 9.6952352e-39
-0.051914129 -0.046949971 0.77399999 1.7617573e-38
-0.049188241 -0.046889313 0.773 1.5497073e-38
-0.046409041 -0.046767998 0.77100003 1.5411239e-38
-0.043473307 -0.0464647 0.76599997 1.5319044e-38
-0.04073194 -0.046343386 0.764 1.4951356e-38
-0.038004335 -0.046222065 0.76200002 1.4766964e-38
-0.035383355 -0.046222065 0.76200002 1.4213435e-38
-0.032762352 -0.046222065 0.76200002 1.3383674e-38
-0.030101812 -0.046161406 0.76099998 1.3475497e-38
-0.027484272 -0.046161406 0.76099998 1.3291106e-38
-0.024866708 -0.046161406 0.76099998 1.2462802e-38
-0.022190694 -0.046040088 0.759 1.2370607e-38
-0.019580033 -0.046040088 0.759 1.1908181e-38
-0.016969347 -0.046040088 0.759 1.1262812e-38
-0.014358685 -0.046040088 0.759 1.1353899e-38
-0.011748024 -0.046040088 0.759 1.1353899e-38
-0.0091614155 -0.046161406 0.76099998 1.1724167e-38
-0.006552475 -0.046222065 0.76200002 1.0617819e-38
-0.0039418135 -0.046343386 0.764 1.0156098e-38
-0.0013139545 -0.046343386 0.764 1.0801468e-38
0.0013173441 -0.0464647 0.76599997 1.0800055e-38
0.0039572921 -0.046525363 0.76700002 9.6015121e-39
0.0066126678 -0.046646677 0.76899999 1.0152511e-38
0.0093058804 -0.046889313 0.773 8.9539679e-39
0.011964696 -0.046889313 0.773 1.5954851e-38
-0.051712912 -0.049440473 0.77100003 1.9732716e-38
-0.049060978 -0.049440473 0.77100003 1.6229282e-38
-0.046409041 -0.049440473 0.77100003 1.5501679e-38
-0.043530062 -0.049183972 0.76700002 1.4764114e-38
-0.040838569 -0.049119845 0.76599997 1.476552e-38
-0.038104083 -0.048991594 0.764 1.4396737e-38
-0.035383355 -0.048863344 0.76200002 1.3936502e-38
-0.032762352 -0.048863344 0.76200002 1.3383328e-38
-0.03014137 -0.048863344 0.76200002 1.2738305e-38
-0.027484272 -0.048799217 0.76099998 1.28305e-38
-0.024866708 -0.048799217 0.76099998 1.2462088e-38
-0.022249166 -0.048799217 0.76099998 1.2185501e-38
-0.019631626 -0.048799217 0.76099998 1.1447217e-38
-0.016969347 -0.04867097 0.759 1.117063e-38
-0.014358685 -0.04867097 0.759 1.0984413e-38
-0.01177898 -0.048799217 0.76099998 1.0892217e-38
-0.0091975322 -0.048991594 0.764 9.9699205e-39
-0.0065696728 -0.048991594 0.764 1.061529e-38
-0.0039418135 -0.048991594 0.764 1.0521323e-38
-0.0013173942 -0.049119845 0.76599997 1.0244736e-38
0.0013190639 -0.049183972 0.76700002 9.8752502e-39
0.0039676107 -0.049312219 0.76899999 8.9532939e-39
0.0066298665 -0.049440473 0.77100003 8.7703249e-39
0.0093058804 -0.04956872 0.773 9.3234987e-39
-0.051712912 -0.052112907 0.77100003 1.9824909e-38
-0.049060978 -0.052112907 0.77100003 1.4016585e-38
-0.046409041 -0.052112907 0.77100003 1.2093684e-38
-0.043530062 -0.051842544 0.76700002 1.2923444e-38
-0.040891882 -0.051842544 0.76700002 1.3105675e-38
-0.038104083 -0.051639769 0.764 1.3013479e-38
-0.035476223 -0.051639769 0.764 1.2829463e-38
-0.03284834 -0.051639769 0.764 1.227629e-38
-0.03014137 -0.051504582 0.76200002 1.2457444e-38
-0.027484272 -0.05143699 0.76099998 1.2273053e-38
-0.024866708 -0.05143699 0.76099998 1.1536564e-38
-0.022249166 -0.05143699 0.76099998 1.0706803e-38
-0.019631626 -0.05143699 0.76099998 9.8781088e-39
-0.017036421 -0.051504582 0.76200002 9.1405438e-39
-0.014453275 -0.051639769 0.764 8.8639471e-39
-0.011825416 -0.051639769 0.764 8.0341864e-39
-0.0092216088 -0.051774949 0.76599997 7.7554359e-39
-0.0065868706 -0.051774949 0.76599997 6.4647167e-39
-0.0039521325 -0.051774949 0.76599997 4.5340189e-39
-0.001319114 -0.051842544 0.76700002 2.5979401e-39
0.001325943 -0.052112907 0.77100003 5.7110199e-40
0.0039779302 -0.052112907 0.77100003 8.4768468e-40
0.0066470644 -0.052248091 0.773 4.2581635e-39
-0.040891882 -0.054501154 0.76700002 1.1256717e-38
-0.038203832 -0.054430094 0.76599997 1.0611348e-38
-0.035476223 -0.054287981 0.764 9.2305436e-39
-0.03284834 -0.054287981 0.764 8.1242128e-39
-0.022278406 -0.054145861 0.76200002 5.1772261e-39
-0.019657426 -0.054145861 0.76200002 5.7260867e-39
-0.017036421 -0.054145861 0.76200002 5.2651155e-39
-0.014453275 -0.054287981 0.764 4.6233433e-39
-0.011825416 -0.054287981 0.764 4.8077317e-39
-0.0091975322 -0.054287981 0.764 5.8197158e-39
-0.0065696728 -0.054287981 0.764 7.0182422e-39
-0.0039521325 -0.054430094 0.76599997 8.5845268e-39
-0.0013259934 -0.054785382 0.77100003 1.1073809e-38
0.0013293825 -0.054927498 0.773 1.3374802e-38
0.0039882488 -0.054927498 0.773 1.5587498e-38
-0.035476223 -0.056936152 0.764 2.1207834e-38
-0.03284834 -0.056936152 0.764 2.0931247e-38
-0.014491111 -0.057085197 0.76599997 2.1022727e-38
-0.011856372 -0.057085197 0.76599997 2.074614e-38
-0.0091975322 -0.056936152 0.764 2.1115638e-38
-0.0065696728 -0.056936152 0.764 2.0839051e-38
-0.0039521325 -0.057085197 0.76599997 2.1022373e-38
-0.0013259934 -0.05745782 0.77100003 2.1114569e-38
0.0013293825 -0.057606865 0.773 2.0653594e-38
0.0039882488 -0.057606865 0.773 2.0837985e-38
