# .PCD v0.7 - Point Cloud Data file format
VERSION 0.7
FIELDS x y z rgb
SIZE 4 4 4 4
TYPE F F F F
COUNT 1 1 1 1
WIDTH 453
HEIGHT 1
VIEWPOINT 0 0 0 1 0 0 0
POINTS 453
DATA ascii
-0.020250758 0.017686397 0.78500003 1.9283834e-38
-0.017550642 0.017686397 0.78500003 1.8546269e-38
-0.014888387 0.017731456 0.787 1.707045e-38
-0.012196895 0.017753985 0.78799999 1.642508e-38
-0.0094864592 0.017753985 0.78799999 1.7888063e-38
-0.022833904 0.014889176 0.78100002 1.946647e-38
-0.020147571 0.014889176 0.78100002 1.8363663e-38
-0.017505927 0.014927303 0.78299999 1.8087076e-38
-0.014850551 0.014965433 0.78500003 1.7717222e-38
-0.012181417 0.015003561 0.787 1.6795266e-38
-0.0094744209 0.015003561 0.787 1.6145645e-38
-0.0067674508 0.015003561 0.787 1.6606623e-38
-0.028278824 0.012213235 0.78299999 1.991995e-38
-0.025585586 0.012213235 0.78299999 1.873209e-38
-0.022833904 0.012182039 0.78100002 1.8271112e-38
-0.020147571 0.012182039 0.78100002 1.7810499e-38
-0.017461212 0.012182039 0.78100002 1.6704152e-38
-0.01477488 0.012182039 0.78100002 1.6885293e-38
-0.012119504 0.012213235 0.78299999 1.5502359e-38
-0.0094503444 0.012244431 0.78500003 1.467369e-38
-0.006750253 0.012244431 0.78500003 1.5319059e-38
-0.030892927 0.0094749406 0.78100002 1.8907908e-38
-0.028206594 0.0094749406 0.78100002 1.9092299e-38
-0.025520235 0.0094749406 0.78100002 1.7533598e-38
-0.022804664 0.0094628073 0.77999997 1.6611642e-38
-0.020070178 0.0094385445 0.778 1.7439196e-38
-0.01739414 0.0094385445 0.778 1.5687479e-38
-0.014718127 0.0094385445 0.778 1.5685293e-38
-0.012042113 0.0094385445 0.778 1.4210163e-38
-0.0093901502 0.0094628073 0.77999997 1.2921644e-38
-0.006715857 0.0094749406 0.78100002 1.2552861e-38
-0.0040398431 0.0094992034 0.78299999 1.6784582e-38
-0.030892927 0.0067678038 0.78100002 1.8175362e-38
-0.028206594 0.0067678038 0.78100002 1.8728536e-38
-0.025487557 0.0067591374 0.77999997 2.010437e-38
-0.022746192 0.0067418064 0.778 1.7061914e-38
-0.020018585 0.0067244754 0.77600002 1.587222e-38
-0.017349426 0.0067244754 0.77600002 1.4950264e-38
-0.014680291 0.0067244754 0.77600002 1.4026838e-38
-0.012011156 0.0067244754 0.77600002 1.3658055e-38
-0.0093660736 0.0067418064 0.778 1.2177289e-38
-0.0067072571 0.0067591374 0.77999997 1.3375832e-38
-0.0040295245 0.0067678038 0.78100002 1.4575417e-38
-0.0013500712 0.0068024658 0.78500003 1.7433481e-38
0.0013500198 0.0068024658 0.78500003 1.7610775e-38
-0.028170476 0.004055467 0.77999997 1.4395329e-38
-0.025422206 0.0040450683 0.778 1.6415417e-38
-0.02268772 0.0040346701 0.77600002 1.761396e-38
-0.019889599 0.0040086736 0.77100003 1.7341642e-38
-0.017237637 0.0040086736 0.77100003 1.5589925e-38
-0.014623537 0.0040190723 0.773 1.3011297e-38
-0.011964721 0.0040190723 0.773 8.4937114e-39
-0.0093419962 0.0040346701 0.77600002 6.3840482e-39
-0.0067072571 0.004055467 0.77999997 1.0071873e-38
-0.0040295245 0.0040606665 0.78100002 1.2552827e-38
-0.0013466314 0.0040710652 0.78299999 1.6056261e-38
0.0013500198 0.0040814639 0.78500003 1.7702255e-38
-0.028026015 0.0013449028 0.77600002 1.5320515e-38
-0.025356853 0.0013449028 0.77600002 1.8258563e-38
-0.022424588 0.0013293047 0.76700002 1.6506846e-38
-0.019760612 0.0013275716 0.76599997 1.8967657e-38
-0.017125849 0.0013275716 0.76599997 1.7584722e-38
-0.014510029 0.0013293047 0.76700002 1.6853705e-38
-0.011871851 0.0013293047 0.76700002 1.7222488e-38
-0.0092818029 0.0013362372 0.77100003 1.272827e-38
-0.0066900598 0.0013483689 0.778 1.3926813e-38
-0.0040243645 0.0013518352 0.77999997 1.1816348e-38
-0.0013466314 0.0013570347 0.78299999 1.4121239e-38
0.0013500198 0.0013605009 0.78500003 1.7795179e-38
0.0040501622 0.0013605009 0.78500003 1.7242005e-38
-0.027953781 -0.0013414364 0.77399999 1.6790596e-38
-0.025258824 -0.0013397034 0.773 1.8413734e-38
-0.022424588 -0.0013293047 0.76700002 1.1591362e-38
-0.019760612 -0.0013275716 0.76599997 1.332081e-38
-0.017125849 -0.0013275716 0.76599997 1.3689587e-38
-0.014491111 -0.0013275716 0.76599997 1.3422335e-38
-0.011871851 -0.0013293047 0.76700002 1.4528682e-38
-0.009233648 -0.0013293047 0.76700002 1.6026481e-38
-0.0066470644 -0.0013397034 0.773 1.6856242e-38
-0.0040140459 -0.0013483689 0.778 1.1996806e-38
-0.0013466314 -0.0013570347 0.78299999 1.1628024e-38
0.0013500198 -0.0013605009 0.78500003 1.7425665e-38
0.0040501622 -0.0013605009 0.78500003 1.7333469e-38
-0.033364285 -0.0040346701 0.77600002 1.9000097e-38
-0.030695148 -0.0040346701 0.77600002 1.742475e-38
-0.027917666 -0.0040190723 0.773 1.1524279e-38
-0.025128119 -0.0039982749 0.76899999 1.2954903e-38
-0.022424588 -0.0039878762 0.76700002 1.1848573e-38
-0.019760612 -0.0039826767 0.76599997 9.8310616e-39
-0.017125849 -0.0039826767 0.76599997 9.8310616e-39
-0.014491111 -0.0039826767 0.76599997 8.3602587e-39
-0.011871851 -0.0039878762 0.76700002 8.3602587e-39
-0.009233648 -0.0039878762 0.76700002 8.9123479e-39
-0.0066126678 -0.0039982749 0.76899999 1.2415773e-38
-0.0039882488 -0.0040190723 0.773 1.3458969e-38
-0.0013414719 -0.004055467 0.77999997 1.216823e-38
0.0013431407 -0.0040606665 0.78100002 1.5954488e-38
0.0040501622 -0.0040814639 0.78500003 1.6784249e-38
-0.030695148 -0.0067244754 0.77600002 1.5210972e-38
-0.027845435 -0.006681148 0.77100003 1.0877843e-38
-0.025128119 -0.0066638165 0.76899999 1.6377236e-38
-0.022424588 -0.0066464855 0.76700002 1.2412859e-38
-0.019760612 -0.00663782 0.76599997 1.2131254e-38
-0.017125849 -0.00663782 0.76599997 1.1854671e-38
-0.014491111 -0.00663782 0.76599997 1.0935957e-38
-0.011871851 -0.0066464855 0.76700002 1.2411076e-38
-0.009233648 -0.0066464855 0.76700002 1.0669061e-38
-0.0066126678 -0.0066638165 0.76899999 1.1591003e-38
-0.0039882488 -0.0066984789 0.773 1.152683e-38
-0.0013380323 -0.0067418064 0.778 1.0143896e-38
0.0013414208 -0.0067591374 0.77999997 1.6230003e-38
0.0040501622 -0.0068024658 0.78500003 1.6690981e-38
-0.030695148 -0.0094142426 0.77600002 1.5406966e-38
-0.027845435 -0.0093535846 0.77100003 1.1258162e-38
-0.025128119 -0.0093293199 0.76899999 1.7304175e-38
-0.022424588 -0.0093050571 0.76700002 1.8594894e-38
-0.019760612 -0.0092929248 0.76599997 1.7021135e-38
-0.017125849 -0.0092929248 0.76599997 1.5453833e-38
-0.014491111 -0.0092929248 0.76599997 1.324727e-38
-0.011871851 -0.0093050571 0.76700002 1.324727e-38
-0.009233648 -0.0093050571 0.76700002 1.0044507e-38
-0.0066470644 -0.0093778474 0.773 1.1611812e-38
-0.0039934083 -0.0093899788 0.77399999 8.2174832e-39
-0.0013380323 -0.0094385063 0.778 8.4940659e-39
0.0013414208 -0.0094627691 0.77999997 1.7333845e-38
-0.027953781 -0.012072852 0.77399999 1.4488943e-38
-0.025258824 -0.012057254 0.773 1.3011254e-38
-0.02248306 -0.011994862 0.76899999 1.0429786e-38
-0.019838003 -0.011994862 0.76899999 1.1707591e-38
-0.017237637 -0.012026059 0.77100003 1.0693454e-38
-0.014623537 -0.012057254 0.773 9.9587703e-39
-0.011964721 -0.012057254 0.773 1.1618271e-38
-0.0093179187 -0.012072852 0.77399999 9.6007624e-39
-0.0066728615 -0.012104048 0.77600002 8.7710073e-39
-0.0040140459 -0.012135244 0.778 3.8050746e-39
-0.0013414719 -0.01216644 0.77999997 1.1641698e-38
-0.025422206 -0.014831943 0.778 1.3200342e-38
-0.02268772 -0.014793815 0.77600002 1.2739364e-38
-0.020018585 -0.014793815 0.77600002 1.163196e-38
-0.017349426 -0.014793815 0.77600002 1.0433417e-38
-0.014680291 -0.014793815 0.77600002 9.696537e-39
-0.012011156 -0.014793815 0.77600002 9.32776e-39
-0.0093660736 -0.014831943 0.778 8.405459e-39
-0.0067072571 -0.014870071 0.77999997 7.6679052e-39
-0.0040243645 -0.014870071 0.77999997 1.1717069e-38
-0.0013431918 -0.014889137 0.78100002 1.697222e-38
-0.025487557 -0.017573742 0.77999997 1.3292172e-38
-0.022804664 -0.017573742 0.77999997 1.2646803e-38
-0.020121772 -0.017573742 0.77999997 1.0344076e-38
-0.017438853 -0.017573742 0.77999997 9.3299236e-39
-0.014718127 -0.017528681 0.778 8.4976533e-39
-0.012042113 -0.017528681 0.778 8.1288763e-39
-0.0093901502 -0.017573742 0.77999997 7.7590232e-39
-0.0067072571 -0.017573742 0.77999997 6.2839156e-39
-0.0040295245 -0.017596275 0.78100002 1.5311588e-38
-0.0013431918 -0.017596275 0.78100002 1.6602326e-38
-0.030892927 -0.020303372 0.78100002 1.614308e-38
-0.025487557 -0.020277373 0.77999997 1.4581884e-38
-0.022804664 -0.020277373 0.77999997 1.3567732e-38
-0.020070178 -0.020225381 0.778 1.089619e-38
-0.01739414 -0.020225381 0.778 9.882038e-39
-0.014718127 -0.020225381 0.778 9.0497705e-39
-0.012042113 -0.020225381 0.778 7.4824447e-39
-0.0093901502 -0.020277373 0.77999997 7.3913225e-39
-0.0067072571 -0.020277373 0.77999997 7.9444879e-39
-0.0040295245 -0.020303372 0.78100002 1.4485009e-38
-0.0013431918 -0.020303372 0.78100002 1.5683552e-38
0.0013500198 -0.02040736 0.78500003 1.6965379e-38
0.0040501622 -0.02040736 0.78500003 1.6873183e-38
0.006750253 -0.02040736 0.78500003 1.6963973e-38
-0.033536259 -0.022981044 0.77999997 1.8444775e-38
-0.028206594 -0.023010509 0.78100002 1.5044252e-38
-0.025487557 -0.022981044 0.77999997 1.4121955e-38
-0.022746192 -0.022922119 0.778 1.2739021e-38
-0.020070178 -0.022922119 0.778 1.1080531e-38
-0.01739414 -0.022922119 0.778 1.0342973e-38
-0.014718127 -0.022922119 0.778 9.5125072e-39
-0.012042113 -0.022922119 0.778 9.420313e-39
-0.0093660736 -0.022922119 0.778 1.0618158e-38
-0.0066900598 -0.022922119 0.778 1.1724506e-38
-0.0040243645 -0.022981044 0.77999997 1.3656661e-38
-0.0013414719 -0.022981044 0.77999997 1.347227e-38
0.0013414208 -0.022981044 0.77999997 1.4485019e-38
0.0040398431 -0.023069434 0.78299999 1.5499171e-38
0.006750253 -0.023128361 0.78500003 1.7331287e-38
0.0094744209 -0.023187285 0.787 1.7239092e-38
0.012196869 -0.023216747 0.78799999 1.6780295e-38
-0.036265619 -0.025717646 0.78100002 1.7717953e-38
-0.033536259 -0.025684714 0.77999997 1.7625758e-38
-0.030853368 -0.025684714 0.77999997 1.7901238e-38
-0.028170476 -0.025684714 0.77999997 1.7440259e-38
-0.025356853 -0.025552999 0.77600002 1.5873665e-38
-0.022629244 -0.02548714 0.77399999 1.4675122e-38
-0.01996699 -0.02548714 0.77399999 1.31085e-38
-0.017304709 -0.02548714 0.77399999 1.2555326e-38
-0.014642454 -0.02548714 0.77399999 1.2646479e-38
-0.011980199 -0.02548714 0.77399999 1.3752827e-38
-0.0093660736 -0.025618857 0.778 1.4304581e-38
-0.0066900598 -0.025618857 0.778 1.4304581e-38
-0.0040140459 -0.025618857 0.778 1.4028683e-38
-0.0013414719 -0.025684714 0.77999997 1.3936488e-38
0.0013414208 -0.025684714 0.77999997 1.3659188e-38
0.0040398431 -0.025783503 0.78299999 1.3659188e-38
0.0067330543 -0.025783503 0.78299999 1.5314076e-38
0.0094503444 -0.025849363 0.78500003 1.5590663e-38
0.012181391 -0.02591522 0.787 1.6688803e-38
-0.041638281 -0.028424744 0.78100002 1.7258414e-38
-0.038951948 -0.028424744 0.78100002 1.7442806e-38
-0.036265619 -0.028424744 0.78100002 1.7535352e-38
-0.033536259 -0.028388346 0.77999997 1.799633e-38
-0.03077426 -0.028315555 0.778 1.8270764e-38
-0.027917666 -0.02813358 0.773 1.7533199e-38
-0.025258824 -0.02813358 0.773 1.6887474e-38
-0.022541536 -0.028060792 0.77100003 1.5688931e-38
-0.019889599 -0.028060792 0.77100003 1.467443e-38
-0.017192923 -0.027988 0.76899999 1.402906e-38
-0.014547865 -0.027988 0.76899999 1.4027952e-38
-0.011933764 -0.028060792 0.77100003 1.4304539e-38
-0.0093058804 -0.02813358 0.773 1.4488227e-38
-0.0066556633 -0.028169975 0.77399999 1.4027248e-38
-0.0039934083 -0.028169975 0.77399999 1.4027248e-38
-0.0013345927 -0.028242767 0.77600002 1.4119444e-38
0.0013379814 -0.028315555 0.778 1.4117639e-38
0.0040295245 -0.028424744 0.78100002 1.3748857e-38
0.0067330543 -0.028497534 0.78299999 1.5132513e-38
0.009426266 -0.028497534 0.78299999 1.4394948e-38
0.012181391 -0.028643116 0.787 1.4943511e-38
0.014888361 -0.028643116 0.787 1.5865468e-38
-0.047251746 -0.031291328 0.78500003 1.9924208e-38
-0.04455163 -0.031291328 0.78500003 1.8633469e-38
-0.041851539 -0.031291328 0.78500003 1.7718304e-38
-0.03890207 -0.031092016 0.77999997 1.7994891e-38
-0.036126312 -0.031012295 0.778 1.7812294e-38
-0.033364285 -0.030932572 0.77600002 1.790449e-38
-0.030616036 -0.030852847 0.77399999 1.7717953e-38
-0.027845435 -0.030733265 0.77100003 1.7349171e-38
-0.025193471 -0.030733265 0.77100003 1.6887488e-38
-0.02248306 -0.03065354 0.76899999 1.5873336e-38
-0.019838003 -0.03065354 0.76899999 1.4767704e-38
-0.017192923 -0.03065354 0.76899999 1.4214531e-38
-0.014510029 -0.030573819 0.76700002 1.467405e-38
-0.011871851 -0.030573819 0.76700002 1.4120876e-38
-0.0092577254 -0.03065354 0.76899999 1.3752094e-38
-0.0066298665 -0.030733265 0.77100003 1.3567702e-38
-0.0039882488 -0.030812988 0.773 1.4209849e-38
-0.0013311529 -0.030852847 0.77399999 1.3933262e-38
0.0013345419 -0.030932572 0.77600002 1.3841405e-38
0.0040140459 -0.031012295 0.778 1.3196036e-38
0.0067072571 -0.031092016 0.77999997 1.3933977e-38
0.0094021894 -0.03113188 0.78100002 1.3565194e-38
0.012181391 -0.03137105 0.787 1.3197495e-38
0.014888361 -0.03137105 0.787 1.4488234e-38
-0.047131356 -0.033925634 0.78299999 1.882214e-38
-0.04443812 -0.033925634 0.78299999 1.7900184e-38
-0.041584965 -0.033795647 0.77999997 1.7718306e-38
-0.038802326 -0.033708993 0.778 1.7810502e-38
-0.036033444 -0.033622339 0.77600002 1.7626461e-38
-0.033235297 -0.033492357 0.773 1.7718657e-38
-0.030576481 -0.033492357 0.773 1.7348092e-38
-0.027845435 -0.033405703 0.77100003 1.7163701e-38
-0.025128119 -0.033319045 0.76899999 1.6794579e-38
-0.022424588 -0.033232391 0.76700002 1.5688231e-38
-0.01978641 -0.033232391 0.76700002 1.4675851e-38
-0.017148206 -0.033232391 0.76700002 1.4214873e-38
-0.014510029 -0.033232391 0.76700002 1.4212346e-38
-0.011871851 -0.033232391 0.76700002 1.3382585e-38
-0.009233648 -0.033232391 0.76700002 1.3013813e-38
-0.0066126678 -0.033319045 0.76899999 1.2460639e-38
-0.0039779302 -0.033405703 0.77100003 1.2092923e-38
-0.0013294332 -0.033492357 0.773 1.0986575e-38
0.0013345419 -0.033622339 0.77600002 1.1907808e-38
0.0040140459 -0.033708993 0.778 1.2184395e-38
0.0067072571 -0.033795647 0.77999997 1.1816704e-38
0.0094021894 -0.03383898 0.78100002 1.2462074e-38
0.012119478 -0.033925634 0.78299999 1.1263165e-38
0.014888361 -0.034098946 0.787 1.2646099e-38
0.017662404 -0.034228928 0.79000002 1.6319317e-38
-0.047131356 -0.036639702 0.78299999 1.7349171e-38
-0.04443812 -0.036639702 0.78299999 1.7441366e-38
-0.041584965 -0.036499318 0.77999997 1.7533912e-38
-0.038702577 -0.036312144 0.77600002 1.7626108e-38
-0.035940573 -0.036218554 0.77399999 1.7165496e-38
-0.033235297 -0.036171764 0.773 1.6981104e-38
-0.03049737 -0.036078177 0.77100003 1.6518328e-38
-0.027845435 -0.036078177 0.77100003 1.4213438e-38
-0.02503009 -0.035844203 0.76599997 1.4121948e-38
-0.02239535 -0.035844203 0.76599997 1.4767318e-38
-0.019760612 -0.035844203 0.76599997 1.476552e-38
-0.017125849 -0.035844203 0.76599997 1.3659172e-38
-0.014491111 -0.035844203 0.76599997 1.0897237e-38
-0.011856372 -0.035844203 0.76599997 1.1450411e-38
-0.009233648 -0.035891 0.76700002 1.2091121e-38
-0.00659547 -0.035891 0.76700002 1.1630142e-38
-0.0039676107 -0.035984587 0.76899999 1.1446124e-38
-0.0013259934 -0.036078177 0.77100003 1.1077341e-38
0.0013311022 -0.036218554 0.77399999 1.1262086e-38
0.0040037273 -0.036312144 0.77600002 1.1446477e-38
0.0066900598 -0.036405731 0.778 1.052594e-38
0.0093901502 -0.036499318 0.77999997 1.0433745e-38
0.012088522 -0.036546115 0.78100002 1.1812415e-38
0.014888361 -0.036826879 0.787 1.107485e-38
0.017662404 -0.036967263 0.79000002 1.6596986e-38
-0.047131356 -0.039353732 0.78299999 1.7162959e-38
-0.044324614 -0.039253216 0.78100002 1.6978568e-38
-0.041584965 -0.039202951 0.77999997 1.7347711e-38
-0.038602825 -0.038901389 0.77399999 1.7624298e-38
-0.035894137 -0.038851131 0.773 1.7165144e-38
-0.033235297 -0.038851131 0.773 1.6704166e-38
-0.03049737 -0.038750611 0.77100003 1.6333954e-38
-0.0277732 -0.038650092 0.76899999 1.5043215e-38
-0.02503009 -0.038499311 0.76599997 1.5043201e-38
-0.02239535 -0.038499311 0.76599997 1.421344e-38
-0.019760612 -0.038499311 0.76599997 1.356769e-38
-0.017125849 -0.038499311 0.76599997 1.2645734e-38
-0.014491111 -0.038499311 0.76599997 1.1632327e-38
-0.011856372 -0.038499311 0.76599997 1.1263545e-38
-0.009233648 -0.038549572 0.76700002 1.135284e-38
-0.00659547 -0.038549572 0.76700002 1.1076253e-38
-0.0039676107 -0.038650092 0.76899999 1.0524868e-38
-0.0013259934 -0.038750611 0.77100003 1.0524868e-38
0.0013293825 -0.038851131 0.773 1.0524868e-38
0.0039934083 -0.038901389 0.77399999 1.0801455e-38
0.0066900598 -0.039102431 0.778 1.0247931e-38
0.0093901502 -0.039202951 0.77999997 1.006354e-38
0.012088522 -0.039253216 0.78100002 1.0615661e-38
0.014907279 -0.039605033 0.78799999 1.0984444e-38
0.017662404 -0.039705556 0.79000002 1.6320762e-38
-0.047131356 -0.042067803 0.78299999 1.5689261e-38
-0.044324614 -0.041960351 0.78100002 1.6703413e-38
-0.041584965 -0.041906621 0.77999997 1.6612309e-38
-0.038602825 -0.041584261 0.77399999 1.6704505e-38
-0.035894137 -0.041530538 0.773 1.6426117e-38
-0.033149306 -0.041423086 0.77100003 1.614953e-38
-0.03049737 -0.041423086 0.77100003 1.5688565e-38
-0.0277732 -0.041315634 0.76899999 1.4674413e-38
-0.02503009 -0.041154452 0.76599997 1.4305621e-38
-0.02239535 -0.041154452 0.76599997 1.3291469e-38
-0.019709019 -0.041047003 0.764 1.3106702e-38
-0.017081134 -0.041047003 0.764 1.2645724e-38
-0.014453275 -0.041047003 0.764 1.1724509e-38
-0.011825416 -0.041047003 0.764 1.1079139e-38
-0.009233648 -0.041208182 0.76700002 1.0616366e-38
-0.00659547 -0.041208182 0.76700002 1.0431975e-38
-0.0039676107 -0.041315634 0.76899999 1.0339406e-38
-0.0013259934 -0.041423086 0.77100003 1.0615993e-38
0.0013293825 -0.041530538 0.773 1.0523442e-38
0.0039934083 -0.041584261 0.77399999 1.0707833e-38
0.0066900598 -0.041799169 0.778 9.8791612e-39
0.0093901502 -0.041906621 0.77999997 9.3259874e-39
0.012088522 -0.041960351 0.78100002 1.0153943e-38
0.014907279 -0.042336434 0.78799999 1.2182247e-38
0.017662404 -0.04244389 0.79000002 1.5767598e-38
-0.047131356 -0.044781834 0.78299999 1.5226858e-38
-0.044324614 -0.044667449 0.78100002 1.6609792e-38
-0.041584965 -0.044610251 0.77999997 1.587366e-38
-0.038702577 -0.044381484 0.77600002 1.587366e-38
-0.035894137 -0.044209909 0.773 1.5872944e-38
-0.033149306 -0.044095524 0.77100003 1.5135378e-38
-0.03049737 -0.044095524 0.77100003 1.504247e-38
-0.0277732 -0.043981135 0.76899999 1.43971e-38
-0.02503009 -0.043809559 0.76599997 1.3845368e-38
-0.022336878 -0.043695174 0.764 1.3292195e-38
-0.019709019 -0.043695174 0.764 1.2831204e-38
-0.017081134 -0.043695174 0.764 1.2370226e-38
-0.014453275 -0.043695174 0.764 1.1908181e-38
-0.011825416 -0.043695174 0.764 1.1631594e-38
-0.009233648 -0.043866754 0.76700002 1.0617822e-38
-0.00659547 -0.043866754 0.76700002 1.0341235e-38
-0.0039676107 -0.043981135 0.76899999 1.0339426e-38
-0.0013259934 -0.044095524 0.77100003 1.0339426e-38
0.0013293825 -0.044209909 0.773 1.0156104e-38
0.0040037273 -0.044381484 0.77600002 1.0156104e-38
0.0066900598 -0.044495869 0.778 9.9713568e-39
0.0093901502 -0.044610251 0.77999997 9.6025743e-39
0.012073043 -0.044610251 0.77999997 6.383688e-39
0.014945115 -0.045182183 0.79000002 1.4589099e-38
-0.041584965 -0.047313921 0.77999997 1.5688582e-38
-0.038702577 -0.047071289 0.77600002 1.550419e-38
-0.035940573 -0.046949971 0.77399999 1.4951e-38
-0.033235297 -0.046889313 0.773 1.4490022e-38
-0.03049737 -0.046767998 0.77100003 1.4581501e-38
-0.0277732 -0.046646677 0.76899999 1.4028327e-38
-0.025062766 -0.046525363 0.76700002 1.347587e-38
-0.022336878 -0.046343386 0.764 1.3291478e-38
-0.019709019 -0.046343386 0.764 1.2738305e-38
-0.017081134 -0.046343386 0.764 1.2185131e-38
-0.014453275 -0.046343386 0.764 1.1724156e-38
-0.011856372 -0.0464647 0.76599997 1.1355373e-38
-0.009233648 -0.046525363 0.76700002 1.0893666e-38
-0.00659547 -0.046525363 0.76700002 1.0432688e-38
-0.0039676107 -0.046646677 0.76899999 1.0063906e-38
-0.0013259934 -0.046767998 0.77100003 9.8795143e-39
0.0013293825 -0.046889313 0.773 1.0247208e-38
0.0040037273 -0.047071289 0.77600002 9.8784255e-39
0.0066900598 -0.047192607 0.778 9.8773619e-39
0.0093660736 -0.047192607 0.778 8.4944275e-39
0.012073043 -0.047313921 0.77999997 1.4111667e-38
-0.038702577 -0.049761094 0.77600002 1.5132203e-38
-0.035940573 -0.049632844 0.77399999 1.5041417e-38
-0.033235297 -0.04956872 0.773 1.4396048e-38
-0.03049737 -0.049440473 0.77100003 1.4211294e-38
-0.027845435 -0.049440473 0.77100003 1.3842511e-38
-0.025062766 -0.049183972 0.76700002 1.3289697e-38
-0.02239535 -0.049119845 0.76599997 1.2828719e-38
-0.019760612 -0.049119845 0.76599997 1.2091883e-38
-0.017125849 -0.049119845 0.76599997 1.1630905e-38
-0.014491111 -0.049119845 0.76599997 1.1721305e-38
-0.011933764 -0.049440473 0.77100003 1.1075936e-38
-0.0092818029 -0.049440473 0.77100003 1.015396e-38
-0.0066298665 -0.049440473 0.77100003 1.015396e-38
-0.0039882488 -0.04956872 0.773 1.0521689e-38
-0.0013294332 -0.04956872 0.773 1.0152906e-38
0.0013311022 -0.049632844 0.77399999 1.0059992e-38
0.0040037273 -0.049761094 0.77600002 9.506818e-39
0.0066900598 -0.049889345 0.778 7.9405488e-39
0.0093660736 -0.049889345 0.778 9.8766571e-39
0.012073043 -0.050017592 0.77999997 1.7334188e-38
-0.038702577 -0.052450862 0.77600002 1.0891197e-38
-0.035894137 -0.052248091 0.773 1.0343006e-38
-0.033235297 -0.052248091 0.773 1.0711789e-38
-0.030576481 -0.052248091 0.773 1.06182e-38
-0.027845435 -0.052112907 0.77100003 9.972831e-39
-0.025062766 -0.051842544 0.76700002 9.3288881e-39
-0.02239535 -0.051774949 0.76599997 8.7757143e-39
-0.019760612 -0.051774949 0.76599997 8.1285554e-39
-0.017148206 -0.051842544 0.76700002 8.2207511e-39
-0.014547865 -0.051977724 0.76899999 6.4708334e-39
-0.011933764 -0.052112907 0.77100003 6.2864421e-39
-0.0092818029 -0.052112907 0.77100003 5.9158729e-39
-0.0066298665 -0.052112907 0.77100003 5.2705035e-39
-0.0039779302 -0.052112907 0.77100003 2.6944405e-39
-0.0013294332 -0.052248091 0.773 1.6803026e-39
0.0013345419 -0.052450862 0.77600002 1.6799439e-39
0.0040140459 -0.052586045 0.778 2.8784786e-39
0.0067072571 -0.052721225 0.77999997 4.0737652e-39
0.0093901502 -0.052721225 0.77999997 9.513292e-39
-0.035894137 -0.054927498 0.773 1.7980945e-38
-0.033149306 -0.054785382 0.77100003 1.6137032e-38
-0.03049737 -0.054785382 0.77100003 1.4849899e-38
-0.027917666 -0.054927498 0.773 1.3743551e-38
-0.025128119 -0.054643266 0.76899999 1.3283274e-38
-0.022424588 -0.054501154 0.76700002 1.2914491e-38
-0.01978641 -0.054501154 0.76700002 1.2730103e-38
-0.017192923 -0.054643266 0.76899999 1.2637907e-38
-0.014547865 -0.054643266 0.76899999 1.2453516e-38
-0.011933764 -0.054785382 0.77100003 1.2822299e-38
-0.0092818029 -0.054785382 0.77100003 1.2822321e-38
-0.0066298665 -0.054785382 0.77100003 1.3559886e-38
-0.0039779302 -0.054785382 0.77100003 1.4756298e-38
-0.0013294332 -0.054927498 0.773 1.5862645e-38
0.0013345419 -0.055140667 0.77600002 1.6783898e-38
0.0040140459 -0.055282783 0.778 1.7429268e-38
0.0067072571 -0.055424895 0.77999997 1.8257586e-38
