# .PCD v0.7 - Point Cloud Data file format
VERSION 0.7
FIELDS x y z rgb
SIZE 4 4 4 4
TYPE F F F F
COUNT 1 1 1 1
WIDTH 773
HEIGHT 1
VIEWPOINT 0 0 0 1 0 0 0
POINTS 773
DATA ascii
0.01046158 0.0067088883 0.55299997 1.8726008e-38
0.012363683 0.0067088883 0.55299997 1.7708298e-38
0.0047466746 0.0047833896 0.55199999 1.8270752e-38
0.0066453372 0.0047833896 0.55199999 1.7440991e-38
0.0085594775 0.0047920551 0.55299997 1.6152032e-38
0.010442663 0.0047833896 0.55199999 1.5691054e-38
0.012341325 0.0047833896 0.55199999 1.7253007e-38
0.014239988 0.0047833896 0.55199999 1.6884224e-38
0.0028428526 0.0028648234 0.551 1.7439922e-38
0.0047294768 0.0028596243 0.55000001 1.7440272e-38
0.0066212602 0.0028596243 0.55000001 1.7348076e-38
0.0085130436 0.0028596243 0.55000001 1.7532833e-38
0.010385909 0.002854425 0.54900002 1.697966e-38
0.012274253 0.002854425 0.54900002 1.6425394e-38
0.014162596 0.002854425 0.54900002 1.651759e-38
0.01602174 0.0028492257 0.54799998 1.7344866e-38
0.017906643 0.0028492257 0.54799998 1.6515105e-38
0.019791547 0.0028492257 0.54799998 1.7149779e-38
-0.0028531714 0.00095841649 0.55299997 1.7805494e-38
-0.00095106917 0.00095841649 0.55299997 1.7436711e-38
0.00095103303 0.00095841649 0.55299997 1.6703426e-38
0.0028376933 0.00095321715 0.55000001 1.6334643e-38
0.004712278 0.00094975089 0.54799998 1.6518681e-38
0.006585144 0.00094801781 0.54699999 1.6610877e-38
0.0084666088 0.00094801781 0.54699999 1.6701275e-38
0.010348073 0.00094801781 0.54699999 1.6701275e-38
0.012229538 0.00094801781 0.54699999 1.6516898e-38
0.014111003 0.00094801781 0.54699999 1.6240311e-38
0.015992504 0.00094801781 0.54699999 1.596369e-38
0.017873967 0.00094801781 0.54699999 1.6240277e-38
0.019755432 0.00094801781 0.54699999 1.6234253e-38
0.021676451 0.00094975089 0.54799998 1.6695231e-38
-0.00094762951 -0.00095495023 0.551 1.6333225e-38
0.00094587373 -0.00095321715 0.55000001 1.6056631e-38
0.002827374 -0.00094975089 0.54799998 1.5964436e-38
0.0047036796 -0.00094801781 0.54699999 1.550453e-38
0.0065731052 -0.00094628468 0.546 1.5135747e-38
0.0084511302 -0.00094628468 0.546 1.5227943e-38
0.010348073 -0.00094801781 0.54699999 1.4490378e-38
0.012229538 -0.00094801781 0.54699999 1.4581482e-38
0.014111003 -0.00094801781 0.54699999 1.4858069e-38
0.015992504 -0.00094801781 0.54699999 1.4490362e-38
0.017873967 -0.00094801781 0.54699999 1.4582558e-38
0.019755432 -0.00094801781 0.54699999 1.439675e-38
0.021676451 -0.00094975089 0.54799998 1.5687489e-38
0.023647347 -0.00095321715 0.55000001 1.7424961e-38
-0.0028376933 -0.0028596243 0.55000001 1.5780051e-38
-0.00094418984 -0.002854425 0.54900002 1.5687856e-38
0.00093899464 -0.0028388272 0.546 1.5319788e-38
0.0028118959 -0.0028336279 0.54500002 1.5043201e-38
0.0046692831 -0.0028232289 0.54299998 1.458257e-38
0.006536989 -0.0028232289 0.54299998 1.4213788e-38
0.0084046954 -0.0028232289 0.54299998 1.4119046e-38
0.010272401 -0.0028232289 0.54299998 1.3842459e-38
0.012140107 -0.0028232289 0.54299998 1.3382612e-38
0.014007813 -0.0028232289 0.54299998 1.3659199e-38
0.015875556 -0.0028232289 0.54299998 1.4211996e-38
0.017743262 -0.0028232289 0.54299998 1.3935409e-38
0.019719316 -0.0028388272 0.546 1.4119095e-38
0.021676451 -0.0028492257 0.54799998 1.3934704e-38
0.023604352 -0.002854425 0.54900002 1.7241286e-38
0.025492696 -0.002854425 0.54900002 1.7056895e-38
-0.0047294768 -0.0047660586 0.55000001 1.6421468e-38
-0.0028325336 -0.0047573932 0.54900002 1.5595667e-38
-0.00094246998 -0.0047487277 0.54799998 1.5411276e-38
0.00093727489 -0.0047227312 0.54500002 1.5043209e-38
0.0028015769 -0.0047053997 0.54299998 1.4674427e-38
0.0046606841 -0.0046967342 0.542 1.4305986e-38
0.006512912 -0.0046880688 0.54100001 1.3568421e-38
0.0083737392 -0.0046880688 0.54100001 1.2095048e-38
0.010253484 -0.0046967342 0.542 1.2648222e-38
0.012117751 -0.0046967342 0.542 1.5034653e-38
0.013982018 -0.0046967342 0.542 1.3282936e-38
0.015846319 -0.0046967342 0.542 1.200038e-38
0.017710585 -0.0046967342 0.542 1.2737945e-38
0.019719316 -0.0047313967 0.546 1.3472296e-38
0.021636898 -0.0047400622 0.54699999 1.3011318e-38
0.023561355 -0.0047487277 0.54799998 1.6599138e-38
0.02544626 -0.0047487277 0.54799998 1.6691334e-38
0.027331199 -0.0047487277 0.54799998 1.6872857e-38
-0.0066212602 -0.0066724657 0.55000001 1.55031e-38
-0.0047294768 -0.0066724657 0.55000001 1.5687491e-38
-0.0028222147 -0.0066360706 0.54699999 1.5319799e-38
-0.00093731057 -0.0066118073 0.54500002 1.5135408e-38
0.00093383528 -0.0065875435 0.54299998 1.458295e-38
0.002791258 -0.0065632802 0.54100001 1.458295e-38
0.0046520848 -0.0065632802 0.54100001 1.3661706e-38
0.006512912 -0.0065632802 0.54100001 1.2924141e-38
0.0083737392 -0.0065632802 0.54100001 1.1448275e-38
0.010234565 -0.0065632802 0.54100001 1.5412687e-38
0.012095393 -0.0065632802 0.54100001 1.0050306e-38
0.01395622 -0.0065632802 0.54100001 1.4291305e-38
0.015817082 -0.0065632802 0.54100001 1.2271232e-38
0.017677909 -0.0065632802 0.54100001 1.1994645e-38
0.019719316 -0.0066239391 0.546 1.2733266e-38
0.021636898 -0.0066360706 0.54699999 1.264107e-38
0.023561355 -0.006648202 0.54799998 1.217798e-38
0.02544626 -0.006648202 0.54799998 1.6511175e-38
0.027331199 -0.006648202 0.54799998 1.7056885e-38
-0.0066212602 -0.0085789002 0.55000001 1.5319446e-38
-0.004712278 -0.0085477037 0.54799998 1.5411642e-38
-0.0028118959 -0.0085009104 0.54500002 1.5136127e-38
-0.00093387079 -0.0084697139 0.54299998 1.485954e-38
0.00093039579 -0.0084385183 0.54100001 1.4675509e-38
0.002791258 -0.0084385183 0.54100001 1.3845748e-38
0.0046520848 -0.0084385183 0.54100001 1.338441e-38
0.006512912 -0.0084385183 0.54100001 1.2831236e-38
0.0083737392 -0.0084385183 0.54100001 1.2276274e-38
0.010234565 -0.0084385183 0.54100001 1.1907492e-38
0.012095393 -0.0084385183 0.54100001 3.8276748e-40
0.01395622 -0.0084385183 0.54100001 2.9057325e-40
0.015817082 -0.0084385183 0.54100001 1.1534769e-38
0.017645234 -0.0084229205 0.54000002 1.1811356e-38
0.019502621 -0.0084229205 0.54000002 1.3103141e-38
0.021636898 -0.0085321059 0.54699999 1.4117293e-38
0.023561355 -0.0085477037 0.54799998 1.2452036e-38
0.02544626 -0.0085477037 0.54799998 1.6508644e-38
0.026732709 -0.0083605284 0.53600001 1.7056154e-38
0.028576339 -0.0083605284 0.53600001 1.7148349e-38
-0.0066212602 -0.010485307 0.55000001 1.5596389e-38
-0.0047036796 -0.010428115 0.54699999 1.5411998e-38
-0.0028118959 -0.010389987 0.54500002 1.5320152e-38
-0.00093215104 -0.010332794 0.542 1.5135761e-38
0.00093039579 -0.01031373 0.54100001 1.4490741e-38
0.0027860987 -0.010294666 0.54000002 1.4214154e-38
0.0046434863 -0.010294666 0.54000002 1.3384407e-38
0.0065008737 -0.010294666 0.54000002 1.2739038e-38
0.0083582606 -0.010294666 0.54000002 1.2092599e-38
0.010215648 -0.010294666 0.54000002 1.144723e-38
0.012073036 -0.010294666 0.54000002 2.7873508e-39
0.01395622 -0.01031373 0.54100001 8.8722484e-39
0.015787845 -0.010294666 0.54000002 1.2363438e-38
0.017645234 -0.010294666 0.54000002 1.3561981e-38
0.019466504 -0.0102756 0.53899997 1.6955543e-38
0.021280896 -0.010256537 0.53799999 1.5019435e-38
0.023131404 -0.010256537 0.53799999 1.9419277e-38
0.024889044 -0.010218409 0.53600001 2.1631972e-38
0.026732709 -0.010218409 0.53600001 2.0438898e-38
0.028576339 -0.010218409 0.53600001 1.9885724e-38
0.030419966 -0.010218409 0.53600001 1.6018562e-38
0.032323789 -0.010237473 0.537 1.9798583e-38
-0.0066212602 -0.012391741 0.55000001 1.5780412e-38
-0.0046864813 -0.01227909 0.54500002 1.5319433e-38
-0.0028015769 -0.012234028 0.54299998 1.5319785e-38
-0.00093043112 -0.012188968 0.54100001 1.4858807e-38
0.00092867605 -0.012166438 0.54000002 1.4490024e-38
0.0027860987 -0.012166438 0.54000002 1.3752459e-38
0.0046434863 -0.012166438 0.54000002 1.3292188e-38
0.0065008737 -0.012166438 0.54000002 1.218584e-38
0.0083582606 -0.012166438 0.54000002 1.200038e-38
0.010215648 -0.012166438 0.54000002 1.2184771e-38
0.012073036 -0.012166438 0.54000002 1.2367744e-38
0.013930423 -0.012166438 0.54000002 1.1169201e-38
0.015758609 -0.012143906 0.53899997 1.4386369e-38
0.01757988 -0.012121377 0.53799999 1.4939543e-38
0.019430388 -0.012121377 0.53799999 1.9598986e-38
0.021241341 -0.012098846 0.537 1.9598986e-38
0.023045415 -0.012076315 0.53600001 2.0609613e-38
0.024889044 -0.012076315 0.53600001 2.1162786e-38
0.026732709 -0.012076315 0.53600001 1.6546532e-38
0.028576339 -0.012076315 0.53600001 1.322754e-38
0.030419966 -0.012076315 0.53600001 7.8085283e-39
0.032323789 -0.012098846 0.537 8.9148675e-39
-0.0046864813 -0.014168167 0.54500002 1.5226871e-38
-0.002791258 -0.01406418 0.54100001 1.485916e-38
-0.00093043112 -0.01406418 0.54100001 1.4398182e-38
0.00092867605 -0.014038184 0.54000002 1.3752813e-38
0.0027860987 -0.014038184 0.54000002 1.3107443e-38
0.0046434863 -0.014038184 0.54000002 1.2369866e-38
0.0065008737 -0.014038184 0.54000002 1.2185474e-38
0.0083582606 -0.014038184 0.54000002 1.1630871e-38
0.010215648 -0.014038184 0.54000002 1.1077697e-38
0.012050678 -0.014012185 0.53899997 1.0063241e-38
0.013878828 -0.013986189 0.53799999 1.3290088e-38
0.015729371 -0.013986189 0.53799999 1.970639e-38
0.017547203 -0.013960193 0.537 1.7678086e-38
0.019394273 -0.013960193 0.537 2.0980919e-38
0.021241341 -0.013960193 0.537 2.1626288e-38
0.023045415 -0.013934196 0.53600001 2.0246616e-38
0.024889044 -0.013934196 0.53600001 1.2041212e-38
0.026732709 -0.013934196 0.53600001 9.5541202e-39
0.028576339 -0.013934196 0.53600001 1.0937045e-38
0.030419966 -0.013934196 0.53600001 1.1149557e-38
0.032383978 -0.013986189 0.53799999 1.4284209e-38
-0.0046864813 -0.01605727 0.54500002 1.4489662e-38
-0.002791258 -0.015939418 0.54100001 1.4305267e-38
-0.00093043112 -0.015939418 0.54100001 1.3659898e-38
0.00092867605 -0.015909955 0.54000002 1.3199273e-38
0.0027860987 -0.015909955 0.54000002 1.2553904e-38
0.0046434863 -0.015909955 0.54000002 1.2185121e-38
0.0065008737 -0.015909955 0.54000002 1.1447556e-38
0.008342782 -0.015880492 0.53899997 1.116989e-38
0.01019673 -0.015880492 0.53899997 1.1077695e-38
0.012005963 -0.015821565 0.537 1.870594e-38
0.013853032 -0.015821565 0.537 2.0918635e-38
0.015700135 -0.015821565 0.537 2.2286098e-38
0.017514529 -0.015792103 0.53600001 1.9889012e-38
0.019358158 -0.015792103 0.53600001 1.6192842e-38
0.021241341 -0.015821565 0.537 1.112214e-38
0.02308841 -0.015821565 0.537 9.5541202e-39
0.024889044 -0.015792103 0.53600001 8.6325366e-39
0.026732709 -0.015792103 0.53600001 6.1551306e-39
0.028576339 -0.015792103 0.53600001 1.5466882e-38
0.030703733 -0.015939418 0.54100001 1.8527008e-38
-0.0046864813 -0.017946374 0.54500002 1.4027965e-38
-0.0027964176 -0.017847585 0.542 1.3475144e-38
-0.00093215104 -0.017847585 0.542 1.356734e-38
0.00092867605 -0.017781727 0.54000002 1.2554646e-38
0.0027860987 -0.017781727 0.54000002 1.2185864e-38
0.0046434863 -0.017781727 0.54000002 1.1725222e-38
0.0064888345 -0.017748795 0.53899997 1.0895461e-38
0.008342782 -0.017748795 0.53899997 1.126101e-38
0.010177812 -0.017715868 0.53799999 1.1445401e-38
0.012005963 -0.01768294 0.537 1.223708e-38
0.013853032 -0.01768294 0.537 9.2868645e-39
0.015700135 -0.01768294 0.537 9.9218209e-39
0.017514529 -0.01765001 0.53600001 9.2764613e-39
0.019358158 -0.01765001 0.53600001 6.8901733e-39
0.021201788 -0.01765001 0.53600001 6.9823676e-39
0.02308841 -0.01768294 0.537 7.717769e-39
0.024935478 -0.01768294 0.537 7.8099632e-39
0.026782582 -0.01768294 0.537 6.7075785e-39
0.028682962 -0.017715868 0.53799999 1.1040769e-38
0.030590225 -0.017748795 0.53899997 1.566855e-38
0.032444172 -0.017748795 0.53899997 1.778905e-38
-0.0046864813 -0.01983545 0.54500002 1.3566277e-38
-0.0028118959 -0.01983545 0.54500002 1.2738661e-38
0.002791258 -0.019689867 0.54100001 1.1631597e-38
0.0046434863 -0.019653473 0.54000002 1.1447559e-38
0.0064888345 -0.019617075 0.53899997 1.1078776e-38
0.008342782 -0.019617075 0.53899997 1.1168811e-38
0.010177812 -0.019580681 0.53799999 1.0523442e-38
0.01202832 -0.019580681 0.53799999 1.0405392e-38
0.013853032 -0.019544285 0.537 9.6678384e-39
0.015700135 -0.019544285 0.537 1.2322817e-38
0.017514529 -0.019507891 0.53600001 1.1769652e-38
0.019358158 -0.019507891 0.53600001 1.1210746e-38
0.021201788 -0.019507891 0.53600001 1.084197e-38
0.02308841 -0.019544285 0.537 8.6364827e-39
0.024935478 -0.019544285 0.537 8.5442885e-39
0.026782582 -0.019544285 0.537 8.8244585e-39
0.028629651 -0.019544285 0.537 1.186691e-38
0.030476719 -0.019544285 0.537 1.3066828e-38
0.032323789 -0.019544285 0.537 1.9336118e-38
0.002791258 -0.021565106 0.54100001 1.1447203e-38
0.0046434863 -0.021525245 0.54000002 1.116989e-38
0.0065008737 -0.021525245 0.54000002 1.1077695e-38
0.008342782 -0.021485381 0.53899997 1.089258e-38
0.010177812 -0.02144552 0.53799999 1.0800385e-38
0.01202832 -0.02144552 0.53799999 9.7765343e-39
0.013853032 -0.02140566 0.537 7.2872901e-39
0.015700135 -0.02140566 0.537 1.2144168e-38
0.017547203 -0.02140566 0.537 1.2236362e-38
0.019394273 -0.02140566 0.537 1.325016e-38
0.021241341 -0.02140566 0.537 1.325016e-38
0.02308841 -0.02140566 0.537 1.3708269e-38
0.024889044 -0.021365797 0.53600001 1.2694118e-38
0.026732709 -0.021365797 0.53600001 1.2780562e-38
0.028576339 -0.021365797 0.53600001 1.3979105e-38
0.030419966 -0.021365797 0.53600001 1.0952872e-38
0.032263596 -0.021365797 0.53600001 1.8881697e-38
0.002791258 -0.023440316 0.54100001 1.0987294e-38
0.0046520848 -0.023440316 0.54100001 1.1262089e-38
0.0065008737 -0.023396989 0.54000002 1.0708915e-38
0.008342782 -0.02335366 0.53899997 1.015682e-38
0.01019673 -0.02335366 0.53899997 9.8802332e-39
0.012050678 -0.02335366 0.53899997 1.0153946e-38
0.013904626 -0.02335366 0.53899997 9.0475984e-39
0.015758609 -0.02335366 0.53899997 9.3098234e-39
0.01757988 -0.023310333 0.53799999 8.8488523e-39
0.019394273 -0.023267005 0.537 9.5767203e-39
0.021241341 -0.023267005 0.537 9.5767203e-39
0.023045415 -0.023223678 0.53600001 1.1239814e-38
0.024889044 -0.023223678 0.53600001 1.4835443e-38
0.026732709 -0.023223678 0.53600001 1.539666e-38
0.028576339 -0.023223678 0.53600001 1.6503008e-38
0.030419966 -0.023223678 0.53600001 1.6872151e-38
0.032263596 -0.023223678 0.53600001 1.6503368e-38
0.002791258 -0.025315555 0.54100001 1.0895805e-38
0.0046520848 -0.025315555 0.54100001 1.0341538e-38
0.006512912 -0.025315555 0.54100001 1.0157149e-38
0.0083582606 -0.025268761 0.54000002 9.9716973e-39
0.010215648 -0.025268761 0.54000002 9.6029148e-39
0.012073036 -0.025268761 0.54000002 9.4188781e-39
0.013930423 -0.025268761 0.54000002 9.3266838e-39
0.015787845 -0.025268761 0.54000002 9.3252489e-39
0.017645234 -0.025268761 0.54000002 9.2330547e-39
0.019466504 -0.025221966 0.53899997 9.0468726e-39
0.021280896 -0.025175173 0.53799999 8.6780957e-39
0.023045415 -0.025081586 0.53600001 8.0353355e-39
0.024889044 -0.025081586 0.53600001 1.3474878e-38
0.026732709 -0.025081586 0.53600001 1.6779945e-38
0.028576339 -0.025081586 0.53600001 1.6411163e-38
0.030419966 -0.025081586 0.53600001 1.6318598e-38
0.032263596 -0.025081586 0.53600001 1.6410794e-38
0.0046692831 -0.027291285 0.54299998 9.7901703e-39
0.0065249507 -0.027241027 0.542 9.329195e-39
0.0083737392 -0.027190767 0.54100001 9.511438e-39
0.010234565 -0.027190767 0.54100001 9.0504599e-39
0.012095393 -0.027190767 0.54100001 8.9582657e-39
0.014059409 -0.027391808 0.54500002 8.681683e-39
0.015875556 -0.027291285 0.54299998 8.5884126e-39
0.017710585 -0.027241027 0.542 8.772801e-39
0.019538736 -0.027190767 0.54100001 7.9437704e-39
0.021399563 -0.027190767 0.54100001 9.234498e-39
0.0046692831 -0.029173456 0.54299998 9.0537067e-39
0.006536989 -0.029173456 0.54299998 8.4083373e-39
0.0083892178 -0.02911973 0.542 9.3266909e-39
0.010253484 -0.02911973 0.542 8.7735185e-39
0.012117751 -0.02911973 0.542 8.2214293e-39
0.014059409 -0.029280912 0.54500002 8.3136235e-39
0.015904794 -0.029227186 0.54400003 7.9434117e-39
0.017743262 -0.029173456 0.54299998 7.666829e-39
0.019610967 -0.029173456 0.54299998 6.6530512e-39
0.021478673 -0.029173456 0.54299998 1.2092572e-38
0.0028222147 -0.031284373 0.54699999 1.0526331e-38
0.0046950802 -0.031227179 0.546 9.8809703e-39
0.0065490287 -0.031112796 0.54400003 9.0512096e-39
0.0084201749 -0.031112796 0.54400003 8.9579209e-39
0.01029132 -0.031112796 0.54400003 8.4969428e-39
0.012162467 -0.031112796 0.54400003 8.1288791e-39
0.014059409 -0.031169988 0.54500002 7.7600994e-39
0.015963266 -0.031227179 0.546 7.8501413e-39
0.017841291 -0.031227179 0.546 6.8360047e-39
0.019719316 -0.031227179 0.546 4.2595886e-39
0.021636898 -0.031284373 0.54699999 1.2280593e-38
0.00093899464 -0.033119749 0.546 1.1540154e-38
0.0028170552 -0.033119749 0.546 1.0526002e-38
0.0046950802 -0.033119749 0.546 1.0065727e-38
0.0065731052 -0.033119749 0.546 9.6969447e-39
0.0084511302 -0.033119749 0.546 9.2348764e-39
0.010310238 -0.03305909 0.54500002 8.8660939e-39
0.012184823 -0.03305909 0.54500002 8.0356059e-39
0.014059409 -0.03305909 0.54500002 7.7590232e-39
0.01593403 -0.03305909 0.54500002 7.2037055e-39
0.017873967 -0.033180408 0.54699999 6.9271228e-39
0.019755432 -0.033180408 0.54699999 6.6526925e-39
0.021636898 -0.033180408 0.54699999 1.0893683e-38
0.023561355 -0.033241063 0.54799998 1.6044839e-38
0.02544626 -0.033241063 0.54799998 1.6321426e-38
0.00093899464 -0.03501232 0.546 1.1356077e-38
0.0028170552 -0.03501232 0.546 1.0987294e-38
0.0047036796 -0.035076443 0.54699999 1.0618514e-38
0.0065731052 -0.03501232 0.546 1.006534e-38
0.0084046954 -0.034819942 0.54299998 9.9728156e-39
0.010234565 -0.034691691 0.54100001 9.2352505e-39
0.012073036 -0.034627568 0.54000002 9.1430283e-39
0.013930423 -0.034627568 0.54000002 8.3132676e-39
0.015817082 -0.034691691 0.54100001 8.2185594e-39
0.017873967 -0.035076443 0.54699999 8.2185594e-39
0.019719316 -0.03501232 0.546 8.7735325e-39
0.021597341 -0.03501232 0.546 1.0156467e-38
0.023475366 -0.03501232 0.546 1.2549963e-38
0.025353391 -0.03501232 0.546 1.4670463e-38
0.027231451 -0.03501232 0.546 1.5676057e-38
0.0027809392 -0.036431719 0.53899997 1.1726644e-38
0.004634887 -0.036431719 0.53899997 1.1448978e-38
0.0064888345 -0.036431719 0.53899997 1.0527022e-38
0.008342782 -0.036431719 0.53899997 1.0340505e-38
0.01019673 -0.036431719 0.53899997 1.0248309e-38
0.012050678 -0.036431719 0.53899997 9.4207138e-39
0.013904626 -0.036431719 0.53899997 9.0519313e-39
0.015787845 -0.036499314 0.54000002 9.4196152e-39
0.017645234 -0.036499314 0.54000002 9.4196152e-39
0.019719316 -0.03690486 0.546 1.0707872e-38
0.021597341 -0.03690486 0.546 1.1445437e-38
0.023389379 -0.036769681 0.54400003 1.2827269e-38
0.025260523 -0.036769681 0.54400003 1.3380443e-38
0.027131705 -0.036769681 0.54400003 1.3565221e-38
0.0027499825 -0.037873682 0.53299999 1.3660264e-38
0.004634887 -0.038300022 0.53899997 1.2556052e-38
0.0064888345 -0.038300022 0.53899997 1.1726291e-38
0.008342782 -0.038300022 0.53899997 1.144683e-38
0.01019673 -0.038300022 0.53899997 1.0709265e-38
0.01202832 -0.038228966 0.53799999 1.0523442e-38
0.013878828 -0.038228966 0.53799999 9.8780724e-39
0.015729371 -0.038228966 0.53799999 9.6025771e-39
0.01757988 -0.038228966 0.53799999 1.0155751e-38
0.019719316 -0.038797431 0.546 1.1075563e-38
0.021557786 -0.038726375 0.54500002 1.1813128e-38
0.023389379 -0.038655318 0.54400003 1.2827633e-38
0.025121216 -0.038442142 0.54100001 1.3841785e-38
0.026982078 -0.038442142 0.54100001 1.3565934e-38
0.02889622 -0.038513198 0.542 1.3197151e-38
0.0009166376 -0.039721161 0.53299999 1.6055932e-38
0.0027499825 -0.039721161 0.53299999 1.4949585e-38
0.0045832926 -0.039721161 0.53299999 1.4581504e-38
0.0064406805 -0.039870214 0.53500003 1.3567352e-38
0.0083273035 -0.04009378 0.53799999 1.2463143e-38
0.010177812 -0.04009378 0.53799999 1.1725578e-38
0.012005963 -0.040019259 0.537 1.1263528e-38
0.013827235 -0.039944734 0.53600001 1.0433767e-38
0.015670899 -0.039944734 0.53600001 1.0431975e-38
0.017514529 -0.039944734 0.53600001 1.0247584e-38
0.019358158 -0.039944734 0.53600001 1.135215e-38
0.021201788 -0.039944734 0.53600001 1.1628737e-38
0.023217395 -0.040242832 0.54000002 1.2367004e-38
0.025074784 -0.040242832 0.54000002 1.3104569e-38
0.026932206 -0.040242832 0.54000002 1.3474091e-38
0.028789593 -0.040242832 0.54000002 1.3381896e-38
-0.019610984 -0.042348571 0.54299998 1.6794912e-38
-0.017710585 -0.042270582 0.542 1.6794563e-38
-0.015846319 -0.042270582 0.542 1.6610172e-38
-0.013982053 -0.042270582 0.542 1.6978241e-38
-0.0046090903 -0.041802641 0.53600001 1.550453e-38
-0.0027654611 -0.041802641 0.53600001 1.624028e-38
-0.00091839232 -0.041646659 0.53399998 1.5963693e-38
0.0009166376 -0.04156867 0.53299999 1.5227224e-38
0.0027499825 -0.04156867 0.53299999 1.5227224e-38
0.0045832926 -0.04156867 0.53299999 1.4491106e-38
0.0064286413 -0.041646659 0.53399998 1.3661346e-38
0.008265391 -0.041646659 0.53399998 1.3568781e-38
0.010139978 -0.041802641 0.53600001 1.2462434e-38
0.011983606 -0.041802641 0.53600001 1.2001456e-38
0.013801438 -0.041724652 0.53500003 1.1263891e-38
0.015641661 -0.041724652 0.53500003 1.0708925e-38
0.017481852 -0.041724652 0.53500003 1.1077707e-38
0.019358158 -0.041802641 0.53600001 1.1352873e-38
0.021201788 -0.041802641 0.53600001 1.1445069e-38
0.023131404 -0.041958619 0.53799999 1.2274448e-38
0.025028348 -0.042036608 0.53899997 1.3104209e-38
0.02688233 -0.042036608 0.53899997 1.3014545e-38
0.028789593 -0.042114604 0.54000002 1.2737959e-38
0.030703733 -0.042192593 0.54100001 1.3473005e-38
-0.019610984 -0.044230714 0.54299998 1.6149899e-38
-0.017710585 -0.044149257 0.542 1.6425051e-38
-0.015817082 -0.044067804 0.54100001 1.624066e-38
-0.013956255 -0.044067804 0.54100001 1.4766952e-38
-0.0082808873 -0.043579068 0.53500003 1.5965855e-38
-0.0064406805 -0.043579068 0.53500003 1.5963374e-38
-0.0046004909 -0.043579068 0.53500003 1.32897e-38
-0.002755142 -0.043497607 0.53399998 1.4489659e-38
-0.00091667246 -0.04341615 0.53299999 1.4858441e-38
0.0009166376 -0.04341615 0.53299999 1.4582573e-38
0.0027499825 -0.04341615 0.53299999 1.4490378e-38
0.0045832926 -0.04341615 0.53299999 1.4490024e-38
0.0064166025 -0.04341615 0.53299999 1.3844655e-38
0.0082499124 -0.04341615 0.53299999 1.3384383e-38
0.010102141 -0.043497607 0.53399998 1.3107796e-38
0.01193889 -0.043497607 0.53399998 1.2278764e-38
0.01377564 -0.043497607 0.53399998 1.1633395e-38
0.015612424 -0.043497607 0.53399998 1.1907105e-38
0.017481852 -0.043579068 0.53500003 1.1538322e-38
0.019322041 -0.043579068 0.53500003 1.1537246e-38
0.021201788 -0.043660522 0.53600001 1.1721637e-38
0.02308841 -0.043741979 0.537 1.1814183e-38
0.024981912 -0.043823432 0.53799999 1.2275162e-38
0.026832454 -0.043823432 0.53799999 1.2460629e-38
0.028736278 -0.043904889 0.53899997 1.264502e-38
0.03053347 -0.043823432 0.53799999 1.2551751e-38
0.032383978 -0.043823432 0.53799999 1.2459556e-38
-0.025539167 -0.046707343 0.55000001 1.6332845e-38
-0.023561373 -0.046537496 0.54799998 1.6517237e-38
-0.021636914 -0.046452574 0.54699999 1.5872959e-38
-0.019647103 -0.046197813 0.54400003 1.4951003e-38
-0.017710585 -0.046027962 0.542 1.6056271e-38
-0.015817082 -0.04594304 0.54100001 1.4857728e-38
-0.013956255 -0.04594304 0.54100001 1.4859537e-38
-0.01209541 -0.04594304 0.54100001 1.5412711e-38
-0.010121076 -0.04543351 0.53500003 1.4951017e-38
-0.0082808873 -0.04543351 0.53500003 1.3107104e-38
-0.0064286413 -0.045348581 0.53399998 1.3751404e-38
-0.0045918915 -0.045348581 0.53399998 1.319823e-38
-0.0027499825 -0.045263659 0.53299999 1.3015235e-38
-0.00091667246 -0.045263659 0.53299999 1.4029387e-38
0.0009166376 -0.045263659 0.53299999 1.4304921e-38
0.0027499825 -0.045263659 0.53299999 1.3751748e-38
0.0045832926 -0.045263659 0.53299999 1.3843936e-38
0.0064045643 -0.045178737 0.53200001 1.3290762e-38
0.0082344348 -0.045178737 0.53200001 1.3383667e-38
0.010083223 -0.045263659 0.53299999 1.2830493e-38
0.011916532 -0.045263659 0.53299999 1.2462439e-38
0.013749843 -0.045263659 0.53299999 1.2185853e-38
0.015583187 -0.045263659 0.53299999 1.1908181e-38
0.017449174 -0.045348581 0.53399998 1.1539399e-38
0.019322041 -0.04543351 0.53500003 1.1537246e-38
0.021162231 -0.04543351 0.53500003 1.1445051e-38
0.023045415 -0.045518428 0.53600001 1.1170982e-38
0.024935478 -0.04560335 0.537 1.1816351e-38
0.026782582 -0.04560335 0.537 1.1999654e-38
0.028682962 -0.045688272 0.53799999 1.2276241e-38
0.03053347 -0.045688272 0.53799999 1.1445404e-38
0.032383978 -0.045688272 0.53799999 1.1537599e-38
-0.025539167 -0.048613749 0.55000001 1.5136463e-38
-0.02351838 -0.048348583 0.54699999 1.5136463e-38
-0.021597357 -0.048260197 0.546 1.4766623e-38
-0.019610984 -0.047995027 0.54299998 1.4121253e-38
-0.017710585 -0.047906641 0.542 1.4214469e-38
-0.015787845 -0.047729865 0.54000002 1.4952034e-38
-0.013878863 -0.047553085 0.53799999 1.4582205e-38
-0.011983624 -0.047376309 0.53600001 1.3752444e-38
-0.010121076 -0.047287922 0.53500003 1.4213435e-38
-0.0082499301 -0.047111142 0.53299999 1.4213435e-38
-0.0064166025 -0.047111142 0.53299999 1.5778269e-38
-0.0045832926 -0.047111142 0.53299999 1.3473378e-38
-0.0027499825 -0.047111142 0.53299999 1.1909235e-38
-0.00091495266 -0.047022756 0.53200001 1.3199974e-38
0.00091491785 -0.047022756 0.53200001 1.3384054e-38
0.0027396639 -0.046934366 0.53100002 1.3015271e-38
0.0045660948 -0.046934366 0.53100002 1.3014176e-38
0.006392526 -0.046934366 0.53100002 1.292198e-38
0.0082189571 -0.046934366 0.53100002 1.2738661e-38
0.010064305 -0.047022756 0.53200001 1.2185487e-38
0.011894176 -0.047022756 0.53200001 1.2092913e-38
0.013724046 -0.047022756 0.53200001 1.172413e-38
0.015553951 -0.047022756 0.53200001 1.1814524e-38
0.017416498 -0.047111142 0.53299999 1.1722328e-38
0.019285925 -0.047199529 0.53399998 1.1353931e-38
0.021122674 -0.047199529 0.53399998 1.1077344e-38
0.02300242 -0.047287922 0.53500003 1.0339426e-38
0.024842609 -0.047287922 0.53500003 1.1169187e-38
0.026732709 -0.047376309 0.53600001 1.1630871e-38
0.028629651 -0.047464699 0.537 1.1723067e-38
0.03053347 -0.047553085 0.53799999 1.0339779e-38
0.032383978 -0.047553085 0.53799999 1.0892953e-38
-0.025539167 -0.050520182 0.55000001 1.4858797e-38
-0.02351838 -0.050244618 0.54699999 1.4305623e-38
-0.021518249 -0.049969058 0.54400003 1.4121245e-38
-0.019574869 -0.049785346 0.542 1.4951005e-38
-0.017677909 -0.049693491 0.54100001 1.3292891e-38
-0.015729371 -0.049417924 0.53799999 1.5689977e-38
-0.013853067 -0.04932607 0.537 1.3292913e-38
-0.011983624 -0.049234219 0.53600001 1.4768043e-38
-0.010139995 -0.049234219 0.53600001 1.4490022e-38
-0.0082499301 -0.048958652 0.53299999 1.3291478e-38
-0.0064045643 -0.048866797 0.53200001 1.3382945e-38
-0.0045746937 -0.048866797 0.53200001 1.1446837e-38
-0.0027448232 -0.048866797 0.53200001 1.1722328e-38
-0.00091495266 -0.048866797 0.53200001 1.2920871e-38
0.00091491785 -0.048866797 0.53200001 1.2739038e-38
0.0027396639 -0.048774943 0.53100002 1.2278059e-38
0.0045660948 -0.048774943 0.53100002 1.2553565e-38
0.006392526 -0.048774943 0.53100002 1.2184782e-38
0.0082189571 -0.048774943 0.53100002 1.1907452e-38
0.010045388 -0.048774943 0.53100002 1.1723061e-38
0.011871819 -0.048774943 0.53100002 1.1998572e-38
0.013724046 -0.048866797 0.53200001 1.1353202e-38
0.015553951 -0.048866797 0.53200001 1.1629426e-38
0.017416498 -0.048958652 0.53299999 1.1076253e-38
0.019285925 -0.049050502 0.53399998 1.061564e-38
0.021122674 -0.049050502 0.53399998 9.0483145e-39
0.02300242 -0.049142364 0.53500003 9.3252489e-39
0.024842609 -0.049142364 0.53500003 1.0984763e-38
0.026732709 -0.049234219 0.53600001 1.0709265e-38
0.028576339 -0.049234219 0.53600001 1.1078048e-38
0.03053347 -0.049417924 0.53799999 1.0616366e-38
0.032444172 -0.049509779 0.53899997 1.0708562e-38
0.034361757 -0.049601637 0.54000002 8.9568307e-39
-0.021518249 -0.051854696 0.54400003 1.4949575e-38
-0.019574869 -0.051664051 0.542 1.421201e-38
-0.01757988 -0.051282763 0.53799999 1.3936158e-38
-0.015700135 -0.051187444 0.537 1.4028354e-38
-0.013853067 -0.051187444 0.537 1.3015987e-38
-0.011983624 -0.051092125 0.53600001 1.3292574e-38
-0.010102158 -0.050901476 0.53399998 1.2738658e-38
-0.0082499301 -0.050806157 0.53299999 1.2369875e-38
-0.0064045643 -0.050710838 0.53200001 1.3106374e-38
-0.0045746937 -0.050710838 0.53200001 1.2000026e-38
-0.0027448232 -0.050710838 0.53200001 1.0985126e-38
-0.00091323286 -0.050615519 0.53100002 1.2275865e-38
0.00091319816 -0.050615519 0.53100002 1.2185867e-38
0.0027396639 -0.050615519 0.53100002 1.1540497e-38
0.0045660948 -0.050615519 0.53100002 1.2092572e-38
0.006392526 -0.050615519 0.53100002 1.1815985e-38
0.0082034776 -0.050520193 0.52999997 1.1723804e-38
0.010026469 -0.050520193 0.52999997 1.117063e-38
0.011871819 -0.050615519 0.53100002 1.1169164e-38
0.01369825 -0.050615519 0.53100002 1.1353556e-38
0.015553951 -0.050710838 0.53200001 1.0892212e-38
0.017416498 -0.050806157 0.53299999 1.0892212e-38
0.019249808 -0.050806157 0.53299999 1.0431975e-38
0.021083117 -0.050806157 0.53299999 1.0339779e-38
0.022916427 -0.050806157 0.53299999 1.0524184e-38
0.024749737 -0.050806157 0.53299999 1.0431989e-38
0.026632957 -0.050901476 0.53399998 1.0892604e-38
0.030476719 -0.051187444 0.537 1.0615277e-38
0.032444172 -0.051378082 0.53899997 1.033869e-38
0.034361757 -0.051473409 0.54000002 8.1281589e-39
0.036286213 -0.051568728 0.54100001 1.7716493e-38
-0.017547203 -0.05304879 0.537 1.3013136e-38
-0.015700135 -0.05304879 0.537 1.3105331e-38
-0.013853067 -0.05304879 0.537 1.3014545e-38
-0.011983624 -0.052950006 0.53600001 1.4213089e-38
-0.010102158 -0.052752424 0.53399998 1.3474808e-38
-0.0082499301 -0.052653641 0.53299999 1.236846e-38
-0.0064045643 -0.052554853 0.53200001 1.292236e-38
-0.0045746937 -0.052554853 0.53200001 1.080186e-38
-0.0027448232 -0.052554853 0.53200001 1.1076969e-38
-0.00091323286 -0.05245607 0.53100002 1.1998925e-38
0.00091319816 -0.05245607 0.53100002 1.1631974e-38
0.0027396639 -0.05245607 0.53100002 1.1447583e-38
0.004557495 -0.052357275 0.52999997 1.1539399e-38
0.0063804863 -0.052357275 0.52999997 1.1262812e-38
0.0082034776 -0.052357275 0.52999997 1.1353931e-38
0.010026469 -0.052357275 0.52999997 1.1261735e-38
0.01184946 -0.052357275 0.52999997 1.1077697e-38
0.01369825 -0.05245607 0.53100002 1.0616719e-38
0.015553951 -0.052554853 0.53200001 1.0708209e-38
0.017416498 -0.052653641 0.53299999 1.0523817e-38
0.019213693 -0.052554853 0.53200001 1.0339779e-38
0.021043563 -0.052554853 0.53200001 1.0431975e-38
0.022873433 -0.052554853 0.53200001 1.0339779e-38
0.024703303 -0.052554853 0.53200001 1.0339779e-38
0.026533209 -0.052554853 0.53200001 1.024723e-38
0.030476719 -0.05304879 0.537 1.0062836e-38
0.032444172 -0.053246364 0.53899997 9.6018582e-39
0.034361757 -0.053345155 0.54000002 7.6693766e-39
0.036286213 -0.053443942 0.54100001 1.7349918e-38
-0.017514529 -0.054807913 0.53600001 1.4026209e-38
-0.015670899 -0.054807913 0.53600001 1.3104252e-38
-0.013827271 -0.054807913 0.53600001 1.2643591e-38
-0.011983624 -0.054807913 0.53600001 1.3104569e-38
-0.010139995 -0.054807913 0.53600001 1.2275159e-38
-0.0082654087 -0.054603402 0.53399998 1.1629789e-38
-0.0064166025 -0.05450115 0.53299999 1.1722358e-38
-0.0045746937 -0.054398894 0.53200001 1.1353575e-38
-0.0027448232 -0.054398894 0.53200001 1.0064959e-38
-0.00091495266 -0.054398894 0.53200001 1.1171307e-38
0.00091319816 -0.054296643 0.53100002 1.1170643e-38
0.0027396639 -0.054296643 0.53100002 1.0894056e-38
0.004557495 -0.054194383 0.52999997 1.1078783e-38
0.006368448 -0.054092132 0.52899998 1.0986588e-38
0.0081879999 -0.054092132 0.52899998 1.1077358e-38
0.010007552 -0.054092132 0.52899998 1.0985163e-38
0.011827103 -0.054092132 0.52899998 1.1076616e-38
0.01369825 -0.054296643 0.53100002 1.098442e-38
0.015524716 -0.054296643 0.53100002 1.0433054e-38
0.017383821 -0.054398894 0.53200001 1.0248663e-38
0.019177578 -0.054296643 0.53100002 1.0340142e-38
0.021004008 -0.054296643 0.53100002 1.0340142e-38
0.02283044 -0.054296643 0.53100002 1.0247944e-38
0.024656871 -0.054296643 0.53100002 1.0063552e-38
0.026483336 -0.054296643 0.53100002 1.0337984e-38
0.030476719 -0.054910164 0.537 1.0246156e-38
0.032504369 -0.055216927 0.54000002 9.9695688e-39
0.034425385 -0.055319179 0.54100001 1.015402e-38
0.036353286 -0.055421431 0.542 1.8912605e-38
-0.017514529 -0.056665793 0.53600001 1.2368833e-38
-0.015670899 -0.056665793 0.53600001 1.200005e-38
-0.013827271 -0.056665793 0.53600001 1.2552854e-38
-0.011983624 -0.056665793 0.53600001 1.199968e-38
-0.010139995 -0.056665793 0.53600001 1.1908198e-38
-0.0082654087 -0.056454349 0.53399998 1.227698e-38
-0.0064166025 -0.056348629 0.53299999 1.1540115e-38
-0.0045746937 -0.056242913 0.53200001 1.0433767e-38
-0.0027448232 -0.056242913 0.53200001 1.0985514e-38
-0.00091323286 -0.056137193 0.53100002 1.1169906e-38
0.00091319816 -0.056137193 0.53100002 1.1078087e-38
0.0027396639 -0.056137193 0.53100002 1.1078087e-38
0.004557495 -0.056031469 0.52999997 1.0986242e-38
0.0063564098 -0.055820029 0.528 1.0894046e-38
0.0081725223 -0.055820029 0.528 1.1077697e-38
0.010007552 -0.055925749 0.52899998 1.0985502e-38
0.011827103 -0.055925749 0.52899998 1.0801123e-38
0.013672451 -0.056031469 0.52999997 1.0616732e-38
0.015495477 -0.056031469 0.52999997 1.0616363e-38
0.017351147 -0.056137193 0.53100002 1.0431972e-38
0.019177578 -0.056137193 0.53100002 1.0340142e-38
0.021004008 -0.056137193 0.53100002 1.0340142e-38
0.02283044 -0.056137193 0.53100002 1.0156104e-38
0.024656871 -0.056137193 0.53100002 1.0063908e-38
0.026483336 -0.056137193 0.53100002 9.8788123e-39
0.028682962 -0.056877229 0.53799999 9.694421e-39
0.03053347 -0.056877229 0.53799999 1.0245452e-38
0.032504369 -0.057088673 0.54000002 9.8766697e-39
0.034425385 -0.057194389 0.54100001 1.3283323e-38
-0.017547203 -0.058632884 0.537 1.2552861e-38
-0.015700135 -0.058632884 0.537 1.1907492e-38
-0.013853067 -0.058632884 0.537 1.2000031e-38
-0.012005981 -0.058632884 0.537 1.1631248e-38
-0.010139995 -0.0585237 0.53600001 1.1447206e-38
-0.0082654087 -0.058305323 0.53399998 1.1815988e-38
-0.0064166025 -0.058196139 0.53299999 1.1078045e-38
-0.0045746937 -0.058086954 0.53200001 1.0156089e-38
-0.0027448232 -0.058086954 0.53200001 1.0985514e-38
-0.00091323286 -0.05797777 0.53100002 1.107771e-38
0.00091319816 -0.05797777 0.53100002 1.1261394e-38
0.0027345042 -0.057868578 0.52999997 1.1077002e-38
0.004557495 -0.057868578 0.52999997 1.0710371e-38
0.0063564098 -0.057650208 0.528 1.052598e-38
0.0081725223 -0.057650208 0.528 1.1076616e-38
0.010007552 -0.057759393 0.52899998 1.0892224e-38
0.011827103 -0.057759393 0.52899998 1.0708562e-38
0.013672451 -0.057868578 0.52999997 1.0616366e-38
0.015495477 -0.057868578 0.52999997 1.0340142e-38
0.017318469 -0.057868578 0.52999997 1.0340142e-38
0.019177578 -0.05797777 0.53100002 1.0247581e-38
0.021004008 -0.05797777 0.53100002 1.0155385e-38
0.02283044 -0.05797777 0.53100002 9.9713568e-39
0.024656871 -0.05797777 0.53100002 9.8791612e-39
0.026832454 -0.058742069 0.53799999 9.9699205e-39
0.028682962 -0.058742069 0.53799999 9.8777248e-39
0.03053347 -0.058742069 0.53799999 1.0059992e-38
0.032504369 -0.058960445 0.54000002 9.506818e-39
-0.015758609 -0.060719531 0.53899997 1.1723466e-38
-0.013878863 -0.060606882 0.53799999 1.1262122e-38
-0.012005981 -0.060494229 0.537 1.1815296e-38
-0.010121076 -0.060268927 0.53500003 1.1722021e-38
-0.0082499301 -0.060043618 0.53299999 1.0800065e-38
-0.0064045643 -0.059930969 0.53200001 9.9709967e-39
-0.0045660948 -0.05981832 0.53100002 1.0616366e-38
-0.0027396639 -0.05981832 0.53100002 1.0616743e-38
-0.00091151294 -0.05970566 0.52999997 1.0708939e-38
0.00091147824 -0.05970566 0.52999997 1.0894412e-38
0.0027345042 -0.05970566 0.52999997 1.0341238e-38
0.004557495 -0.05970566 0.52999997 1.0524531e-38
0.006344371 -0.059367709 0.52700001 1.0708922e-38
0.0081570437 -0.059367709 0.52700001 1.0616729e-38
0.010007552 -0.059593011 0.52899998 1.0432338e-38
0.011827103 -0.059593011 0.52899998 1.0432328e-38
0.013672451 -0.05970566 0.52999997 1.0247937e-38
0.015495477 -0.05970566 0.52999997 1.0247595e-38
0.017318469 -0.05970566 0.52999997 1.0155399e-38
0.019177578 -0.05981832 0.53100002 9.8791486e-39
0.021004008 -0.05981832 0.53100002 9.7869529e-39
0.02283044 -0.05981832 0.53100002 9.7855138e-39
0.026732709 -0.06038158 0.53600001 9.5089633e-39
0.03053347 -0.060606882 0.53799999 9.3227896e-39
0.032564558 -0.06094484 0.54100001 9.4149853e-39
0.034489021 -0.061057489 0.542 1.6413308e-38
0.036487434 -0.061282799 0.54400003 1.6597699e-38
-0.013904661 -0.062587835 0.53899997 1.1629491e-38
-0.012005981 -0.062355604 0.537 1.1352904e-38
-0.010121076 -0.062123369 0.53500003 1.0431626e-38
-0.0082499301 -0.061891127 0.53299999 9.7862565e-39
-0.0064045643 -0.06177501 0.53200001 9.6947867e-39
-0.0045660948 -0.061658893 0.53100002 1.0155765e-38
-0.0027396639 -0.061658893 0.53100002 9.9731841e-39
-0.00091151294 -0.061542768 0.52999997 1.006538e-38
0.00091147824 -0.061542768 0.52999997 1.0156859e-38
0.0027345042 -0.061542768 0.52999997 9.7880768e-39
0.004557495 -0.061542768 0.52999997 1.0156125e-38
0.006344371 -0.06119442 0.52700001 9.6951469e-39
0.0081570437 -0.06119442 0.52700001 9.7851733e-39
0.010026469 -0.061542768 0.52999997 9.5085864e-39
0.01184946 -0.061542768 0.52999997 9.6936741e-39
0.013672451 -0.061542768 0.52999997 9.6014785e-39
0.015495477 -0.061542768 0.52999997 9.3256413e-39
0.026732709 -0.062239487 0.53600001 9.5979626e-39
0.03053347 -0.062471721 0.53799999 8.2149875e-39
0.032564558 -0.062820077 0.54100001 1.3193552e-38
0.034489021 -0.062936194 0.542 1.6964684e-38
0.036487434 -0.063168436 0.54400003 1.6688097e-38
-0.01793932 -0.065651968 0.54900002 6.0995271e-39
-0.01593403 -0.065173633 0.54500002 7.4824574e-39
-0.013982053 -0.064814873 0.542 7.5739621e-39
-0.012050696 -0.064456113 0.53899997 7.850549e-39
-0.010196748 -0.064456113 0.53899997 7.8519812e-39
-0.0082499301 -0.063738607 0.53299999 8.4051549e-39
-0.0064045643 -0.063619025 0.53200001 9.3235281e-39
-0.0045660948 -0.063499443 0.53100002 9.1391369e-39
-0.0027396639 -0.063499443 0.53100002 9.1398557e-39
-0.00091151294 -0.063379854 0.52999997 9.324247e-39
0.00091147824 -0.063379854 0.52999997 8.8643478e-39
0.002755142 -0.063858196 0.53399998 8.8643478e-39
0.0045918915 -0.063858196 0.53399998 8.8639695e-39
0.006344371 -0.063021101 0.52700001 8.6795782e-39
0.0081570437 -0.063021101 0.52700001 8.86255e-39
0.010026469 -0.063379854 0.52999997 8.4015718e-39
0.01184946 -0.063379854 0.52999997 8.5859281e-39
0.026832454 -0.064336531 0.53799999 5.3576797e-39
0.028682962 -0.064336531 0.53799999 3.7903666e-39
0.030590225 -0.064456113 0.53899997 2.1459765e-39
0.032564558 -0.064695291 0.54100001 9.8904094e-39
-0.01793932 -0.067554936 0.54900002 9.9638459e-39
-0.01593403 -0.067062736 0.54500002 7.2901726e-39
-0.014007849 -0.066816628 0.54299998 5.2665505e-39
-0.012140125 -0.066816628 0.54299998 5.082162e-39
-0.00091839232 -0.065709166 0.53399998 5.4545641e-39
0.0009183574 -0.065709166 0.53399998 6.1885292e-39
0.002755142 -0.065709166 0.53399998 6.5573117e-39
0.006368448 -0.065093912 0.52899998 6.372905e-39
0.0081879999 -0.065093912 0.52899998 5.6368001e-39
