# .PCD v0.7 - Point Cloud Data file format
VERSION 0.7
FIELDS x y z rgb
SIZE 4 4 4 4
TYPE F F F F
COUNT 1 1 1 1
WIDTH 969
HEIGHT 1
VIEWPOINT 0 0 0 1 0 0 0
POINTS 969
DATA ascii
0.02022494 0.006793811 0.56 1.8818554e-38
0.02215112 0.006793811 0.56 1.743562e-38
0.0240773 0.006793811 0.56 1.733737e-38
0.012542542 0.0048613795 0.56099999 1.8178556e-38
0.014420567 0.004844049 0.55900002 1.808636e-38
0.016343344 0.004844049 0.55900002 1.7532445e-38
0.018266084 0.004844049 0.55900002 1.7348054e-38
0.020188823 0.004844049 0.55900002 1.7070408e-38
0.02215112 0.004852714 0.56 1.6517234e-38
0.0240773 0.004852714 0.56 1.5135031e-38
0.026049912 0.0048613795 0.56099999 1.5503813e-38
0.028029442 0.004870045 0.56199998 1.7149779e-38
0.010575088 0.0029064182 0.55900002 1.7901266e-38
0.012497827 0.0029064182 0.55900002 1.7440638e-38
0.014368972 0.0028960195 0.55699998 1.6518681e-38
0.01628487 0.0028960195 0.55699998 1.6518293e-38
0.018200729 0.0028960195 0.55699998 1.6149511e-38
0.02011659 0.0028960195 0.55699998 1.5963713e-38
0.02207201 0.0029012191 0.55800003 1.6516886e-38
0.024034303 0.0029064182 0.55900002 1.660874e-38
0.02600348 0.0029116175 0.56 1.6793131e-38
0.027979568 0.0029168166 0.56099999 1.6603035e-38
0.029909188 0.0029168166 0.56099999 1.6418644e-38
0.031838804 0.0029168166 0.56099999 1.7424586e-38
0.0086678267 0.00097054837 0.56 1.6886748e-38
0.010556171 0.00096708216 0.55800003 1.6610161e-38
0.012453112 0.00096534897 0.55699998 1.6149158e-38
0.014343176 0.00096361584 0.55599999 1.5503788e-38
0.016226398 0.00096188276 0.55500001 1.5226848e-38
0.018135378 0.00096188276 0.55500001 1.5319044e-38
0.02004436 0.00096188276 0.55500001 1.4858444e-38
0.021992896 0.00096361584 0.55599999 1.4581857e-38
0.023905318 0.00096361584 0.55599999 1.4949908e-38
0.02591061 0.00096708216 0.55800003 1.5042104e-38
0.027929695 0.00097054837 0.56 1.5225799e-38
0.029855875 0.00097054837 0.56 1.541019e-38
0.031782053 0.00097054837 0.56 1.7149794e-38
0.033708233 0.00097054837 0.56 1.7149794e-38
0.0086523481 -0.00096881529 0.55900002 1.6333208e-38
0.010537251 -0.00096534897 0.55699998 1.5503448e-38
0.012430754 -0.00096361584 0.55599999 1.513465e-38
0.014343176 -0.00096361584 0.55599999 1.4397085e-38
0.016226398 -0.00096188276 0.55500001 1.3569137e-38
0.018135378 -0.00096188276 0.55500001 1.3476942e-38
0.02004436 -0.00096188276 0.55500001 1.347587e-38
0.021953342 -0.00096188276 0.55500001 1.3014892e-38
0.023862323 -0.00096188276 0.55500001 1.3199258e-38
0.025771305 -0.00096188276 0.55500001 1.356804e-38
0.027680323 -0.00096188276 0.55500001 1.3841405e-38
0.029589305 -0.00096188276 0.55500001 1.3841405e-38
0.031611789 -0.00096534897 0.55699998 1.6322881e-38
0.033708233 -0.00097054837 0.56 1.696825e-38
0.00670553 -0.0028960195 0.55699998 1.5411971e-38
0.0086059133 -0.0028908201 0.55599999 1.5226845e-38
0.010499417 -0.0028856208 0.55500001 1.4212693e-38
0.012408398 -0.0028856208 0.55500001 1.3843544e-38
0.014291582 -0.0028804217 0.55400002 1.329037e-38
0.01619716 -0.0028804217 0.55400002 1.2830478e-38
0.018070025 -0.0028752221 0.55299997 1.2553891e-38
0.019972127 -0.0028752221 0.55299997 1.2829414e-38
0.021874228 -0.0028752221 0.55299997 1.2737219e-38
0.023776332 -0.0028752221 0.55299997 1.2644667e-38
0.025678433 -0.0028752221 0.55299997 1.2552472e-38
0.027630446 -0.0028804217 0.55400002 1.255102e-38
0.029535988 -0.0028804217 0.55400002 1.2274433e-38
0.031611789 -0.0028960195 0.55699998 1.2919501e-38
0.033708233 -0.0029116175 0.56 1.5777566e-38
0.0047810706 -0.0048180521 0.55599999 1.5412694e-38
0.0066934917 -0.0048180521 0.55599999 1.4767325e-38
0.0085904347 -0.0048093866 0.55500001 1.4304551e-38
0.010499417 -0.0048093866 0.55500001 1.3843573e-38
0.012408398 -0.0048093866 0.55500001 1.3014176e-38
0.014265784 -0.0047920551 0.55299997 1.2829784e-38
0.016167922 -0.0047920551 0.55299997 1.2461723e-38
0.018070025 -0.0047920551 0.55299997 1.2461723e-38
0.019972127 -0.0047920551 0.55299997 1.2369528e-38
0.021874228 -0.0047920551 0.55299997 1.2185137e-38
0.023776332 -0.0047920551 0.55299997 1.2276978e-38
0.025678433 -0.0047920551 0.55299997 1.2000391e-38
0.027630446 -0.0048007211 0.55400002 1.1630866e-38
0.029535988 -0.0048007211 0.55400002 1.4581126e-38
0.035316247 -0.0048093866 0.55500001 1.7333116e-38
0.037895951 -0.0048960419 0.565 1.6964334e-38
0.0047810706 -0.006745256 0.55599999 1.5043914e-38
0.0066934917 -0.006745256 0.55599999 1.4214154e-38
0.0085904347 -0.0067331246 0.55500001 1.3752459e-38
0.010499417 -0.0067331246 0.55500001 1.3014894e-38
0.01238604 -0.0067209932 0.55400002 1.2921997e-38
0.014265784 -0.0067088609 0.55299997 1.2737605e-38
0.016167922 -0.0067088609 0.55299997 1.2093315e-38
0.018037349 -0.0066967295 0.55199999 1.2001119e-38
0.019936012 -0.0066967295 0.55199999 1.2277329e-38
0.021874228 -0.0067088609 0.55299997 1.2185134e-38
0.023776332 -0.0067088609 0.55299997 1.2093291e-38
0.025678433 -0.0067088609 0.55299997 1.1632313e-38
0.027630446 -0.0067209932 0.55400002 1.2091846e-38
0.029535988 -0.0067209932 0.55400002 1.2829412e-38
0.031498287 -0.0067331246 0.55500001 6.6760101e-40
0.033407267 -0.0067331246 0.55500001 9.5183717e-39
0.035316247 -0.0067331246 0.55500001 1.6599138e-38
0.037895951 -0.0068544419 0.565 1.6230356e-38
0.039839331 -0.0068544419 0.565 1.7240175e-38
0.041930646 -0.0068787052 0.56699997 1.7240175e-38
0.043880902 -0.0068787052 0.56699997 1.7239459e-38
0.045831159 -0.0068787052 0.56699997 1.7055068e-38
0.047781415 -0.0068787052 0.56699997 1.696362e-38
0.0066934917 -0.0086724879 0.55599999 1.4121245e-38
0.0085749561 -0.0086412923 0.55400002 1.3659559e-38
0.01046158 -0.0086256936 0.55299997 1.2829798e-38
0.012363683 -0.0086256936 0.55299997 1.2737959e-38
0.014239988 -0.0086100958 0.55199999 1.292235e-38
0.016138688 -0.0086100958 0.55199999 1.2369525e-38
0.018037349 -0.0086100958 0.55199999 1.2461721e-38
0.019936012 -0.0086100958 0.55199999 1.2461372e-38
0.021834675 -0.0086100958 0.55199999 1.2092589e-38
0.023733338 -0.0086100958 0.55199999 1.2184429e-38
0.025632 -0.0086100958 0.55199999 1.2092233e-38
0.027580572 -0.0086256936 0.55299997 1.1631947e-38
0.029482674 -0.0086256936 0.55299997 1.2277317e-38
0.031498287 -0.0086568901 0.55500001 3.1625891e-39
0.033407267 -0.0086568901 0.55500001 8.6021313e-39
0.035316247 -0.0086568901 0.55500001 1.502316e-38
0.037895951 -0.0088128699 0.565 1.2257291e-38
0.039839331 -0.0088128699 0.565 1.8404049e-38
0.041782744 -0.0088128699 0.565 1.8404049e-38
0.04372612 -0.0088128699 0.565 1.8401545e-38
0.0456695 -0.0088128699 0.565 2.0153262e-38
0.047612876 -0.0088128699 0.565 1.8427582e-38
0.002858331 -0.010561564 0.55400002 1.485917e-38
0.0047638728 -0.010561564 0.55400002 1.4213805e-38
0.0066694147 -0.010561564 0.55400002 1.4029413e-38
0.0085594775 -0.0105425 0.55299997 1.3567369e-38
0.01046158 -0.0105425 0.55299997 1.3475173e-38
0.012341325 -0.010523436 0.55199999 1.31993e-38
0.014214191 -0.010504371 0.551 1.3014908e-38
0.01610945 -0.010504371 0.551 1.2923066e-38
0.018004673 -0.010504371 0.551 1.2646479e-38
0.019899895 -0.010504371 0.551 1.2737579e-38
0.021795118 -0.010504371 0.551 1.2553188e-38
0.023690341 -0.010504371 0.551 1.2369176e-38
0.025585564 -0.010504371 0.551 1.1723807e-38
0.027480824 -0.010504371 0.551 1.1907105e-38
0.029376047 -0.010504371 0.551 1.1630518e-38
0.031441532 -0.010561564 0.55400002 1.2457419e-38
0.033407267 -0.010580628 0.55500001 1.1351071e-38
0.035316247 -0.010580628 0.55500001 1.8707784e-38
0.037694734 -0.010714077 0.56199998 1.5112155e-38
0.039627794 -0.010714077 0.56199998 1.8305397e-38
0.041708793 -0.010752207 0.56400001 1.8213203e-38
0.043648731 -0.010752207 0.56400001 1.8298581e-38
0.0456695 -0.01077127 0.565 2.3467276e-38
0.047612876 -0.01077127 0.565 1.8062039e-38
0.0028531714 -0.012459333 0.55299997 1.4490741e-38
0.0047552735 -0.012459333 0.55299997 1.4121961e-38
0.0066694147 -0.012481864 0.55400002 1.3568787e-38
0.0085594775 -0.012459333 0.55299997 1.3659577e-38
0.010442663 -0.012436802 0.55199999 1.338299e-38
0.012341325 -0.012436802 0.55199999 1.3107104e-38
0.014214191 -0.012414272 0.551 1.3291495e-38
0.01610945 -0.012414272 0.551 1.2738305e-38
0.017971996 -0.012391741 0.55000001 1.2369522e-38
0.019863781 -0.012391741 0.55000001 1.2185111e-38
0.021716008 -0.012369212 0.54900002 1.2092916e-38
0.023604352 -0.012369212 0.54900002 1.1539749e-38
0.025492696 -0.012369212 0.54900002 1.1078771e-38
0.02743095 -0.012391741 0.55000001 1.1630518e-38
0.029322734 -0.012391741 0.55000001 1.1538322e-38
0.031384777 -0.012459333 0.55299997 1.1353226e-38
0.033407267 -0.012504394 0.55500001 1.0523466e-38
0.035443511 -0.012549454 0.55699998 2.2115795e-38
0.037493519 -0.012594515 0.55900002 2.1193839e-38
0.039557282 -0.012639576 0.56099999 2.0342377e-38
0.041634846 -0.012684638 0.56300002 1.6377964e-38
0.043571342 -0.012684638 0.56300002 1.5093331e-38
0.0456695 -0.012729698 0.565 1.8320178e-38
0.047612876 -0.012729698 0.565 1.714692e-38
0.0028531714 -0.014376138 0.55299997 1.375281e-38
0.0047552735 -0.014376138 0.55299997 1.3567705e-38
0.0066694147 -0.014402135 0.55400002 1.3659901e-38
0.0085594775 -0.014376138 0.55299997 1.3567369e-38
0.010442663 -0.014350142 0.55199999 1.3475173e-38
0.012318968 -0.014324145 0.551 1.3107453e-38
0.014188394 -0.014298148 0.55000001 1.273867e-38
0.016050976 -0.014272152 0.54900002 1.2185484e-38
0.017906643 -0.014246156 0.54799998 1.2001093e-38
0.019791547 -0.014246156 0.54799998 1.1263518e-38
0.021676451 -0.014246156 0.54799998 1.0894735e-38
0.023561355 -0.014246156 0.54799998 1.1076616e-38
0.025492696 -0.014272152 0.54900002 1.0707833e-38
0.027381076 -0.014272152 0.54900002 1.0708176e-38
0.02926942 -0.014272152 0.54900002 1.126135e-38
0.031328022 -0.014350142 0.55199999 1.1168451e-38
0.033407267 -0.014428132 0.55500001 1.181382e-38
0.035316247 -0.014428132 0.55500001 1.8697308e-38
0.037292302 -0.014454128 0.55599999 1.1506049e-38
0.039416257 -0.014532119 0.55900002 1.2879211e-38
0.041486938 -0.014584111 0.56099999 1.6843609e-38
0.043416556 -0.014584111 0.56099999 1.594661e-38
0.045507841 -0.014636106 0.56300002 1.742174e-38
0.047612876 -0.014688098 0.565 1.6503709e-38
0.002858331 -0.016322436 0.55400002 1.3752813e-38
0.0047638728 -0.016322436 0.55400002 1.3292211e-38
0.0066694147 -0.016322436 0.55400002 1.3200016e-38
0.0085594775 -0.016292971 0.55299997 1.3200016e-38
0.010423744 -0.016234046 0.551 1.2646842e-38
0.012296611 -0.016204583 0.55000001 1.2554267e-38
0.014136799 -0.016145658 0.54799998 1.2001093e-38
0.01602174 -0.016145658 0.54799998 1.1722711e-38
0.017873967 -0.016116194 0.54699999 1.089295e-38
0.019755432 -0.016116194 0.54699999 1.0984413e-38
0.021676451 -0.016145658 0.54799998 1.0431239e-38
0.023561355 -0.016145658 0.54799998 1.0155741e-38
0.025492696 -0.016175121 0.54900002 1.0340132e-38
0.027381076 -0.016175121 0.54900002 1.0340139e-38
0.02926942 -0.016175121 0.54900002 1.0340139e-38
0.031328022 -0.016263509 0.55199999 1.1168088e-38
0.033347074 -0.016322436 0.55400002 8.3100362e-39
0.035316247 -0.016351897 0.55500001 8.5467996e-39
0.037292302 -0.016381361 0.55599999 7.7170515e-39
0.039345749 -0.016440287 0.55800003 1.2527049e-38
0.041412991 -0.016499212 0.56 1.7321222e-38
0.043339167 -0.016499212 0.56 1.6315387e-38
0.045507841 -0.016587602 0.56300002 1.7052952e-38
0.0028634905 -0.018275663 0.55500001 1.3199288e-38
0.0047724722 -0.018275663 0.55500001 1.3199649e-38
0.0066814534 -0.018275663 0.55500001 1.273867e-38
0.0085594775 -0.018209804 0.55299997 1.2646845e-38
0.010423744 -0.018143946 0.551 1.2001475e-38
0.012296611 -0.018111017 0.55000001 1.1816348e-38
0.014136799 -0.018045159 0.54799998 1.1170979e-38
0.01602174 -0.018045159 0.54799998 1.1261735e-38
0.017873967 -0.018012229 0.54699999 1.0985149e-38
0.019755432 -0.018012229 0.54699999 1.015682e-38
0.021676451 -0.018045159 0.54799998 9.7880375e-39
0.023561355 -0.018045159 0.54799998 9.7873089e-39
0.025492696 -0.018078089 0.54900002 9.510722e-39
0.02743095 -0.018111017 0.55000001 9.4185263e-39
0.029376047 -0.018143946 0.551 9.510722e-39
0.031328022 -0.018176876 0.55199999 1.0153583e-38
0.033347074 -0.018242734 0.55400002 8.2174832e-39
0.035316247 -0.018275663 0.55500001 7.728531e-39
0.037292302 -0.018308591 0.55599999 7.9129194e-39
0.039345749 -0.018374451 0.55800003 9.7471182e-39
0.041412991 -0.018440308 0.56 1.2144191e-38
0.043339167 -0.018440308 0.56 1.1688219e-38
0.0028738091 -0.02027219 0.55699998 1.2186569e-38
0.0047810706 -0.020235796 0.55599999 1.2278396e-38
0.0066934917 -0.020235796 0.55599999 1.1909613e-38
0.0085749561 -0.020163007 0.55400002 1.1724509e-38
0.01046158 -0.020126611 0.55299997 1.1632313e-38
0.012318968 -0.020053819 0.551 1.1079492e-38
0.014162596 -0.01998103 0.54900002 1.0987297e-38
0.01602174 -0.019944634 0.54799998 1.0618514e-38
0.017906643 -0.019944634 0.54799998 1.0526319e-38
0.019791547 -0.019944634 0.54799998 1.0340855e-38
0.021676451 -0.019944634 0.54799998 9.695486e-39
0.023604352 -0.01998103 0.54900002 9.4178019e-39
0.025492696 -0.01998103 0.54900002 9.6021903e-39
0.027480824 -0.020053819 0.551 9.3248916e-39
0.029482674 -0.020126611 0.55299997 8.863919e-39
0.031384777 -0.020126611 0.55299997 8.9550371e-39
0.033407267 -0.020199401 0.55500001 8.2174832e-39
0.035316247 -0.020199401 0.55500001 5.8900274e-39
0.037359372 -0.02027219 0.55699998 6.1666101e-39
0.039345749 -0.020308588 0.55800003 1.0769953e-38
0.041339036 -0.020344982 0.55900002 1.0585561e-38
0.043339167 -0.020381378 0.56 9.6742984e-39
0.0028686498 -0.022163028 0.55599999 1.1540492e-38
0.0047810706 -0.022163028 0.55599999 1.1541171e-38
0.0066934917 -0.022163028 0.55599999 1.1633367e-38
0.0085904347 -0.022123167 0.55500001 1.1356439e-38
0.010480498 -0.022083305 0.55400002 1.0895461e-38
0.012341325 -0.022003582 0.55199999 1.1079127e-38
0.014188394 -0.021923859 0.55000001 1.0525953e-38
0.016050976 -0.021883998 0.54900002 1.0893654e-38
0.017906643 -0.021844136 0.54799998 1.0248284e-38
0.019791547 -0.021844136 0.54799998 9.8794989e-39
0.021676451 -0.021844136 0.54799998 9.6951076e-39
0.023647347 -0.021923859 0.55000001 9.6947601e-39
0.025539132 -0.021923859 0.55000001 9.233782e-39
0.027530698 -0.022003582 0.55199999 8.4969358e-39
0.029482674 -0.022043442 0.55299997 8.4047416e-39
0.031441532 -0.022083305 0.55400002 7.8501413e-39
0.033407267 -0.022123167 0.55500001 6.6516163e-39
0.035379879 -0.022163028 0.55599999 2.7845132e-39
0.037359372 -0.022202889 0.55699998 1.0897729e-38
0.039345749 -0.022242753 0.55800003 1.6595567e-38
0.041339036 -0.022282613 0.55900002 1.6687762e-38
0.043339167 -0.022322474 0.56 1.6779933e-38
0.0028686498 -0.024090232 0.55599999 1.1349674e-38
0.0047810706 -0.024090232 0.55599999 1.117348e-38
0.0066934917 -0.024090232 0.55599999 1.0804698e-38
0.0085904347 -0.024046905 0.55500001 1.0895449e-38
0.010480498 -0.024003578 0.55400002 1.0711057e-38
0.012363683 -0.023960249 0.55299997 1.015895e-38
0.014239988 -0.023916923 0.55199999 9.9745588e-39
0.016080214 -0.023830267 0.55000001 9.9742113e-39
0.017971996 -0.023830267 0.55000001 9.2366462e-39
0.019863781 -0.023830267 0.55000001 9.4196152e-39
0.021755565 -0.023830267 0.55000001 8.958637e-39
0.023647347 -0.023830267 0.55000001 8.9579069e-39
0.025632 -0.023916923 0.55199999 8.7735185e-39
0.027530698 -0.023916923 0.55199999 7.9434117e-39
0.029535988 -0.024003578 0.55400002 7.9434117e-39
0.031555038 -0.024090232 0.55599999 6.7438105e-39
0.03346746 -0.024090232 0.55599999 5.8218682e-39
0.035379879 -0.024090232 0.55599999 1.392838e-38
0.037359372 -0.024133559 0.55699998 1.5864488e-38
0.039345749 -0.02417689 0.55800003 1.6685945e-38
0.0047810706 -0.026017463 0.55599999 9.6097447e-39
0.0066934917 -0.026017463 0.55599999 9.4253535e-39
0.0086059133 -0.026017463 0.55599999 1.0067466e-38
0.010499417 -0.025970669 0.55500001 9.6064951e-39
0.01238604 -0.025923876 0.55400002 9.6979719e-39
0.014265784 -0.025877083 0.55299997 9.5135834e-39
0.016138688 -0.025830289 0.55199999 9.1437303e-39
0.018037349 -0.025830289 0.55199999 8.7749534e-39
0.019936012 -0.025830289 0.55199999 8.7735185e-39
0.021755565 -0.025736701 0.55000001 8.6813242e-39
0.023647347 -0.025736701 0.55000001 8.5884126e-39
0.025632 -0.025830289 0.55199999 8.3118299e-39
0.027580572 -0.025877083 0.55299997 7.8515762e-39
0.031668548 -0.026111053 0.55800003 2.6995244e-39
0.03352765 -0.026064256 0.55699998 1.1089327e-38
0.035443511 -0.026064256 0.55699998 1.742245e-38
0.037359372 -0.026064256 0.55699998 1.6500494e-38
0.00670553 -0.027994927 0.55699998 9.056208e-39
0.0086059133 -0.027944667 0.55599999 9.2391545e-39
0.010499417 -0.027894408 0.55500001 9.1469589e-39
0.01238604 -0.02784415 0.55400002 9.052971e-39
0.014291582 -0.02784415 0.55400002 8.4076114e-39
0.01619716 -0.02784415 0.55400002 8.4969358e-39
0.018102702 -0.02784415 0.55400002 8.4969358e-39
0.020080475 -0.027944667 0.55599999 8.2207118e-39
0.021913785 -0.02784415 0.55400002 7.9441292e-39
0.023776332 -0.027793888 0.55299997 7.8512175e-39
0.025678433 -0.027793888 0.55299997 7.7590232e-39
0.027580572 -0.027793888 0.55299997 7.3898876e-39
0.031668548 -0.02804519 0.55800003 1.4293923e-38
0.03352765 -0.027994927 0.55699998 1.5953444e-38
0.035443511 -0.027994927 0.55699998 1.6318601e-38
0.0047896695 -0.029925626 0.55699998 1.0436271e-38
0.00670553 -0.029925626 0.55699998 1.0159684e-38
0.0086213909 -0.029925626 0.55699998 9.422855e-39
0.010537251 -0.029925626 0.55699998 9.0540724e-39
0.012453112 -0.029925626 0.55699998 8.5916496e-39
0.014291582 -0.029764447 0.55400002 8.1306714e-39
0.01619716 -0.029764447 0.55400002 8.3129061e-39
0.018102702 -0.029764447 0.55400002 7.8519349e-39
0.020008244 -0.029764447 0.55400002 7.8519349e-39
0.021913785 -0.029764447 0.55400002 7.7597407e-39
0.023776332 -0.029710721 0.55299997 7.575711e-39
0.025678433 -0.029710721 0.55299997 7.2991283e-39
0.0066573755 -0.031627525 0.55299997 1.2185812e-38
0.0086368704 -0.031913493 0.55800003 1.1448314e-38
0.010556171 -0.031913493 0.55800003 9.9731841e-39
0.012430754 -0.031799104 0.55599999 9.605105e-39
0.014317379 -0.031741913 0.55500001 9.1441269e-39
0.016226398 -0.031741913 0.55500001 9.1419367e-39
0.018102702 -0.031684719 0.55400002 8.7731597e-39
0.019972127 -0.031627525 0.55299997 8.5894888e-39
0.021874228 -0.031627525 0.55299997 8.3129061e-39
0.023776332 -0.031627525 0.55299997 7.9434117e-39
0.025771305 -0.031741913 0.55500001 7.666829e-39
0.027680323 -0.031741913 0.55500001 7.3906121e-39
0.029855875 -0.032027874 0.56 6.560857e-39
0.031782053 -0.032027874 0.56 1.5398783e-38
0.033828616 -0.032142259 0.56199998 1.632074e-38
0.035888944 -0.032256648 0.56400001 1.6134929e-38
0.037895951 -0.032313839 0.565 1.5950538e-38
-0.019936031 -0.033483703 0.55199999 1.5689599e-38
-0.018037349 -0.033483703 0.55199999 1.5043549e-38
-0.0047294768 -0.033362385 0.55000001 1.5319788e-38
-0.0028376933 -0.033362385 0.55000001 1.5411242e-38
-0.00094590971 -0.033362385 0.55000001 1.5780025e-38
0.00094759348 -0.03342304 0.551 1.5411629e-38
0.0028480121 -0.033483703 0.55199999 1.412089e-38
0.0047466746 -0.033483703 0.55199999 1.3018099e-38
0.0066573755 -0.033544358 0.55299997 1.2096143e-38
0.0085439999 -0.033483703 0.55199999 1.1357146e-38
0.010442663 -0.033483703 0.55199999 1.0711776e-38
0.012341325 -0.033483703 0.55199999 9.8820128e-39
0.014265784 -0.033544358 0.55299997 1.0066404e-38
0.01619716 -0.03360502 0.55400002 1.0065011e-38
0.018102702 -0.03360502 0.55400002 9.5118374e-39
0.019972127 -0.033544358 0.55299997 9.420711e-39
0.021834675 -0.033483703 0.55199999 9.1441241e-39
0.023733338 -0.033483703 0.55199999 8.7742359e-39
0.025771305 -0.033665679 0.55500001 8.405459e-39
0.027680323 -0.033665679 0.55500001 7.9434117e-39
0.029855875 -0.03396897 0.56 7.5746348e-39
0.031782053 -0.03396897 0.56 6.3775447e-39
0.033828616 -0.034090288 0.56199998 1.1448288e-38
0.035888944 -0.03421161 0.56400001 1.586049e-38
0.037895951 -0.034272265 0.565 1.586049e-38
-0.02369036 -0.035332941 0.551 1.5504544e-38
-0.021755582 -0.035268817 0.55000001 1.5043186e-38
-0.019791566 -0.035140567 0.54799998 1.495099e-38
-0.017873967 -0.035076443 0.54699999 1.5411978e-38
-0.015992504 -0.035076443 0.54699999 1.5688565e-38
-0.014111038 -0.035076443 0.54699999 1.550453e-38
-0.012229556 -0.035076443 0.54699999 1.5596725e-38
-0.010404845 -0.035268817 0.55000001 1.5412321e-38
-0.0084975827 -0.035204694 0.54900002 1.5504517e-38
-0.0066092215 -0.035204694 0.54900002 1.504428e-38
-0.0047208774 -0.035204694 0.54900002 1.5320867e-38
-0.0028376933 -0.035268817 0.55000001 1.5597438e-38
-0.00094590971 -0.035268817 0.55000001 1.5689634e-38
0.00094759348 -0.035332941 0.551 1.5597818e-38
0.0028480121 -0.035397068 0.55199999 1.5321231e-38
0.0047466746 -0.035397068 0.55199999 1.4860242e-38
0.0066573755 -0.035461191 0.55299997 1.3938286e-38
0.0085130436 -0.035268817 0.55000001 1.3016652e-38
0.010404827 -0.035268817 0.55000001 1.1264935e-38
0.012296611 -0.035268817 0.55000001 1.098836e-38
0.014188394 -0.035268817 0.55000001 1.0066404e-38
0.016080214 -0.035268817 0.55000001 9.3281188e-39
0.018037349 -0.035397068 0.55199999 9.420313e-39
0.019936012 -0.035397068 0.55199999 9.4185193e-39
0.021795118 -0.035332941 0.551 9.5107136e-39
0.023690341 -0.035332941 0.551 9.32776e-39
0.025678433 -0.035461191 0.55299997 9.1433716e-39
0.027530698 -0.035397068 0.55199999 9.603984e-39
0.029429361 -0.035397068 0.55199999 9.5117898e-39
0.031328022 -0.035397068 0.55199999 9.2341323e-39
0.033226687 -0.035397068 0.55199999 8.4043828e-39
0.03518898 -0.035461191 0.55299997 9.6933574e-39
0.037091084 -0.035461191 0.55299997 1.3565574e-38
-0.025632037 -0.037310407 0.55199999 1.5319419e-38
-0.02369036 -0.037242815 0.551 1.5227224e-38
-0.021755582 -0.037175223 0.55000001 1.4674766e-38
-0.019791566 -0.03704004 0.54799998 1.4859157e-38
-0.017873967 -0.036972452 0.54699999 1.4951356e-38
-0.015992504 -0.036972452 0.54699999 1.5781116e-38
-0.014111038 -0.036972452 0.54699999 1.5781114e-38
-0.012229556 -0.036972452 0.54699999 1.5781114e-38
-0.010385927 -0.037107635 0.54900002 1.5780748e-38
-0.0084975827 -0.037107635 0.54900002 1.5780748e-38
-0.0066092215 -0.037107635 0.54900002 1.5504179e-38
-0.004712278 -0.03704004 0.54799998 1.5504179e-38
-0.002827374 -0.03704004 0.54799998 1.541306e-38
-0.00094246998 -0.03704004 0.54799998 1.5505255e-38
0.00094587373 -0.037175223 0.55000001 1.5688565e-38
0.0028531714 -0.037377998 0.55299997 1.5596369e-38
0.0047552735 -0.037377998 0.55299997 1.5413403e-38
0.0065971822 -0.03704004 0.54799998 1.4860229e-38
0.0084820865 -0.03704004 0.54799998 1.4951353e-38
0.01036699 -0.03704004 0.54799998 1.4213788e-38
0.012229538 -0.036972452 0.54699999 1.2647503e-38
0.014085205 -0.03690486 0.546 1.1356765e-38
0.015963266 -0.03690486 0.546 1.1080885e-38
0.018037349 -0.037310407 0.55199999 1.0251137e-38
0.019936012 -0.037310407 0.55199999 9.6994068e-39
0.021795118 -0.037242815 0.551 1.0252572e-38
0.023690341 -0.037242815 0.551 1.1356077e-38
0.025678433 -0.037377998 0.55299997 1.2462424e-38
0.027381076 -0.037107635 0.54900002 1.3013815e-38
0.02926942 -0.037107635 0.54900002 1.3106011e-38
0.031214518 -0.037175223 0.55000001 1.2735424e-38
0.033106301 -0.037175223 0.55000001 1.2827619e-38
0.035125349 -0.037310407 0.55199999 1.2458854e-38
0.037091084 -0.037377998 0.55299997 1.1352506e-38
0.038993184 -0.037377998 0.55299997 1.4295621e-38
0.041339036 -0.037783548 0.55900002 1.5401968e-38
0.043261774 -0.037783548 0.55900002 1.5673938e-38
-0.025632037 -0.039223775 0.55199999 1.4951353e-38
-0.02369036 -0.039152715 0.551 1.4674766e-38
-0.021755582 -0.039081659 0.55000001 1.4674413e-38
-0.019791566 -0.038939543 0.54799998 1.4397826e-38
-0.017873967 -0.038868487 0.54699999 1.5043195e-38
-0.015992504 -0.038868487 0.54699999 1.5688565e-38
-0.014111038 -0.038868487 0.54699999 1.5965517e-38
-0.012229556 -0.038868487 0.54699999 1.6057713e-38
-0.010348091 -0.038868487 0.54699999 1.5965868e-38
-0.0084666265 -0.038868487 0.54699999 1.6150259e-38
-0.0065971822 -0.038939543 0.54799998 1.5872959e-38
-0.0047036796 -0.038868487 0.54699999 1.5596372e-38
-0.0028170552 -0.038797431 0.546 1.5688202e-38
-0.00093903032 -0.038797431 0.546 1.5503811e-38
0.00094587373 -0.039081659 0.55000001 1.5503825e-38
0.0028376933 -0.039081659 0.55000001 1.5411629e-38
0.0047294768 -0.039081659 0.55000001 1.5320148e-38
0.006585144 -0.038868487 0.54699999 1.5135757e-38
0.0084666088 -0.038868487 0.54699999 1.4952775e-38
0.010329155 -0.038797431 0.546 1.4676188e-38
0.012162467 -0.038655318 0.54400003 1.4859132e-38
0.014007813 -0.038584255 0.54299998 1.4305958e-38
0.015875556 -0.038584255 0.54299998 1.4030431e-38
0.017743262 -0.038584255 0.54299998 1.3661648e-38
0.019610967 -0.038584255 0.54299998 1.329286e-38
0.021241341 -0.03815791 0.537 1.3200665e-38
0.023561355 -0.038939543 0.54799998 1.4028315e-38
0.02544626 -0.038939543 0.54799998 1.476588e-38
0.027331199 -0.038939543 0.54799998 1.4580086e-38
0.029216103 -0.038939543 0.54799998 1.4303499e-38
0.031101007 -0.038939543 0.54799998 1.4671182e-38
0.033106301 -0.039081659 0.55000001 1.4302399e-38
0.035125349 -0.039223775 0.55199999 1.4210217e-38
0.037024014 -0.039223775 0.55199999 1.3564848e-38
0.038922675 -0.039223775 0.55199999 1.2276262e-38
0.041339036 -0.03972118 0.55900002 1.3382609e-38
0.043261774 -0.03972118 0.55900002 1.5675017e-38
0.045184515 -0.03972118 0.55900002 1.5582821e-38
-0.025678469 -0.041211639 0.55299997 1.4674766e-38
-0.02369036 -0.04106259 0.551 1.458257e-38
-0.021795137 -0.04106259 0.551 1.430563e-38
-0.019827683 -0.040913545 0.54900002 1.4490022e-38
-0.017906643 -0.040839016 0.54799998 1.5042835e-38
-0.015992504 -0.040764496 0.54699999 1.57804e-38
-0.014111038 -0.040764496 0.54699999 1.5597099e-38
-0.012207198 -0.040689971 0.546 1.5965882e-38
-0.010291338 -0.040540926 0.54400003 1.6241393e-38
-0.0084201926 -0.040540926 0.54400003 1.6149197e-38
-0.006536989 -0.040466398 0.54299998 1.6793853e-38
-0.0046692831 -0.040466398 0.54299998 1.6056288e-38
-0.0028015769 -0.040466398 0.54299998 1.5965522e-38
-0.00093215104 -0.040391877 0.542 1.5504544e-38
0.0009321156 -0.040391877 0.542 1.5411629e-38
0.0027964176 -0.040391877 0.542 1.5227238e-38
0.006585144 -0.040764496 0.54699999 1.5134668e-38
0.0084666088 -0.040764496 0.54699999 1.5044618e-38
0.010310238 -0.040615451 0.54500002 1.5597792e-38
0.012140107 -0.040466398 0.54299998 1.642647e-38
0.01395622 -0.040317353 0.54100001 1.6979644e-38
0.015817082 -0.040317353 0.54100001 1.7257335e-38
0.017677909 -0.040317353 0.54100001 1.7349531e-38
0.019394273 -0.040019259 0.537 1.7533912e-38
0.021241341 -0.040019259 0.537 1.6796347e-38
0.02308841 -0.040019259 0.537 1.6609798e-38
0.02544626 -0.040839016 0.54799998 1.5687842e-38
0.027331199 -0.040839016 0.54799998 1.4212359e-38
0.029216103 -0.040839016 0.54799998 1.4120163e-38
0.031101007 -0.040839016 0.54799998 1.4302396e-38
0.033106301 -0.040988065 0.55000001 1.4025809e-38
0.035061717 -0.04106259 0.551 1.356664e-38
0.03695694 -0.04106259 0.551 1.3105662e-38
0.038852163 -0.04106259 0.551 1.2829435e-38
0.041265085 -0.041584257 0.55800003 1.273724e-38
0.043184385 -0.041584257 0.55800003 1.4112697e-38
0.045103688 -0.041584257 0.55800003 1.4850262e-38
-0.029642617 -0.043362439 0.55599999 1.4858797e-38
-0.027730197 -0.043362439 0.55599999 1.4950993e-38
-0.025817774 -0.043362439 0.55599999 1.4581857e-38
-0.02369036 -0.04297249 0.551 1.4397466e-38
-0.021795137 -0.04297249 0.551 1.430563e-38
-0.019827683 -0.042816512 0.54900002 1.4213435e-38
-0.01793932 -0.042816512 0.54900002 1.4674419e-38
-0.016050976 -0.042816512 0.54900002 1.485881e-38
-0.014162633 -0.042816512 0.54900002 1.5043198e-38
-0.012140125 -0.042348571 0.54299998 1.5780763e-38
-0.010272419 -0.042348571 0.54299998 1.5873336e-38
-0.0083892355 -0.042270582 0.542 1.5688945e-38
-0.0065249507 -0.042270582 0.542 1.6148814e-38
-0.0046606841 -0.042270582 0.542 1.6425401e-38
-0.0027964176 -0.042270582 0.542 1.5504544e-38
-0.00093043112 -0.042192593 0.54100001 1.5688935e-38
0.00093039579 -0.042192593 0.54100001 1.5596357e-38
0.002791258 -0.042192593 0.54100001 1.5596357e-38
0.0046090903 -0.041802641 0.53600001 1.5965868e-38
0.006561067 -0.042504553 0.54500002 1.6242455e-38
0.0084356526 -0.042504553 0.54500002 1.7716535e-38
0.010310238 -0.042504553 0.54500002 1.7993122e-38
0.012073036 -0.042114604 0.54000002 1.7901603e-38
0.013904626 -0.042036608 0.53899997 1.7532821e-38
0.015758609 -0.042036608 0.53899997 1.7440272e-38
0.017612556 -0.042036608 0.53899997 1.7624663e-38
0.019394273 -0.04188063 0.537 1.6701976e-38
0.021241341 -0.04188063 0.537 1.6240997e-38
0.02308841 -0.04188063 0.537 1.6332845e-38
0.024935478 -0.04188063 0.537 1.7254802e-38
0.02688233 -0.042036608 0.53899997 1.4675116e-38
0.028789593 -0.042114604 0.54000002 1.3199986e-38
0.031214518 -0.042894501 0.55000001 1.3749941e-38
0.032865524 -0.042582542 0.546 1.3473354e-38
0.034743551 -0.042582542 0.546 1.3197858e-38
0.036688648 -0.042660531 0.54699999 1.2644684e-38
0.038711138 -0.042816512 0.54900002 1.3012013e-38
0.040673472 -0.042894501 0.55000001 1.2643231e-38
0.04295221 -0.04328445 0.55500001 1.2733665e-38
0.044942021 -0.043362439 0.55599999 1.4485382e-38
0.047107257 -0.043596413 0.55900002 1.5304812e-38
-0.029589305 -0.04520819 0.55500001 1.4490738e-38
-0.027680323 -0.04520819 0.55500001 1.4582933e-38
-0.025771342 -0.04520819 0.55500001 1.4489673e-38
-0.02369036 -0.044882361 0.551 1.4213086e-38
-0.021795137 -0.044882361 0.551 1.4213438e-38
-0.019899914 -0.044882361 0.551 1.4121242e-38
-0.018004673 -0.044882361 0.551 1.4029774e-38
-0.015787845 -0.04398635 0.54000002 1.4398556e-38
-0.013982053 -0.044149257 0.542 1.4951366e-38
-0.012117769 -0.044149257 0.542 1.5412344e-38
-0.010234583 -0.044067804 0.54100001 1.6703109e-38
-0.0083737569 -0.044067804 0.54100001 1.6795305e-38
-0.006512912 -0.044067804 0.54100001 1.70708e-38
-0.0046520848 -0.044067804 0.54100001 1.6056648e-38
-0.002791258 -0.044067804 0.54100001 1.6149896e-38
-0.00092871138 -0.04398635 0.54000002 1.6887461e-38
0.00092179701 -0.043660522 0.53600001 1.6888193e-38
0.0027654611 -0.043660522 0.53600001 1.7441366e-38
0.0046090903 -0.043660522 0.53600001 1.826934e-38
0.0064527192 -0.043660522 0.53600001 1.7992754e-38
0.0082963482 -0.043660522 0.53600001 1.6887461e-38
0.010139978 -0.043660522 0.53600001 1.6334287e-38
0.011983606 -0.043660522 0.53600001 1.6610502e-38
0.013827235 -0.043660522 0.53600001 1.559635e-38
0.015670899 -0.043660522 0.53600001 1.5594927e-38
0.017514529 -0.043660522 0.53600001 1.3658819e-38
0.019358158 -0.043660522 0.53600001 1.3108119e-38
0.021201788 -0.043660522 0.53600001 1.4491053e-38
0.023045415 -0.043660522 0.53600001 1.3751683e-38
0.024889044 -0.043660522 0.53600001 1.3936074e-38
0.026782582 -0.043741979 0.537 1.366163e-38
0.028736278 -0.043904889 0.53899997 1.3753826e-38
0.03064698 -0.04398635 0.54000002 1.2093639e-38
0.032865524 -0.044475086 0.546 1.2462421e-38
0.034743551 -0.044475086 0.546 1.2184045e-38
0.036688648 -0.04455654 0.54699999 1.2184045e-38
0.038570113 -0.04455654 0.54699999 1.1999298e-38
0.040673472 -0.044800907 0.55000001 1.2091493e-38
0.042797424 -0.045045275 0.55299997 1.1813114e-38
0.044861194 -0.04520819 0.55500001 1.3472636e-38
-0.031555038 -0.047216874 0.55599999 1.714874e-38
-0.029589305 -0.047131956 0.55500001 1.495064e-38
-0.027680323 -0.047131956 0.55500001 1.4397466e-38
-0.025771342 -0.047131956 0.55500001 1.4029409e-38
-0.02369036 -0.046792261 0.551 1.3845018e-38
-0.021795137 -0.046792261 0.551 1.3936502e-38
-0.019899914 -0.046792261 0.551 1.4028697e-38
-0.017808616 -0.046282731 0.54500002 1.3844669e-38
-0.015787845 -0.045858122 0.54000002 1.402906e-38
-0.013930459 -0.045858122 0.54000002 1.4027965e-38
-0.012073054 -0.045858122 0.54000002 1.3935769e-38
-0.010215666 -0.045858122 0.54000002 1.6239607e-38
-0.0083737569 -0.04594304 0.54100001 1.5594238e-38
-0.0065008737 -0.045858122 0.54000002 1.6519797e-38
-0.004634887 -0.045773193 0.53899997 1.6980775e-38
-0.0027809392 -0.045773193 0.53899997 1.7623245e-38
-0.00092355185 -0.04560335 0.537 1.6793484e-38
0.00092179701 -0.045518428 0.53600001 1.7715453e-38
0.0027654611 -0.045518428 0.53600001 1.6885693e-38
0.0046090903 -0.045518428 0.53600001 1.596441e-38
0.0064527192 -0.045518428 0.53600001 1.6148802e-38
0.008265391 -0.045348581 0.53399998 1.6241016e-38
0.010102141 -0.045348581 0.53399998 1.5226864e-38
0.01193889 -0.045348581 0.53399998 1.3844247e-38
0.013801438 -0.04543351 0.53500003 1.3844247e-38
0.015670899 -0.045518428 0.53600001 1.4396034e-38
0.017514529 -0.045518428 0.53600001 1.2920904e-38
0.019358158 -0.045518428 0.53600001 1.3658836e-38
0.021201788 -0.045518428 0.53600001 1.3474445e-38
0.023045415 -0.045518428 0.53600001 1.4025421e-38
0.024889044 -0.045518428 0.53600001 1.2642487e-38
0.026782582 -0.04560335 0.537 1.4578598e-38
0.028682962 -0.045688272 0.53799999 1.494738e-38
0.030590225 -0.045773193 0.53899997 1.1632285e-38
0.032865524 -0.046367653 0.546 1.1355698e-38
0.034743551 -0.046367653 0.546 1.1722338e-38
0.036621574 -0.046367653 0.546 1.1722338e-38
0.038570113 -0.046452574 0.54699999 1.1814183e-38
0.040525563 -0.046537496 0.54799998 1.1629792e-38
0.042797424 -0.046962108 0.55299997 1.1536176e-38
0.044861194 -0.047131956 0.55500001 1.2089349e-38
0.047022987 -0.047386725 0.55800003 1.5581036e-38
-0.029589305 -0.049055692 0.55500001 1.4213791e-38
-0.027680323 -0.049055692 0.55500001 1.4213791e-38
-0.025724905 -0.048967306 0.55400002 1.3844672e-38
-0.02369036 -0.048702136 0.551 1.3475889e-38
-0.021795137 -0.048702136 0.551 1.384395e-38
-0.019899914 -0.048702136 0.551 1.3567363e-38
-0.017808616 -0.048171811 0.54500002 1.3475521e-38
-0.015904794 -0.048083421 0.54400003 1.3567716e-38
-0.013930459 -0.047729865 0.54000002 1.3568085e-38
-0.012073054 -0.047729865 0.54000002 1.3383694e-38
-0.010215666 -0.047729865 0.54000002 1.4213464e-38
-0.0083582783 -0.047729865 0.54000002 1.5227616e-38
-0.0064888345 -0.047641471 0.53899997 1.5134678e-38
-0.004634887 -0.047641471 0.53899997 1.4950287e-38
-0.0027809392 -0.047641471 0.53899997 1.559529e-38
-0.00092355185 -0.047464699 0.537 1.4673334e-38
0.00092351669 -0.047464699 0.537 1.3569838e-38
0.0027654611 -0.047376309 0.53600001 1.4215207e-38
0.0046090903 -0.047376309 0.53600001 1.4858431e-38
0.0064286413 -0.047199529 0.53399998 1.4028671e-38
0.008265391 -0.047199529 0.53399998 1.4210528e-38
0.010102141 -0.047199529 0.53399998 1.374955e-38
0.01193889 -0.047199529 0.53399998 1.2185847e-38
0.013801438 -0.047287922 0.53500003 1.2370238e-38
0.015670899 -0.047376309 0.53600001 1.2737184e-38
0.017514529 -0.047376309 0.53600001 1.2460597e-38
0.019358158 -0.047376309 0.53600001 1.2185501e-38
0.021201788 -0.047376309 0.53600001 1.0065001e-38
0.023045415 -0.047376309 0.53600001 1.1263858e-38
0.024889044 -0.047376309 0.53600001 1.3107771e-38
0.026782582 -0.047464699 0.537 1.2182953e-38
0.028682962 -0.047553085 0.53799999 1.2828323e-38
0.03053347 -0.047553085 0.53799999 1.172414e-38
0.032564558 -0.047818255 0.54100001 1.1078771e-38
0.034679919 -0.048171811 0.54500002 1.1445741e-38
0.036554504 -0.048171811 0.54500002 1.1445741e-38
0.038499601 -0.048260197 0.546 1.1353202e-38
0.040451616 -0.048348583 0.54699999 1.1261007e-38
0.04295221 -0.049055692 0.55500001 1.135215e-38
0.044861194 -0.049055692 0.55500001 1.1813128e-38
0.047022987 -0.049320862 0.55800003 1.5397364e-38
-0.031555038 -0.051071312 0.55599999 1.779411e-38
-0.029535988 -0.050887603 0.55400002 1.4120523e-38
-0.027630446 -0.050887603 0.55400002 1.3659545e-38
-0.025678469 -0.050795749 0.55299997 1.3751755e-38
-0.023733355 -0.050703894 0.55199999 1.3659559e-38
-0.021834692 -0.050703894 0.55199999 1.3475168e-38
-0.019755451 -0.050244618 0.54699999 1.3290776e-38
-0.017808616 -0.050060913 0.54500002 1.2830514e-38
-0.015875556 -0.0498772 0.54299998 1.292271e-38
-0.013982053 -0.049785346 0.542 1.3107107e-38
-0.01209541 -0.049693491 0.54100001 1.2922716e-38
-0.010215666 -0.049601637 0.54000002 1.2002177e-38
-0.0083582783 -0.049601637 0.54000002 1.3108525e-38
-0.0064767958 -0.049417924 0.53799999 1.3754278e-38
-0.0046262876 -0.049417924 0.53799999 1.3201105e-38
-0.0027706204 -0.04932607 0.537 1.3384015e-38
-0.00092183205 -0.049234219 0.53600001 1.3660602e-38
0.00092179701 -0.049234219 0.53600001 1.3844277e-38
0.0027654611 -0.049234219 0.53600001 1.2737929e-38
0.0046090903 -0.049234219 0.53600001 1.2647156e-38
0.0064286413 -0.049050502 0.53399998 1.2278373e-38
0.008265391 -0.049050502 0.53399998 1.2276556e-38
0.010083223 -0.048958652 0.53299999 1.1446795e-38
0.011916532 -0.048958652 0.53299999 1.1539045e-38
0.01377564 -0.049050502 0.53399998 1.1631241e-38
0.015612424 -0.049050502 0.53399998 8.8700175e-39
0.017481852 -0.049142364 0.53500003 1.1543673e-38
0.019358158 -0.049234219 0.53600001 1.2829451e-38
0.021320451 -0.049509779 0.53899997 1.0616756e-38
0.02308841 -0.04932607 0.537 1.2090054e-38
0.024935478 -0.04932607 0.537 1.1997859e-38
0.026782582 -0.04932607 0.537 1.1078045e-38
0.028682962 -0.049417924 0.53799999 1.1170241e-38
0.03053347 -0.049417924 0.53799999 1.2091464e-38
0.032564558 -0.049693491 0.54100001 1.0985116e-38
0.034679919 -0.050060913 0.54500002 1.1076959e-38
0.036554504 -0.050060913 0.54500002 1.1353546e-38
0.038429093 -0.050060913 0.54500002 1.0984776e-38
0.040377662 -0.050152767 0.546 1.0984776e-38
0.042255685 -0.050152767 0.546 1.0524533e-38
0.045103688 -0.051255025 0.55800003 1.0708925e-38
0.047022987 -0.051255025 0.55800003 1.4663411e-38
-0.029535988 -0.052807905 0.55400002 1.2465347e-38
-0.027580572 -0.052712582 0.55299997 1.2741934e-38
-0.025678469 -0.052712582 0.55299997 1.3382972e-38
-0.02369036 -0.052521937 0.551 1.3382972e-38
-0.02167647 -0.052235976 0.54799998 1.2921994e-38
-0.019755451 -0.052140657 0.54699999 1.2921994e-38
-0.017841291 -0.052045334 0.546 1.2738324e-38
-0.015875556 -0.05175937 0.54299998 1.2738324e-38
-0.013982053 -0.051664051 0.542 1.255393e-38
-0.01209541 -0.051568728 0.54100001 1.255393e-38
-0.010215666 -0.051473409 0.54000002 1.2552861e-38
-0.0083582783 -0.051473409 0.54000002 1.3013839e-38
-0.0064647575 -0.051187444 0.537 1.3014545e-38
-0.0046176892 -0.051187444 0.537 1.292235e-38
-0.0027654611 -0.051092125 0.53600001 1.2370241e-38
-0.00092183205 -0.051092125 0.53600001 1.2646828e-38
0.00092179701 -0.051092125 0.53600001 1.2553541e-38
0.0027603016 -0.050996803 0.53500003 1.2369149e-38
0.0046004909 -0.050996803 0.53500003 1.2460259e-38
0.0064166025 -0.050806157 0.53299999 1.2091477e-38
0.0082499124 -0.050806157 0.53299999 1.1354982e-38
0.010083223 -0.050806157 0.53299999 1.0433026e-38
0.011916532 -0.050806157 0.53299999 1.2734695e-38
0.013749843 -0.050806157 0.53299999 1.2181521e-38
0.015583187 -0.050806157 0.53299999 9.9731813e-39
0.017416498 -0.050806157 0.53299999 1.1079529e-38
0.019322041 -0.050996803 0.53500003 1.1077697e-38
0.021201788 -0.051092125 0.53600001 1.0524524e-38
0.02308841 -0.051187444 0.537 1.061564e-38
0.024935478 -0.051187444 0.537 1.0892227e-38
0.026782582 -0.051187444 0.537 1.089258e-38
0.028682962 -0.051282763 0.53799999 1.153795e-38
0.03053347 -0.051282763 0.53799999 1.1077662e-38
0.032444172 -0.051378082 0.53899997 1.1077662e-38
0.034361757 -0.051473409 0.54000002 1.0708176e-38
0.036353286 -0.051664051 0.542 1.0708176e-38
0.038429093 -0.051950015 0.54500002 1.0615277e-38
0.040303711 -0.051950015 0.54500002 1.0707473e-38
-0.027580572 -0.054629385 0.55299997 1.3104994e-38
-0.025632037 -0.054530602 0.55199999 1.347481e-38
-0.02369036 -0.054431811 0.551 1.3198223e-38
-0.02167647 -0.054135449 0.54799998 1.2646136e-38
-0.019755451 -0.054036662 0.54699999 1.255394e-38
-0.017841291 -0.053937878 0.546 1.2185511e-38
-0.015875556 -0.053641513 0.54299998 1.2369902e-38
-0.013982053 -0.053542726 0.542 1.2369888e-38
-0.01209541 -0.053443942 0.54100001 1.2277692e-38
-0.010215666 -0.053345155 0.54000002 1.227663e-38
-0.0083582783 -0.053345155 0.54000002 1.1815652e-38
-0.0064647575 -0.05304879 0.537 1.1999648e-38
-0.0046090903 -0.052950006 0.53600001 1.1907452e-38
-0.0027654611 -0.052950006 0.53600001 1.2184045e-38
-0.00092011219 -0.052851219 0.53500003 1.2368436e-38
0.0009200772 -0.052851219 0.53500003 1.1816336e-38
0.0027603016 -0.052851219 0.53500003 1.1908531e-38
0.0045918915 -0.052752424 0.53399998 1.1631957e-38
0.0064166025 -0.052653641 0.53299999 1.0986588e-38
0.0082499124 -0.052653641 0.53299999 1.1170966e-38
0.010083223 -0.052653641 0.53299999 1.0709988e-38
0.011916532 -0.052653641 0.53299999 1.1538278e-38
0.013749843 -0.052653641 0.53299999 1.1538278e-38
0.015583187 -0.052653641 0.53299999 1.034013e-38
0.017416498 -0.052653641 0.53299999 1.0063543e-38
0.019285925 -0.052752424 0.53399998 1.0708209e-38
0.021201788 -0.052950006 0.53600001 1.0431622e-38
0.02308841 -0.05304879 0.537 1.0616366e-38
0.024935478 -0.05304879 0.537 1.0708562e-38
0.026832454 -0.053147577 0.53799999 1.0616363e-38
0.028682962 -0.053147577 0.53799999 1.0524168e-38
0.03053347 -0.053147577 0.53799999 1.0707839e-38
0.032444172 -0.053246364 0.53899997 1.0154665e-38
0.034361757 -0.053345155 0.54000002 1.0155368e-38
0.036353286 -0.053542726 0.542 1.033976e-38
0.038429093 -0.053839091 0.54500002 9.971347e-39
0.040303711 -0.053839091 0.54500002 9.6947601e-39
-0.025632037 -0.056443967 0.55199999 1.3106035e-38
-0.02369036 -0.056341711 0.551 1.2829448e-38
-0.021795137 -0.056341711 0.551 1.2461382e-38
-0.019899914 -0.056341711 0.551 1.2369186e-38
-0.017743262 -0.055523682 0.54299998 1.2185867e-38
-0.015875556 -0.055523682 0.54299998 1.2185867e-38
-0.013982053 -0.055421431 0.542 1.190855e-38
-0.01209541 -0.055319179 0.54100001 1.2092941e-38
-0.010215666 -0.055216927 0.54000002 1.1908198e-38
-0.0083582783 -0.055216927 0.54000002 1.1816002e-38
-0.0064647575 -0.054910164 0.537 1.1723444e-38
-0.0046090903 -0.054807913 0.53600001 1.1446857e-38
-0.0027654611 -0.054807913 0.53600001 1.1816354e-38
-0.00092011219 -0.054705661 0.53500003 1.2092941e-38
0.0009200772 -0.054705661 0.53500003 1.1724146e-38
0.002755142 -0.054603402 0.53399998 1.1170972e-38
0.0045918915 -0.054603402 0.53399998 1.0895474e-38
0.0064166025 -0.05450115 0.53299999 1.1172061e-38
0.0082499124 -0.05450115 0.53299999 1.1262812e-38
0.010102141 -0.054603402 0.53399998 1.0340855e-38
0.011916532 -0.05450115 0.53299999 9.8805835e-39
0.013749843 -0.05450115 0.53299999 1.0525953e-38
0.015583187 -0.05450115 0.53299999 9.3285013e-39
0.017416498 -0.05450115 0.53299999 1.0711436e-38
0.019249808 -0.05450115 0.53299999 1.0891521e-38
0.021122674 -0.054603402 0.53399998 1.070713e-38
0.023045415 -0.054807913 0.53600001 1.0432328e-38
0.024889044 -0.054807913 0.53600001 1.0340132e-38
0.026782582 -0.054910164 0.537 1.0707839e-38
0.028682962 -0.055012416 0.53799999 1.0800034e-38
0.030590225 -0.055114668 0.53899997 9.6958489e-39
0.032504369 -0.055216927 0.54000002 9.6036533e-39
0.034425385 -0.055319179 0.54100001 9.971347e-39
0.036353286 -0.055421431 0.542 9.8791514e-39
0.038429093 -0.055728193 0.54500002 1.0061748e-38
0.040303711 -0.055728193 0.54500002 9.7851607e-39
-0.025585601 -0.058251586 0.551 1.2461028e-38
-0.02369036 -0.058251586 0.551 1.2737615e-38
-0.021795137 -0.058251586 0.551 1.2369542e-38
-0.019899914 -0.058251586 0.551 1.2092955e-38
-0.017743262 -0.057405826 0.54299998 1.2092589e-38
-0.015875556 -0.057405826 0.54299998 1.2092589e-38
-0.013982053 -0.057300109 0.542 1.1908561e-38
-0.012117769 -0.057300109 0.542 1.1816365e-38
-0.010253502 -0.057300109 0.542 1.1632327e-38
-0.0083892355 -0.057300109 0.542 1.1540131e-38
-0.0064647575 -0.056771509 0.537 1.1447932e-38
-0.0046176892 -0.056771509 0.537 1.126354e-38
-0.0027706204 -0.056771509 0.537 1.1355726e-38
-0.00092183205 -0.056665793 0.53600001 1.1540117e-38
0.0009200772 -0.056560073 0.53500003 1.0987323e-38
0.002755142 -0.056454349 0.53399998 1.126391e-38
0.0045918915 -0.056454349 0.53399998 1.1171688e-38
0.0064166025 -0.056348629 0.53299999 1.0802906e-38
0.0082499124 -0.056348629 0.53299999 1.1078771e-38
0.010102141 -0.056454349 0.53399998 1.0433401e-38
0.01193889 -0.056454349 0.53399998 1.1353595e-38
0.013749843 -0.056348629 0.53299999 1.0984812e-38
0.015583187 -0.056348629 0.53299999 1.0340153e-38
0.017416498 -0.056348629 0.53299999 1.0432349e-38
0.019249808 -0.056348629 0.53299999 1.0248294e-38
0.021122674 -0.056454349 0.53399998 1.0709272e-38
0.023045415 -0.056665793 0.53600001 1.0707117e-38
0.024889044 -0.056665793 0.53600001 1.0246139e-38
0.026782582 -0.056771509 0.537 1.0800034e-38
0.028682962 -0.056877229 0.53799999 1.1168817e-38
0.03064698 -0.057088673 0.54000002 9.8791808e-39
0.032564558 -0.057194389 0.54100001 9.7869852e-39
0.034425385 -0.057194389 0.54100001 1.015396e-38
0.036420356 -0.057405826 0.54299998 1.0061764e-38
0.038429093 -0.057617273 0.54500002 9.8770228e-39
-0.025585601 -0.060161486 0.551 1.1907522e-38
-0.02369036 -0.060161486 0.551 1.1815327e-38
-0.021834692 -0.060270675 0.55199999 1.2184795e-38
-0.019936031 -0.060270675 0.55199999 1.2092599e-38
-0.017743262 -0.059287999 0.54299998 1.1724519e-38
-0.015875556 -0.059287999 0.54299998 1.1724519e-38
-0.014007849 -0.059287999 0.54299998 1.1815999e-38
-0.012117769 -0.059178814 0.542 1.1355021e-38
-0.010253502 -0.059178814 0.542 1.1631244e-38
-0.0083892355 -0.059178814 0.542 1.1446853e-38
-0.0064888345 -0.058851253 0.53899997 1.1447559e-38
-0.0046176892 -0.058632884 0.537 1.1355363e-38
-0.0027706204 -0.058632884 0.537 1.1170982e-38
-0.00092183205 -0.0585237 0.53600001 1.1078786e-38
0.0009200772 -0.058414515 0.53500003 1.1448302e-38
0.0027603016 -0.058414515 0.53500003 1.126391e-38
0.0046004909 -0.058414515 0.53500003 1.1722711e-38
0.010121059 -0.058414515 0.53500003 1.0893651e-38
0.01193889 -0.058305323 0.53399998 1.0524868e-38
0.01377564 -0.058305323 0.53399998 1.0524868e-38
0.015583187 -0.058196139 0.53299999 1.0523815e-38
0.017416498 -0.058196139 0.53299999 1.0892597e-38
0.019249808 -0.058196139 0.53299999 1.0156104e-38
0.021122674 -0.058305323 0.53399998 1.0801473e-38
0.023045415 -0.0585237 0.53600001 1.0063906e-38
0.024889044 -0.0585237 0.53600001 9.9717099e-39
0.026782582 -0.058632884 0.537 1.0523442e-38
0.028682962 -0.058742069 0.53799999 9.8780724e-39
0.03064698 -0.058960445 0.54000002 9.9695716e-39
0.032564558 -0.05906963 0.54100001 9.8773759e-39
0.034425385 -0.05906963 0.54100001 9.8773731e-39
0.036487434 -0.059397191 0.54400003 9.8773731e-39
0.038429093 -0.059506375 0.54500002 9.7844642e-39
-0.017743262 -0.061170142 0.54299998 1.1814593e-38
-0.015875556 -0.061170142 0.54299998 1.1814593e-38
-0.014007849 -0.061170142 0.54299998 1.1355402e-38
-0.012140125 -0.061170142 0.54299998 1.098662e-38
-0.010272419 -0.061170142 0.54299998 1.1078813e-38
-0.0084047131 -0.061170142 0.54299998 1.1171008e-38
-0.0064888345 -0.060719531 0.53899997 1.1078786e-38
-0.004634887 -0.060719531 0.53899997 1.1078786e-38
-0.0027809392 -0.060719531 0.53899997 1.0618175e-38
-0.00092355185 -0.060494229 0.537 1.0341588e-38
0.00092351669 -0.060494229 0.537 1.1076991e-38
0.0027654611 -0.06038158 0.53600001 1.0984795e-38
0.0046090903 -0.06038158 0.53600001 1.0432673e-38
0.011961249 -0.060268927 0.53500003 1.0616366e-38
0.01377564 -0.060156271 0.53399998 9.9709967e-39
0.015612424 -0.060156271 0.53399998 1.0339437e-38
0.017416498 -0.060043618 0.53299999 1.0155046e-38
0.019249808 -0.060043618 0.53299999 9.6025771e-39
0.021122674 -0.060156271 0.53399998 9.6025771e-39
0.023045415 -0.06038158 0.53600001 1.0798616e-38
0.024889044 -0.06038158 0.53600001 1.0706421e-38
0.026782582 -0.060494229 0.537 9.5096794e-39
0.028682962 -0.060606882 0.53799999 9.0487013e-39
0.03064698 -0.060832191 0.54000002 9.5086102e-39
0.032564558 -0.06094484 0.54100001 9.5086102e-39
0.034489021 -0.061057489 0.542 9.325291e-39
0.036554504 -0.061395451 0.54500002 9.6018778e-39
0.038429093 -0.061395451 0.54500002 9.230594e-39
-0.01777594 -0.063168436 0.54400003 1.0430973e-38
-0.015904794 -0.063168436 0.54400003 1.1076342e-38
-0.014033648 -0.063168436 0.54400003 1.1074892e-38
-0.012117769 -0.062936194 0.542 1.1443674e-38
-0.010253502 -0.062936194 0.542 1.0799737e-38
-0.0083892355 -0.062936194 0.542 1.0984128e-38
-0.0065249507 -0.062936194 0.542 9.6054722e-39
-0.004634887 -0.062587835 0.53899997 1.0250842e-38
-0.0027809392 -0.062587835 0.53899997 1.0156856e-38
-0.00092355185 -0.062355604 0.537 9.5114871e-39
0.00092351669 -0.062355604 0.537 9.6029512e-39
0.01377564 -0.062007245 0.53399998 9.8766571e-39
0.015612424 -0.062007245 0.53399998 9.6915623e-39
0.017449174 -0.062007245 0.53399998 9.5993667e-39
0.019322041 -0.062123369 0.53500003 1.0060342e-38
0.021201788 -0.062239487 0.53600001 9.322777e-39
