# .PCD v0.7 - Point Cloud Data file format
VERSION 0.7
FIELDS x y z rgb
SIZE 4 4 4 4
TYPE F F F F
COUNT 1 1 1 1
WIDTH 794
HEIGHT 1
VIEWPOINT 0 0 0 1 0 0 0
POINTS 794
DATA ascii
0.0082963482 0.0065026479 0.53600001 1.7794447e-38
0.010139978 0.0065026479 0.53600001 1.7886643e-38
0.002791258 0.0046880688 0.54100001 1.780942e-38
0.0046434863 0.0046794033 0.54000002 1.7161201e-38
0.0065008737 0.0046794033 0.54000002 1.7437788e-38
0.0082963482 0.0046447408 0.53600001 1.715514e-38
0.010139978 0.0046447408 0.53600001 1.6970749e-38
0.011983606 0.0046447408 0.53600001 1.7610059e-38
-0.013827271 0.002786834 0.53600001 1.8346199e-38
0.00092867605 0.0028076314 0.54000002 1.7073287e-38
0.0027809392 0.0028024318 0.53899997 1.67967e-38
0.0046090903 0.002786834 0.53600001 1.762395e-38
0.0064527192 0.002786834 0.53600001 1.7531754e-38
0.0082963482 0.002786834 0.53600001 1.7528907e-38
0.010139978 0.002786834 0.53600001 1.6606951e-38
0.011983606 0.002786834 0.53600001 1.7519658e-38
-0.0082963658 0.00092895346 0.53600001 1.8904714e-38
-0.0027706204 0.0009306866 0.537 1.7809067e-38
-0.00092183205 0.00092895346 0.53600001 1.7716872e-38
0.00092179701 0.00092895346 0.53600001 1.6704152e-38
0.0027654611 0.00092895346 0.53600001 1.651976e-38
0.0046090903 0.00092895346 0.53600001 1.679454e-38
0.0064527192 0.00092895346 0.53600001 1.6241366e-38
0.0082963482 0.00092895346 0.53600001 1.587297e-38
0.010139978 0.00092895346 0.53600001 1.5319796e-38
0.011983606 0.00092895346 0.53600001 1.6141704e-38
-0.0082963658 -0.00092895346 0.53600001 1.7619333e-38
-0.0064527192 -0.00092895346 0.53600001 1.6979306e-38
-0.0046090903 -0.00092895346 0.53600001 1.670272e-38
-0.0027654611 -0.00092895346 0.53600001 1.6609792e-38
-0.00092183205 -0.00092895346 0.53600001 1.6517597e-38
0.00092179701 -0.00092895346 0.53600001 1.6332122e-38
0.0027654611 -0.00092895346 0.53600001 1.5778949e-38
0.0046090903 -0.00092895346 0.53600001 1.5320135e-38
0.0064527192 -0.00092895346 0.53600001 1.4859157e-38
0.0082963482 -0.00092895346 0.53600001 1.5134675e-38
0.010139978 -0.00092895346 0.53600001 1.4673697e-38
0.012050678 -0.00093415281 0.53899997 1.4212356e-38
-0.010139995 -0.002786834 0.53600001 1.6608743e-38
-0.0082963658 -0.002786834 0.53600001 1.6147765e-38
-0.0064527192 -0.002786834 0.53600001 1.596409e-38
-0.0046004909 -0.0027816347 0.53500003 1.5871894e-38
-0.0027603016 -0.0027816347 0.53500003 1.5412344e-38
-0.00092011219 -0.0027816347 0.53500003 1.5227952e-38
0.0009200772 -0.0027816347 0.53500003 1.4674766e-38
0.0027499825 -0.002771236 0.53299999 1.4766962e-38
0.0045746937 -0.0027660367 0.53200001 1.4672971e-38
0.0064045643 -0.0027660367 0.53200001 1.4211993e-38
0.008265391 -0.0027764351 0.53399998 1.4119062e-38
0.010139978 -0.002786834 0.53600001 1.3658083e-38
0.011983606 -0.002786834 0.53600001 1.3933604e-38
0.013853032 -0.0027920331 0.537 1.40258e-38
-0.010139995 -0.0046447408 0.53600001 1.5596372e-38
-0.0082963658 -0.0046447408 0.53600001 1.5780763e-38
-0.0064527192 -0.0046447408 0.53600001 1.5961305e-38
-0.0046004909 -0.0046360753 0.53500003 1.4854958e-38
-0.0027603016 -0.0046360753 0.53500003 1.5226534e-38
-0.00091667246 -0.0046187439 0.53299999 1.4304578e-38
0.0009166376 -0.0046187439 0.53299999 1.4304551e-38
0.0027448232 -0.0046100784 0.53200001 1.3935769e-38
0.0045660948 -0.0046014134 0.53100002 1.3659535e-38
0.006392526 -0.0046014134 0.53100002 1.2645383e-38
0.0082499124 -0.0046187439 0.53299999 1.2919183e-38
0.010121059 -0.0046360753 0.53500003 1.3380161e-38
0.011983606 -0.0046447408 0.53600001 1.3196435e-38
0.013827235 -0.0046447408 0.53600001 1.2735457e-38
0.015729371 -0.0046620718 0.53799999 1.5863342e-38
0.017612556 -0.0046707373 0.53899997 1.6877494e-38
-0.010139995 -0.0065026213 0.53600001 1.4951392e-38
-0.0082963658 -0.0065026213 0.53600001 1.7164087e-38
-0.0064527192 -0.0065026213 0.53600001 1.9455799e-38
-0.0046004909 -0.0064904899 0.53500003 1.5675778e-38
-0.0027499825 -0.0064662257 0.53299999 1.4027628e-38
-0.00091495266 -0.0064540943 0.53200001 1.3751041e-38
0.00091491785 -0.0064540943 0.53200001 1.3749929e-38
0.0027396639 -0.0064419629 0.53100002 1.3288951e-38
0.0045660948 -0.0064419629 0.53100002 1.2920155e-38
0.006392526 -0.0064419629 0.53100002 1.218259e-38
0.0082344348 -0.0064540943 0.53200001 1.5033231e-38
0.010102141 -0.0064783576 0.53399998 8.8561236e-39
0.011961249 -0.0064904899 0.53500003 1.3468371e-38
0.013827235 -0.0065026213 0.53600001 1.3744958e-38
0.015729371 -0.0065268846 0.53799999 1.3655621e-38
0.017612556 -0.006539016 0.53899997 1.6329295e-38
-0.012050696 -0.0084073218 0.53899997 1.6419708e-38
-0.010177829 -0.008391724 0.53799999 1.6239988e-38
-0.0083118435 -0.0083761262 0.537 1.0062881e-38
-0.0064527192 -0.0083605284 0.53600001 1.0055069e-38
-0.0046004909 -0.0083449306 0.53500003 1.466485e-38
-0.0027499825 -0.0083137341 0.53299999 1.3381896e-38
-0.00091495266 -0.0082981363 0.53200001 1.3105309e-38
0.00091491785 -0.0082981363 0.53200001 1.2828686e-38
0.0027396639 -0.0082825385 0.53100002 1.2367708e-38
0.0045660948 -0.0082825385 0.53100002 1.1445376e-38
0.006392526 -0.0082825385 0.53100002 1.1629767e-38
0.0082344348 -0.0082981363 0.53200001 7.7569213e-39
0.010102141 -0.0083293319 0.53399998 1.0474986e-40
0.011961249 -0.0083449306 0.53500003 1.1252452e-38
0.013827235 -0.0083605284 0.53600001 1.3926125e-38
0.015700135 -0.0083761262 0.537 1.2369515e-38
0.017612556 -0.0084073218 0.53899997 1.5688558e-38
0.019466504 -0.0084073218 0.53899997 1.7149075e-38
-0.012028337 -0.010256537 0.53799999 1.5777896e-38
-0.010158912 -0.010237473 0.537 1.5871203e-38
-0.0083118435 -0.010237473 0.537 8.1267702e-39
-0.0064527192 -0.010218409 0.53600001 9.1401444e-39
-0.0046004909 -0.010199345 0.53500003 1.4856273e-38
-0.0027499825 -0.010161215 0.53299999 1.5128944e-38
-0.00091495266 -0.010142152 0.53200001 1.6696269e-38
0.00091491785 -0.010142152 0.53200001 1.8068048e-38
0.0027448232 -0.010142152 0.53200001 1.7146092e-38
0.0045746937 -0.010142152 0.53200001 1.4202671e-38
0.0064045643 -0.010142152 0.53200001 1.254315e-38
0.0082499124 -0.010161215 0.53299999 1.0428434e-38
0.010102141 -0.01018028 0.53399998 4.2513378e-39
0.011961249 -0.010199345 0.53500003 1.1624453e-38
0.013827235 -0.010218409 0.53600001 1.3837148e-38
0.015700135 -0.010237473 0.537 1.255393e-38
0.01757988 -0.010256537 0.53799999 1.3383691e-38
0.019466504 -0.0102756 0.53899997 1.7425299e-38
0.021320451 -0.0102756 0.53899997 1.7056517e-38
-0.013827271 -0.012076315 0.53600001 1.6055919e-38
-0.011983624 -0.012076315 0.53600001 1.5502746e-38
-0.010158912 -0.012098846 0.537 1.467443e-38
-0.0082963658 -0.012076315 0.53600001 1.4951017e-38
-0.0064527192 -0.012076315 0.53600001 1.5774329e-38
-0.0046090903 -0.012076315 0.53600001 1.4760177e-38
-0.0027654611 -0.012076315 0.53600001 1.8239845e-38
-0.00088915508 -0.011648238 0.51700002 1.7133497e-38
0.00088912132 -0.011648238 0.51700002 1.7390271e-38
0.002662272 -0.011625706 0.51599997 1.7390271e-38
0.0044371085 -0.011625706 0.51599997 1.7494733e-38
0.0062239845 -0.011648238 0.51700002 1.841669e-38
0.0080332169 -0.011693298 0.51899999 1.4289144e-38
0.0098372903 -0.011715828 0.51999998 1.3643775e-38
0.015670899 -0.012076315 0.53600001 1.2000026e-38
0.017514529 -0.012076315 0.53600001 1.2000026e-38
0.019394273 -0.012098846 0.537 1.6231062e-38
0.021280896 -0.012121377 0.53799999 1.6599845e-38
0.023217395 -0.012166438 0.54000002 1.696398e-38
-0.013827271 -0.013934196 0.53600001 1.5319436e-38
-0.011983624 -0.013934196 0.53600001 1.5135045e-38
-0.010139995 -0.013934196 0.53600001 1.4672647e-38
-0.0082963658 -0.013934196 0.53600001 1.3935082e-38
-0.0064527192 -0.013934196 0.53600001 1.667825e-38
-0.0046090903 -0.013934196 0.53600001 1.3267012e-38
-0.0026777503 -0.013492253 0.51899999 1.4985688e-38
-0.00089259475 -0.013492253 0.51899999 1.3694968e-38
0.00088912132 -0.01344026 0.51700002 1.3235791e-38
0.002662272 -0.013414263 0.51599997 1.3604568e-38
0.0044371085 -0.013414263 0.51599997 1.3607438e-38
0.0062239845 -0.01344026 0.51700002 1.3238661e-38
0.0080332169 -0.013492253 0.51899999 1.5461438e-38
0.0098372903 -0.01351825 0.51999998 1.8411698e-38
0.015670899 -0.013934196 0.53600001 1.1720919e-38
0.017514529 -0.013934196 0.53600001 1.2089701e-38
0.019358158 -0.013934196 0.53600001 1.3929725e-38
0.021241341 -0.013960193 0.537 1.6326811e-38
0.023217395 -0.014038184 0.54000002 1.6779945e-38
-0.013827271 -0.015792103 0.53600001 1.485917e-38
-0.011983624 -0.015792103 0.53600001 1.4674779e-38
-0.010139995 -0.015792103 0.53600001 1.5582705e-38
-0.0082963658 -0.015792103 0.53600001 1.4291966e-38
-0.0064527192 -0.015792103 0.53600001 1.638008e-38
-0.0045402977 -0.0155564 0.528 1.1770369e-38
-0.0026777503 -0.015291234 0.51899999 1.2405325e-38
-0.00089259475 -0.015291234 0.51899999 1.2036548e-38
0.00089084113 -0.015261771 0.51800001 1.1027434e-38
0.0026674315 -0.015232309 0.51700002 1.1027434e-38
0.0044457079 -0.015232309 0.51700002 1.0843766e-38
0.0062360233 -0.015261771 0.51800001 1.1489135e-38
0.0080332169 -0.015291234 0.51899999 1.1769675e-38
0.0098751262 -0.015379623 0.52200001 1.3613588e-38
0.011715315 -0.015438547 0.52399999 1.5744875e-38
0.013646655 -0.015585862 0.52899998 1.6205853e-38
0.015670899 -0.015792103 0.53600001 1.19028e-38
0.017514529 -0.015792103 0.53600001 1.1534018e-38
0.019358158 -0.015792103 0.53600001 1.2272314e-38
0.021241341 -0.015821565 0.537 1.6236726e-38
0.023217395 -0.015909955 0.54000002 1.6688466e-38
-0.013878863 -0.017715868 0.53799999 1.4857728e-38
-0.012005981 -0.01768294 0.537 1.4120163e-38
-0.010158912 -0.01768294 0.537 1.4919322e-38
-0.0081725391 -0.017386576 0.528 1.2614466e-38
-0.0063564098 -0.017386576 0.528 1.1210746e-38
-0.0045402977 -0.017386576 0.528 1.0473193e-38
-0.0027087068 -0.017287789 0.52499998 9.1885719e-39
-0.00090291374 -0.017287789 0.52499998 9.2807661e-39
0.00090459926 -0.017320719 0.52600002 8.5471583e-39
0.0027138668 -0.017320719 0.52600002 8.5471583e-39
0.0045230999 -0.017320719 0.52600002 8.271656e-39
0.0062962165 -0.017221931 0.523 7.8106807e-39
0.0080951303 -0.017221931 0.523 7.90144e-39
0.0098940451 -0.017221931 0.523 8.0858285e-39
0.011715315 -0.017254859 0.52399999 9.1882131e-39
0.013543465 -0.017287789 0.52499998 1.2691639e-38
0.015524716 -0.017485365 0.53100002 1.2356562e-38
0.017416498 -0.017551223 0.53299999 1.2909735e-38
0.019358158 -0.01765001 0.53600001 1.0707123e-38
0.021241341 -0.01768294 0.537 1.5962273e-38
0.023217395 -0.017781727 0.54000002 1.6779216e-38
-0.0081570605 -0.019180333 0.52700001 9.5727743e-39
-0.006344371 -0.019180333 0.52700001 1.2140581e-38
-0.0045230999 -0.019143937 0.52600002 9.5591424e-39
-0.0027087068 -0.019107541 0.52499998 9.1889306e-39
-0.00090291374 -0.019107541 0.52499998 9.2811248e-39
0.0009028794 -0.019107541 0.52499998 8.1783814e-39
0.0027087068 -0.019107541 0.52499998 7.9017987e-39
0.0045145 -0.019107541 0.52499998 7.350427e-39
0.0063082548 -0.019071145 0.52399999 6.9816501e-39
0.008110608 -0.019071145 0.52399999 6.8908908e-39
0.0099129621 -0.019071145 0.52399999 8.2738168e-39
0.011737673 -0.019107541 0.52499998 1.0852014e-38
0.013543465 -0.019107541 0.52499998 1.3156895e-38
0.015495477 -0.019289518 0.52999997 1.1712614e-38
0.017416498 -0.019398704 0.53299999 1.1620419e-38
0.019358158 -0.019507891 0.53600001 1.0336935e-38
0.021241341 -0.019544285 0.537 1.6053064e-38
0.023217395 -0.019653473 0.54000002 1.6687381e-38
-0.0081570605 -0.021007042 0.52700001 1.2902585e-38
-0.006344371 -0.021007042 0.52700001 1.5082545e-38
-0.0045230999 -0.020967182 0.52600002 1.3330855e-38
-0.0027087068 -0.020927319 0.52499998 1.2415729e-38
-0.00090291374 -0.020927319 0.52499998 1.0203067e-38
0.0009028794 -0.020927319 0.52499998 1.0659733e-38
0.0027087068 -0.020927319 0.52499998 1.1397287e-38
0.0044715046 -0.020728013 0.51999998 1.103138e-38
0.0062600998 -0.020728013 0.51999998 1.3981626e-38
0.008110608 -0.020887457 0.52399999 1.3898053e-38
0.0099129621 -0.020887457 0.52399999 1.2238532e-38
0.011737673 -0.020927319 0.52499998 1.1238744e-38
0.013646655 -0.021086765 0.52899998 1.2160701e-38
0.015495477 -0.021126626 0.52999997 1.0702072e-38
0.017416498 -0.021246212 0.53299999 9.9645101e-39
0.019430388 -0.02144552 0.53799999 1.088945e-38
0.021320451 -0.021485381 0.53899997 1.5591427e-38
0.023217395 -0.021525245 0.54000002 1.6595551e-38
-0.0083273211 -0.023310333 0.53799999 9.5068053e-39
-0.0064767958 -0.023310333 0.53799999 1.4275406e-38
-0.0046262876 -0.023310333 0.53799999 1.4091015e-38
-0.0027138668 -0.0227904 0.52600002 1.5368099e-38
-0.00090463366 -0.0227904 0.52600002 1.4907125e-38
0.0009028794 -0.022747071 0.52499998 1.4903538e-38
0.0027087068 -0.022747071 0.52499998 1.4258178e-38
0.0044715046 -0.022530433 0.51999998 1.3248347e-38
0.0062600998 -0.022530433 0.51999998 1.3340541e-38
0.008110608 -0.022703743 0.52399999 1.0499021e-38
0.0099129621 -0.022703743 0.52399999 1.1789741e-38
0.011782388 -0.022833727 0.52700001 9.6879274e-39
0.013646655 -0.022920381 0.52899998 1.0148899e-38
0.01757988 -0.023310333 0.53799999 7.4827993e-39
0.019430388 -0.023310333 0.53799999 1.4662695e-38
0.021320451 -0.02335366 0.53899997 1.6322217e-38
-0.0083273211 -0.025175173 0.53799999 1.1448299e-38
-0.0064767958 -0.025175173 0.53799999 1.0982965e-38
-0.004634887 -0.025221966 0.53899997 9.3234553e-39
-0.0027860987 -0.025268761 0.54000002 1.0784214e-38
-0.00092871138 -0.025268761 0.54000002 1.004666e-38
0.0081879999 -0.024754025 0.52899998 1.0424785e-38
0.010007552 -0.024754025 0.52899998 1.1070154e-38
0.01184946 -0.024800818 0.52999997 9.2348512e-39
0.013724046 -0.024894409 0.53200001 9.0504599e-39
-0.0083582783 -0.027140507 0.54000002 1.1265347e-38
-0.0064888345 -0.027090244 0.53899997 1.1263878e-38
-0.004634887 -0.027090244 0.53899997 1.0987291e-38
-0.0027809392 -0.027090244 0.53899997 1.0985114e-38
-0.00092699152 -0.027090244 0.53899997 1.043194e-38
0.004557495 -0.026637902 0.52999997 9.4188893e-39
0.0063804863 -0.026637902 0.52999997 9.3266937e-39
0.0082189571 -0.026688164 0.53100002 9.1419367e-39
0.010045388 -0.026688164 0.53100002 8.9575482e-39
0.011871819 -0.026688164 0.53100002 8.8660714e-39
0.013724046 -0.026738424 0.53200001 8.4051003e-39
0.015670899 -0.026939467 0.53600001 1.1259338e-38
-0.0064767958 -0.028904824 0.53799999 1.0802915e-38
-0.0046262876 -0.028904824 0.53799999 1.0341937e-38
-0.0027757797 -0.028904824 0.53799999 9.8820128e-39
-0.00093043112 -0.029066006 0.54100001 9.5132303e-39
0.004557495 -0.028475011 0.52999997 8.7745989e-39
0.0063804863 -0.028475011 0.52999997 8.3136235e-39
0.0082189571 -0.028528741 0.53100002 8.58913e-39
0.010064305 -0.028582467 0.53200001 8.58913e-39
0.011916532 -0.028636191 0.53299999 8.0377583e-39
0.01377564 -0.028689917 0.53399998 7.7611756e-39
0.015670899 -0.028797373 0.53600001 1.5401311e-38
-0.0064767958 -0.030769637 0.53799999 1.0894775e-38
-0.0046262876 -0.030769637 0.53799999 1.0065014e-38
-0.0027654611 -0.030655254 0.53600001 9.145552e-39
-0.00092183205 -0.030655254 0.53600001 8.7767695e-39
0.00092179701 -0.030655254 0.53600001 8.2221468e-39
0.0027654611 -0.030655254 0.53600001 8.4065352e-39
0.0046090903 -0.030655254 0.53600001 8.2207118e-39
0.0064527192 -0.030655254 0.53600001 8.2207118e-39
0.0082499124 -0.030483674 0.53299999 8.1292351e-39
0.010083223 -0.030483674 0.53299999 8.0370408e-39
0.01193889 -0.030540865 0.53399998 7.575711e-39
0.013827235 -0.030655254 0.53600001 7.4835167e-39
0.015875556 -0.031055599 0.54299998 1.6878185e-38
-0.0064647575 -0.032573819 0.537 1.1355047e-38
-0.0046176892 -0.032573819 0.537 1.0801873e-38
-0.0027654611 -0.03251316 0.53600001 9.2374183e-39
-0.00092011219 -0.032452501 0.53500003 8.5920489e-39
0.0009183574 -0.032391839 0.53399998 8.5895154e-39
0.002755142 -0.032391839 0.53399998 7.944146e-39
0.0046004909 -0.032452501 0.53500003 8.4962267e-39
0.0064527192 -0.03251316 0.53600001 8.4040311e-39
0.0083273035 -0.032634478 0.53799999 8.1281589e-39
0.01019673 -0.032695133 0.53899997 8.1281589e-39
0.012073036 -0.032755796 0.54000002 7.4835167e-39
0.013930423 -0.032755796 0.54000002 9.05082e-39
0.015787845 -0.032755796 0.54000002 1.568213e-38
0.017710585 -0.032877114 0.542 1.6235304e-38
-0.012050696 -0.034563441 0.53899997 1.4205519e-38
-0.010196748 -0.034563441 0.53899997 1.1911085e-38
-0.0083273211 -0.034499317 0.53799999 1.1634498e-38
-0.0064767958 -0.034499317 0.53799999 1.0802942e-38
-0.0046090903 -0.034371067 0.53600001 1.0434159e-38
-0.0027654611 -0.034371067 0.53600001 9.4200075e-39
-0.00091839232 -0.034242813 0.53399998 8.5902469e-39
0.0009166376 -0.034178689 0.53299999 8.3129145e-39
0.0027499825 -0.034178689 0.53299999 8.1285232e-39
0.0045918915 -0.034242813 0.53399998 8.7720976e-39
0.0064527192 -0.034371067 0.53600001 8.5877063e-39
0.0083273035 -0.034499317 0.53799999 8.4040241e-39
0.01019673 -0.034563441 0.53899997 8.8650022e-39
0.012073036 -0.034627568 0.54000002 9.0526641e-39
0.013930423 -0.034627568 0.54000002 1.061999e-38
0.015787845 -0.034627568 0.54000002 1.2735071e-38
0.017710585 -0.034755819 0.542 1.3841418e-38
0.019574853 -0.034755819 0.542 1.4760915e-38
-0.017873967 -0.036972452 0.54699999 1.715868e-38
-0.01593403 -0.036837272 0.54500002 1.6144528e-38
-0.013956255 -0.036566906 0.54100001 1.4952412e-38
-0.012050696 -0.036431719 0.53899997 1.4399239e-38
-0.010177829 -0.036364127 0.53799999 1.3844306e-38
-0.0083118435 -0.036296539 0.537 1.3014545e-38
-0.0064527192 -0.036228947 0.53600001 1.1633026e-38
-0.0046090903 -0.036228947 0.53600001 1.071107e-38
-0.0027603016 -0.036161356 0.53500003 9.7883725e-39
-0.00091323286 -0.035890993 0.53100002 9.3274013e-39
0.00091319816 -0.035890993 0.53100002 8.9571951e-39
0.0027396639 -0.035890993 0.53100002 8.6806082e-39
0.0045660948 -0.035890993 0.53100002 8.5873364e-39
0.006392526 -0.035890993 0.53100002 8.4951421e-39
0.0082189571 -0.035890993 0.53100002 8.4051003e-39
0.010045388 -0.035890993 0.53100002 9.4192522e-39
0.011871819 -0.035890993 0.53100002 9.4225018e-39
0.013724046 -0.035958581 0.53200001 1.1635197e-38
0.015553951 -0.035958581 0.53200001 1.3013839e-38
0.017416498 -0.036026172 0.53299999 1.3659209e-38
-0.01777594 -0.038655318 0.54400003 1.587297e-38
-0.015875556 -0.038584255 0.54299998 1.6333948e-38
-0.013956255 -0.038442142 0.54100001 1.5689649e-38
-0.012050696 -0.038300022 0.53899997 1.5320867e-38
-0.010158912 -0.03815791 0.537 1.4215589e-38
-0.0082344525 -0.037802622 0.53200001 1.375461e-38
-0.0064045643 -0.037802622 0.53200001 1.3291822e-38
-0.0045832926 -0.037873682 0.53299999 1.2554257e-38
-0.0027448232 -0.037802622 0.53200001 1.2183692e-38
-0.00091323286 -0.037731566 0.53100002 1.1353931e-38
0.00091319816 -0.037731566 0.53100002 1.0616366e-38
0.0027396639 -0.037731566 0.53100002 9.878801e-39
0.0045660948 -0.037731566 0.53100002 9.3270664e-39
0.006392526 -0.037731566 0.53100002 1.0156827e-38
0.0082189571 -0.037731566 0.53100002 1.0800771e-38
0.010045388 -0.037731566 0.53100002 1.1722728e-38
0.011871819 -0.037731566 0.53100002 1.236808e-38
0.013724046 -0.037802622 0.53200001 1.3474428e-38
0.015553951 -0.037802622 0.53200001 1.3935072e-38
0.017416498 -0.037873682 0.53299999 1.4119464e-38
0.019213693 -0.037802622 0.53200001 1.4303136e-38
0.021043563 -0.037802622 0.53200001 1.4118745e-38
-0.017743262 -0.040466398 0.54299998 1.6333954e-38
-0.015846319 -0.040391877 0.542 1.6333954e-38
-0.013956255 -0.040317353 0.54100001 1.6425796e-38
-0.012073054 -0.040242832 0.54000002 1.6517992e-38
-0.010158912 -0.040019259 0.537 1.5689634e-38
-0.0082344525 -0.03964664 0.53200001 1.4767678e-38
-0.0064045643 -0.03964664 0.53200001 1.5225806e-38
-0.004557495 -0.039497588 0.52999997 1.4119458e-38
-0.0027345042 -0.039497588 0.52999997 1.2923076e-38
-0.00091151294 -0.039497588 0.52999997 1.2093315e-38
0.00091147824 -0.039497588 0.52999997 1.1630866e-38
0.0027448232 -0.03964664 0.53200001 1.1630866e-38
0.0045746937 -0.03964664 0.53200001 1.1998959e-38
0.006368448 -0.039423067 0.52899998 1.2459937e-38
0.0081879999 -0.039423067 0.52899998 1.3014208e-38
0.010007552 -0.039423067 0.52899998 1.338299e-38
0.011827103 -0.039423067 0.52899998 1.3844316e-38
0.013724046 -0.03964664 0.53200001 1.375212e-38
0.015553951 -0.03964664 0.53200001 1.4119814e-38
0.017383821 -0.03964664 0.53200001 1.421201e-38
0.019213693 -0.03964664 0.53200001 1.4303852e-38
0.021043563 -0.03964664 0.53200001 1.4119461e-38
0.025306957 -0.040615451 0.54500002 1.4303849e-38
0.027181579 -0.040615451 0.54500002 1.4580805e-38
0.029056164 -0.040615451 0.54500002 1.4857392e-38
0.030930748 -0.040615451 0.54500002 1.5036426e-38
-0.017743262 -0.042348571 0.54299998 1.6241393e-38
-0.015846319 -0.042270582 0.542 1.6333588e-38
-0.013672486 -0.041334696 0.52999997 1.6609106e-38
-0.011849477 -0.041334696 0.52999997 1.651691e-38
-0.010026486 -0.041334696 0.52999997 1.5874028e-38
-0.0081880167 -0.041256707 0.52899998 1.5505246e-38
-0.006368448 -0.041256707 0.52899998 1.495138e-38
-0.004557495 -0.041334696 0.52999997 1.4121619e-38
-0.0027345042 -0.041334696 0.52999997 1.3292927e-38
-0.00091151294 -0.041334696 0.52999997 1.2555362e-38
0.00091147824 -0.041334696 0.52999997 1.2552848e-38
0.0027345042 -0.041334696 0.52999997 1.2276262e-38
0.0045402977 -0.041178718 0.528 1.2369176e-38
0.0063564098 -0.041178718 0.528 1.2645763e-38
0.0081725223 -0.041178718 0.528 1.3290419e-38
0.0099886339 -0.041178718 0.528 1.3659202e-38
0.011804746 -0.041178718 0.528 1.3843224e-38
0.013672451 -0.041334696 0.52999997 1.393542e-38
0.015524716 -0.041412693 0.53100002 1.3751029e-38
0.017351147 -0.041412693 0.53100002 1.393542e-38
0.019177578 -0.041412693 0.53100002 1.4027248e-38
0.021004008 -0.041412693 0.53100002 1.3750662e-38
0.022916427 -0.04156867 0.53299999 1.3474796e-38
0.024749737 -0.04156867 0.53299999 1.3843579e-38
0.027081827 -0.042348571 0.54299998 1.5041768e-38
0.028949533 -0.042348571 0.54299998 1.4396398e-38
0.030873997 -0.042426564 0.54400003 1.4393537e-38
-0.015495477 -0.043171782 0.52999997 1.5965887e-38
-0.013672486 -0.043171782 0.52999997 1.6333948e-38
-0.011849477 -0.043171782 0.52999997 1.5965166e-38
-0.010026486 -0.043171782 0.52999997 1.5688568e-38
-0.0081570605 -0.042927414 0.52700001 1.5319785e-38
-0.0063202931 -0.0427645 0.52499998 1.485917e-38
-0.0045145 -0.0427645 0.52499998 1.4121605e-38
-0.0027138668 -0.042845961 0.52600002 1.3752471e-38
-0.00089947414 -0.042601589 0.523 1.3107101e-38
0.00089943997 -0.042601589 0.523 1.2645773e-38
0.0026983882 -0.042601589 0.523 1.2737968e-38
0.0044973022 -0.042601589 0.523 1.273831e-38
0.0063323327 -0.042845961 0.52600002 1.2830506e-38
0.0081415661 -0.042845961 0.52600002 1.3106022e-38
0.009969716 -0.042927414 0.52700001 1.3198218e-38
0.011782388 -0.042927414 0.52700001 1.3474805e-38
0.013672451 -0.043171782 0.52999997 1.3290413e-38
0.015495477 -0.043171782 0.52999997 1.3842871e-38
0.017318469 -0.043171782 0.52999997 1.3566284e-38
0.019177578 -0.043253243 0.53100002 1.3751015e-38
0.021004008 -0.043253243 0.53100002 1.3566623e-38
0.02283044 -0.043253243 0.53100002 1.273831e-38
0.024656871 -0.043253243 0.53100002 1.3107093e-38
0.027081827 -0.044230714 0.54299998 1.3014857e-38
0.028789593 -0.04398635 0.54000002 1.2369487e-38
0.03064698 -0.04398635 0.54000002 1.3198218e-38
-0.015495477 -0.04500889 0.52999997 1.5597454e-38
-0.013672486 -0.04500889 0.52999997 1.5688205e-38
-0.011849477 -0.04500889 0.52999997 1.5596009e-38
-0.010026486 -0.04500889 0.52999997 1.5319788e-38
-0.0081261033 -0.044584278 0.52499998 1.5043201e-38
-0.0063082548 -0.044499356 0.52399999 1.4398542e-38
-0.0045059011 -0.044499356 0.52399999 1.4214151e-38
-0.0027035475 -0.044499356 0.52399999 1.3568421e-38
-0.00089947414 -0.044414435 0.523 1.3015248e-38
0.00089943997 -0.044414435 0.523 1.2829801e-38
0.0026983882 -0.044414435 0.523 1.2553214e-38
0.0044973022 -0.044414435 0.523 1.2461002e-38
0.0062962165 -0.044414435 0.523 1.2829784e-38
0.0081415661 -0.044669203 0.52600002 1.2922347e-38
0.009969716 -0.044754125 0.52700001 1.2830151e-38
0.011782388 -0.044754125 0.52700001 1.2921994e-38
0.01359506 -0.044754125 0.52700001 1.2921994e-38
0.015495477 -0.04500889 0.52999997 1.2737959e-38
0.017285792 -0.044923969 0.52899998 1.2737959e-38
0.019105345 -0.044923969 0.52899998 1.2736866e-38
0.020964451 -0.04500889 0.52999997 1.1999301e-38
0.022787441 -0.04500889 0.52999997 1.2643218e-38
0.024610432 -0.04500889 0.52999997 1.2735414e-38
0.026732709 -0.045518428 0.53600001 1.3197115e-38
0.028576339 -0.045518428 0.53600001 1.4303463e-38
0.030419966 -0.045518428 0.53600001 1.3197121e-38
-0.01921371 -0.047022756 0.53200001 1.5320518e-38
-0.017285792 -0.046757586 0.52899998 1.5228317e-38
-0.015466241 -0.046757586 0.52899998 1.5136121e-38
-0.013646689 -0.046757586 0.52899998 1.485917e-38
-0.011849477 -0.046845973 0.52999997 1.4674779e-38
-0.0099697327 -0.04658081 0.52700001 1.4857725e-38
-0.0081261033 -0.04640403 0.52499998 1.4304551e-38
-0.0063082548 -0.046315644 0.52399999 1.4396398e-38
-0.0044973022 -0.046227254 0.523 1.393542e-38
-0.0026983882 -0.046227254 0.523 1.3199649e-38
-0.00089947414 -0.046227254 0.523 1.273867e-38
0.00089943997 -0.046227254 0.523 1.2553214e-38
0.0026983882 -0.046227254 0.523 1.2276627e-38
0.0044973022 -0.046227254 0.523 1.2460656e-38
0.0062962165 -0.046227254 0.523 1.2276264e-38
0.0080951303 -0.046227254 0.523 1.2642892e-38
0.0098940451 -0.046227254 0.523 1.2642892e-38
0.011715315 -0.046315644 0.52399999 1.1999648e-38
0.013543465 -0.04640403 0.52499998 1.2368431e-38
0.015407768 -0.04658081 0.52700001 1.1723064e-38
0.017253118 -0.0466692 0.528 1.2091846e-38
0.019105345 -0.046757586 0.52899998 1.1998572e-38
0.020924896 -0.046757586 0.52899998 1.1445398e-38
0.022744447 -0.046757586 0.52899998 1.2182966e-38
0.024656871 -0.046934366 0.53100002 1.2182966e-38
0.026533209 -0.047022756 0.53200001 1.1354632e-38
0.028523022 -0.047287922 0.53500003 1.2276588e-38
0.030363211 -0.047287922 0.53500003 1.236736e-38
-0.020845803 -0.048407521 0.52700001 1.4858821e-38
-0.01903313 -0.048407521 0.52700001 1.4858821e-38
-0.017253118 -0.048499376 0.528 1.4765895e-38
-0.015437005 -0.048499376 0.528 1.5042482e-38
-0.013620893 -0.048499376 0.528 1.4581871e-38
-0.011849477 -0.048683081 0.52999997 1.4213089e-38
-0.0099508157 -0.048315667 0.52600002 1.4119797e-38
-0.0081106257 -0.048131954 0.52399999 1.4119797e-38
-0.0062962165 -0.048040099 0.523 1.2829826e-38
-0.0044973022 -0.048040099 0.523 1.2461044e-38
-0.0026983882 -0.048040099 0.523 1.2921994e-38
-0.00089947414 -0.048040099 0.523 1.2184429e-38
0.00089943997 -0.048040099 0.523 1.200038e-38
0.0026983882 -0.048040099 0.523 1.1723793e-38
0.0044973022 -0.048040099 0.523 1.1445048e-38
0.0062962165 -0.048040099 0.523 1.03387e-38
0.0080951303 -0.048040099 0.523 1.1629079e-38
0.0098940451 -0.048040099 0.523 1.1997861e-38
0.011692959 -0.048040099 0.523 1.1630871e-38
0.013491873 -0.048040099 0.523 1.1077697e-38
0.015407768 -0.048407521 0.52700001 1.153795e-38
0.017220439 -0.048407521 0.52700001 1.1445754e-38
0.019105345 -0.04859123 0.52899998 1.1262439e-38
0.020924896 -0.04859123 0.52899998 1.1631221e-38
0.022744447 -0.04859123 0.52899998 1.1446474e-38
0.024656871 -0.048774943 0.53100002 1.1446474e-38
0.026533209 -0.048866797 0.53200001 1.0801088e-38
0.028363081 -0.048866797 0.53200001 1.0524501e-38
0.030306457 -0.049050502 0.53399998 1.1813854e-38
-0.020845803 -0.050234232 0.52700001 1.4674064e-38
-0.01903313 -0.050234232 0.52700001 1.4858455e-38
-0.017253118 -0.050329551 0.528 1.439784e-38
-0.015407768 -0.050234232 0.52700001 1.4213449e-38
-0.013595095 -0.050234232 0.52700001 1.412054e-38
-0.011760049 -0.050138913 0.52600002 1.3659562e-38
-0.0099318968 -0.050043587 0.52499998 1.209511e-38
-0.0081106257 -0.049948268 0.52399999 1.0159002e-38
-0.0062962165 -0.049852949 0.523 1.1446869e-38
-0.0044973022 -0.049852949 0.523 1.1907848e-38
-0.0026983882 -0.049852949 0.523 1.1815632e-38
-0.00089947414 -0.049852949 0.523 1.2184415e-38
0.00089943997 -0.049852949 0.523 1.1447559e-38
0.0026932287 -0.049757626 0.52200001 1.1078776e-38
0.0044887033 -0.049757626 0.52200001 1.0983721e-38
0.0062841778 -0.049757626 0.52200001 1.0522743e-38
0.0080951303 -0.049852949 0.523 1.1168811e-38
0.0098940451 -0.049852949 0.523 1.1168811e-38
0.011692959 -0.049852949 0.523 1.0986588e-38
0.013491873 -0.049852949 0.523 1.0802196e-38
0.015290821 -0.049852949 0.523 1.0801468e-38
0.017220439 -0.050234232 0.52700001 1.0801468e-38
0.019033113 -0.050234232 0.52700001 1.1077697e-38
0.020885341 -0.050329551 0.528 1.0985502e-38
0.022744447 -0.050424874 0.52899998 1.1262812e-38
0.024610432 -0.050520193 0.52999997 1.0986225e-38
0.026533209 -0.050710838 0.53200001 1.0523831e-38
0.028363081 -0.050710838 0.53200001 1.1169201e-38
0.030306457 -0.050901476 0.53399998 1.1905712e-38
-0.020885359 -0.052159704 0.528 1.4397127e-38
-0.019069247 -0.052159704 0.528 1.4028344e-38
-0.017253118 -0.052159704 0.528 1.3936502e-38
-0.015407768 -0.052060917 0.52700001 1.3752111e-38
-0.013595095 -0.052060917 0.52700001 1.3567732e-38
-0.011760049 -0.05196213 0.52600002 1.3014558e-38
-0.0099318968 -0.051863339 0.52499998 1.2554296e-38
-0.0081106257 -0.051764552 0.52399999 1.2001122e-38
-0.0062962165 -0.051665768 0.523 1.2000038e-38
-0.0044973022 -0.051665768 0.523 1.1815646e-38
-0.0026983882 -0.051665768 0.523 1.1907105e-38
-0.00089775427 -0.051566981 0.52200001 1.1353931e-38
0.00089772017 -0.051566981 0.52200001 1.1262812e-38
0.0026932287 -0.051566981 0.52200001 1.0894029e-38
0.0044887033 -0.051566981 0.52200001 1.0800771e-38
0.0062841778 -0.051566981 0.52200001 1.0431989e-38
0.0080796517 -0.051566981 0.52200001 1.0616366e-38
0.0098940451 -0.051665768 0.523 1.0616366e-38
0.011692959 -0.051665768 0.523 1.0524168e-38
0.013491873 -0.051665768 0.523 1.0431972e-38
0.015290821 -0.051665768 0.523 1.0524868e-38
0.017187765 -0.05196213 0.52600002 1.0617064e-38
0.019033113 -0.052060917 0.52700001 1.0433054e-38
0.020885341 -0.052159704 0.528 1.0433054e-38
0.022744447 -0.052258488 0.52899998 1.0616363e-38
0.024610432 -0.052357275 0.52999997 1.0800755e-38
0.026483336 -0.05245607 0.53100002 1.0431626e-38
0.028363081 -0.052554853 0.53200001 1.0247235e-38
0.030306457 -0.052752424 0.53399998 1.0982651e-38
-0.020924913 -0.054092132 0.52899998 1.3843956e-38
-0.019105362 -0.054092132 0.52899998 1.3659565e-38
-0.017285792 -0.054092132 0.52899998 1.3291132e-38
-0.015407768 -0.053887628 0.52700001 1.3198937e-38
-0.013595095 -0.053887628 0.52700001 1.2645749e-38
-0.011760049 -0.053785376 0.52600002 1.2737945e-38
-0.0099318968 -0.053683117 0.52499998 1.2185137e-38
-0.008095148 -0.053478613 0.523 1.1816354e-38
-0.0062962165 -0.053478613 0.523 1.1723444e-38
-0.0044973022 -0.053478613 0.523 1.1446857e-38
-0.0026983882 -0.053478613 0.523 1.135536e-38
-0.00089775427 -0.053376362 0.52200001 1.1078774e-38
0.00089772017 -0.053376362 0.52200001 1.0987297e-38
0.0026932287 -0.053376362 0.52200001 1.071071e-38
0.0044887033 -0.053376362 0.52200001 1.0801123e-38
0.0062841778 -0.053376362 0.52200001 1.0524536e-38
0.0080796517 -0.053376362 0.52200001 1.0432701e-38
0.0098940451 -0.053478613 0.523 1.0340505e-38
0.011692959 -0.053478613 0.523 1.0340142e-38
0.013491873 -0.053478613 0.523 1.0340142e-38
0.015290821 -0.053478613 0.523 1.0340139e-38
0.017155087 -0.053683117 0.52499998 1.0340139e-38
0.018996999 -0.053785376 0.52600002 1.0617096e-38
0.020924896 -0.054092132 0.52899998 1.0248314e-38
0.022787441 -0.054194383 0.52999997 1.0432338e-38
0.024656871 -0.054296643 0.53100002 1.0616729e-38
0.026483336 -0.054296643 0.53100002 1.0798962e-38
0.028309768 -0.054296643 0.53100002 1.0061397e-38
0.030306457 -0.054603402 0.53399998 1.0522036e-38
-0.019141477 -0.056031469 0.52999997 1.3013479e-38
-0.017253118 -0.055820029 0.528 1.2737596e-38
-0.015407768 -0.055714313 0.52700001 1.26454e-38
-0.013569299 -0.055608593 0.52600002 1.2276625e-38
-0.011760049 -0.055608593 0.52600002 1.1907842e-38
-0.0099508157 -0.055608593 0.52600002 1.1631963e-38
-0.008095148 -0.055291433 0.523 1.1539767e-38
-0.0062962165 -0.055291433 0.523 1.1447217e-38
-0.0044973022 -0.055291433 0.523 1.1262826e-38
-0.0026983882 -0.055291433 0.523 1.1079499e-38
-0.00089775427 -0.055185713 0.52200001 1.0895108e-38
0.00089772017 -0.055185713 0.52200001 1.0894046e-38
0.0026932287 -0.055185713 0.52200001 1.0894046e-38
0.0044887033 -0.055185713 0.52200001 1.0526319e-38
0.0062841778 -0.055185713 0.52200001 1.0434123e-38
0.0080796517 -0.055185713 0.52200001 1.0432349e-38
0.0098940451 -0.055291433 0.523 1.0340153e-38
0.011670601 -0.055185713 0.52200001 1.015682e-38
0.013466075 -0.055185713 0.52200001 1.0249016e-38
0.015290821 -0.055291433 0.523 1.0339426e-38
0.01712241 -0.055397149 0.52399999 1.0339426e-38
0.018996999 -0.055608593 0.52600002 1.0246879e-38
0.020885341 -0.055820029 0.528 1.0246879e-38
0.022787441 -0.056031469 0.52999997 1.0614574e-38
0.024656871 -0.056137193 0.53100002 1.0614574e-38
0.026483336 -0.056137193 0.53100002 1.0522378e-38
0.028309768 -0.056137193 0.53100002 9.8770088e-39
0.030419966 -0.056665793 0.53600001 1.0429846e-38
-0.019177595 -0.05797777 0.53100002 1.2829088e-38
-0.017253118 -0.057650208 0.528 1.2461019e-38
-0.015407768 -0.057541024 0.52700001 1.2184432e-38
-0.013569299 -0.057431839 0.52600002 1.1724172e-38
-0.011760049 -0.057431839 0.52600002 1.1539781e-38
-0.0099508157 -0.057431839 0.52600002 1.1539776e-38
-0.008095148 -0.057104278 0.523 1.1355384e-38
-0.0062962165 -0.057104278 0.523 1.135574e-38
-0.0044973022 -0.057104278 0.523 1.1079153e-38
-0.0026829096 -0.056776721 0.51999998 1.0986588e-38
-0.00089431455 -0.056776721 0.51999998 1.0894392e-38
0.00089943997 -0.057104278 0.523 1.0802216e-38
0.0026983882 -0.057104278 0.523 1.0617825e-38
0.0044973022 -0.057104278 0.523 1.0709628e-38
0.0062962165 -0.057104278 0.523 1.0525237e-38
0.0080951303 -0.057104278 0.523 1.0340505e-38
0.0098751262 -0.056995094 0.52200001 1.0248309e-38
0.011670601 -0.056995094 0.52200001 1.0340142e-38
0.013466075 -0.056995094 0.52200001 1.0247947e-38
0.015261584 -0.056995094 0.52200001 1.0063558e-38
0.01712241 -0.057213463 0.52399999 1.0063558e-38
0.018996999 -0.057431839 0.52600002 9.9713764e-39
0.020885341 -0.057650208 0.528 9.7869852e-39
0.022744447 -0.057759393 0.52899998 1.0245805e-38
0.024656871 -0.05797777 0.53100002 1.0245805e-38
0.026483336 -0.05797777 0.53100002 1.0429478e-38
0.028309768 -0.05797777 0.53100002 9.9684996e-39
-0.017351147 -0.05981832 0.53100002 1.2000406e-38
-0.015524716 -0.05981832 0.53100002 1.1816015e-38
-0.013698285 -0.05981832 0.53100002 1.1723466e-38
-0.011827121 -0.059593011 0.52899998 1.1354684e-38
-0.0099697327 -0.059367709 0.52700001 1.1262838e-38
-0.0081415828 -0.059255056 0.52600002 1.1170643e-38
-0.0063082548 -0.059029747 0.52399999 1.1078081e-38
-0.0044715046 -0.058579143 0.51999998 1.1078081e-38
-0.0026829096 -0.058579143 0.51999998 1.0802552e-38
-0.00089431455 -0.058579143 0.51999998 1.0802552e-38
0.00089943997 -0.058917098 0.523 1.0617819e-38
0.0026983882 -0.058917098 0.523 1.0341232e-38
0.0044973022 -0.058917098 0.523 1.0708562e-38
0.0062962165 -0.058917098 0.523 1.0339779e-38
0.0080951303 -0.058917098 0.523 1.0339779e-38
0.0098940451 -0.058917098 0.523 1.0155388e-38
0.011692959 -0.058917098 0.523 1.0063906e-38
0.013466075 -0.058804449 0.52200001 9.8795143e-39
0.015261584 -0.058804449 0.52200001 9.8787982e-39
0.017089736 -0.058917098 0.523 9.9709939e-39
0.018996999 -0.059255056 0.52600002 9.7869824e-39
0.020885341 -0.059480358 0.528 9.6947867e-39
0.022744447 -0.059593011 0.52899998 9.7862691e-39
0.024656871 -0.05981832 0.53100002 9.8784647e-39
0.026483336 -0.05981832 0.53100002 1.0061064e-38
0.028363081 -0.059930969 0.53200001 9.4156943e-39
-0.017351147 -0.061658893 0.53100002 1.1998952e-38
-0.015524716 -0.061658893 0.53100002 1.1722365e-38
-0.013672486 -0.061542768 0.52999997 1.1445788e-38
-0.011827121 -0.061426651 0.52899998 1.1630179e-38
-0.0099697327 -0.06119442 0.52700001 1.1077002e-38
-0.0081415828 -0.061078303 0.52600002 1.1077002e-38
-0.0063082548 -0.060846061 0.52399999 1.0618175e-38
-0.0044973022 -0.060729943 0.523 1.0618175e-38
-0.0026829096 -0.060381588 0.51999998 1.043378e-38
-0.00089431455 -0.060381588 0.51999998 1.0249388e-38
0.00089943997 -0.060729943 0.523 1.0432349e-38
0.0026983882 -0.060729943 0.523 1.0432349e-38
0.0044973022 -0.060729943 0.523 9.6958489e-39
0.0062962165 -0.060729943 0.523 9.7880445e-39
0.0080951303 -0.060729943 0.523 9.6947727e-39
0.0098940451 -0.060729943 0.523 9.879164e-39
0.011692959 -0.060729943 0.523 9.3263405e-39
0.013491873 -0.060729943 0.523 9.3263405e-39
0.015290821 -0.060729943 0.523 9.6936741e-39
0.017089736 -0.060729943 0.523 9.6014785e-39
0.018996999 -0.061078303 0.52600002 9.6022282e-39
0.020885341 -0.061310537 0.528 9.14125e-39
0.022787441 -0.061542768 0.52999997 9.5089732e-39
0.024656871 -0.061658893 0.53100002 9.2323863e-39
0.026533209 -0.06177501 0.53200001 8.6792153e-39
0.028469708 -0.062007245 0.53399998 9.3245847e-39
-0.021201804 -0.064097367 0.53600001 1.1813551e-38
-0.019285941 -0.063858196 0.53399998 1.1721356e-38
-0.017351147 -0.063499443 0.53100002 1.1721318e-38
-0.015495477 -0.063379854 0.52999997 1.1536927e-38
-0.013672486 -0.063379854 0.52999997 1.0710381e-38
-0.011827121 -0.063260272 0.52899998 1.0710381e-38
-0.0099697327 -0.063021101 0.52700001 1.070933e-38
-0.0081415828 -0.062901519 0.52600002 1.0524938e-38
-0.0062962165 -0.062542766 0.523 9.8809759e-39
-0.0044973022 -0.062542766 0.523 9.604389e-39
-0.0026983882 -0.062542766 0.523 1.0063572e-38
-0.00089947414 -0.062542766 0.523 9.5103983e-39
0.00089943997 -0.062542766 0.523 9.601875e-39
0.0026983882 -0.062542766 0.523 9.0487013e-39
0.0044973022 -0.062542766 0.523 9.326014e-39
0.0062962165 -0.062542766 0.523 9.0494271e-39
0.0080951303 -0.062542766 0.523 9.1405438e-39
0.0098940451 -0.062542766 0.523 8.9561525e-39
0.011692959 -0.062542766 0.523 9.0483481e-39
0.013801438 -0.063977785 0.53500003 8.8639569e-39
0.015612424 -0.063858196 0.53399998 8.9564958e-39
0.017285792 -0.063260272 0.52899998 8.7721046e-39
0.019105345 -0.063260272 0.52899998 9.3227952e-39
0.020964451 -0.063379854 0.52999997 9.4149909e-39
0.02283044 -0.063499443 0.53100002 8.9533037e-39
0.024842609 -0.063977785 0.53500003 8.0313474e-39
0.026682833 -0.063977785 0.53500003 4.716255e-39
0.028576339 -0.064097367 0.53600001 7.482107e-39
-0.021201804 -0.065955274 0.53600001 7.5735866e-39
-0.019285941 -0.065709166 0.53399998 7.5735866e-39
-0.017351147 -0.06534002 0.53100002 8.8636318e-39
-0.015466241 -0.065093912 0.52899998 8.8636318e-39
-0.013646689 -0.065093912 0.52899998 9.7841461e-39
-0.011827121 -0.065093912 0.52899998 9.9685374e-39
-0.0099886516 -0.064970866 0.528 9.6919701e-39
-0.0081415828 -0.064724766 0.52600002 9.5997745e-39
-0.0062962165 -0.064355612 0.523 9.599029e-39
-0.0044973022 -0.064355612 0.523 9.5068334e-39
-0.0026983882 -0.064355612 0.523 9.2305996e-39
-0.00089947414 -0.064355612 0.523 9.0462084e-39
0.00089943997 -0.064355612 0.523 8.4022907e-39
0.0027138668 -0.064724766 0.52600002 8.1257038e-39
0.0045230999 -0.064724766 0.52600002 7.9416657e-39
0.0063323327 -0.064724766 0.52600002 8.0338613e-39
0.0081570437 -0.064847812 0.52700001 8.2164645e-39
0.009969716 -0.064847812 0.52700001 8.0320732e-39
0.011782388 -0.064847812 0.52700001 7.6643627e-39
0.017318469 -0.065216959 0.52999997 7.1093967e-39
0.01914146 -0.065216959 0.52999997 6.8313847e-39
0.021004008 -0.06534002 0.53100002 4.9874721e-39
0.02283044 -0.06534002 0.53100002 3.9765501e-39
-0.015466241 -0.066927552 0.52899998 9.2201796e-39
-0.013646689 -0.066927552 0.52899998 7.0164471e-39
-0.011827121 -0.066927552 0.52899998 5.7257279e-39
-0.010007569 -0.066927552 0.52899998 4.0708954e-39
-0.0081880167 -0.066927552 0.52899998 3.9787011e-39
-0.0063804863 -0.067054071 0.52999997 2.8766752e-39
-0.0044973022 -0.066168457 0.523 2.7844809e-39
-0.0026983882 -0.066168457 0.523 2.8781101e-39
-0.00089947414 -0.066168457 0.523 2.9703043e-39
0.00089943997 -0.066168457 0.523 4.3460487e-39
0.0027138668 -0.066548012 0.52600002 3.9772662e-39
0.0045316983 -0.066674523 0.52700001 3.426612e-39
0.006344371 -0.066674523 0.52700001 3.1500293e-39
0.0081570437 -0.066674523 0.52700001 2.2291632e-39
0.009969716 -0.066674523 0.52700001 2.1369689e-39
