# .PCD v0.7 - Point Cloud Data file format
VERSION 0.7
FIELDS x y z rgb
SIZE 4 4 4 4
TYPE F F F F
COUNT 1 1 1 1
WIDTH 815
HEIGHT 1
VIEWPOINT 0 0 0 1 0 0 0
POINTS 815
DATA ascii
0.025817739 0.0067452835 0.55599999 1.8269696e-38
0.027730197 0.0067452835 0.55599999 1.7805869e-38
0.02011659 0.0048267171 0.55699998 1.8638096e-38
0.022032451 0.0048267171 0.55699998 1.8084923e-38
0.023905318 0.0048180521 0.55599999 1.7993083e-38
0.025817739 0.0048180521 0.55599999 1.7808692e-38
0.027730197 0.0048180521 0.55599999 1.7623245e-38
0.029642617 0.0048180521 0.55599999 1.688568e-38
0.031555038 0.0048180521 0.55599999 1.6786723e-38
0.03346746 0.0048180521 0.55599999 1.6510136e-38
0.02004436 0.0028856208 0.55500001 1.7807237e-38
0.021953342 0.0028856208 0.55500001 1.7622846e-38
0.023862323 0.0028856208 0.55500001 1.6979281e-38
0.025771305 0.0028856208 0.55500001 1.6702694e-38
0.027680323 0.0028856208 0.55500001 1.6332845e-38
0.029589305 0.0028856208 0.55500001 1.6148454e-38
0.031498287 0.0028856208 0.55500001 1.5869756e-38
0.033407267 0.0028856208 0.55500001 1.5685364e-38
0.014368972 0.00096534897 0.55699998 1.7620399e-38
0.01628487 0.00096534897 0.55699998 1.7255884e-38
0.018200729 0.00096534897 0.55699998 1.7348079e-38
0.020008244 0.00096014969 0.55400002 1.6242445e-38
0.021874228 0.00095841649 0.55299997 1.6150249e-38
0.023776332 0.00095841649 0.55299997 1.5780372e-38
0.025678433 0.00095841649 0.55299997 1.5688177e-38
0.027580572 0.00095841649 0.55299997 1.4950987e-38
0.029535988 0.00096014969 0.55400002 1.46744e-38
0.031498287 0.00096188276 0.55500001 1.4488943e-38
0.033407267 0.00096188276 0.55500001 1.412016e-38
0.035316247 0.00096188276 0.55500001 1.586407e-38
0.012408398 -0.00096188276 0.55500001 1.7163346e-38
0.014368972 -0.00096534897 0.55699998 1.6794563e-38
0.01628487 -0.00096534897 0.55699998 1.6519035e-38
0.017971996 -0.00095321715 0.55000001 1.5873665e-38
0.019863781 -0.00095321715 0.55000001 1.5596347e-38
0.021795118 -0.00095495023 0.551 1.5135369e-38
0.023690341 -0.00095495023 0.551 1.4490015e-38
0.025539132 -0.00095321715 0.55000001 1.4305623e-38
0.02743095 -0.00095321715 0.55000001 1.4027932e-38
0.029322734 -0.00095321715 0.55000001 1.3382563e-38
0.031271268 -0.00095495023 0.551 1.3289288e-38
0.033286877 -0.00095841649 0.55299997 1.3565875e-38
0.035316247 -0.00096188276 0.55500001 1.3287908e-38
0.037225232 -0.00096188276 0.55500001 1.6330364e-38
0.03920472 -0.00096361584 0.55599999 1.7148372e-38
0.010499417 -0.0028856208 0.55500001 1.743244e-38
0.012408398 -0.0028856208 0.55500001 1.651724e-38
0.014317379 -0.0028856208 0.55500001 1.6148457e-38
0.01619716 -0.0028804217 0.55400002 1.5965139e-38
0.01793932 -0.002854425 0.54900002 1.5135378e-38
0.019827664 -0.002854425 0.54900002 1.4581491e-38
0.021716008 -0.002854425 0.54900002 1.3843926e-38
0.023604352 -0.002854425 0.54900002 1.3935772e-38
0.025492696 -0.002854425 0.54900002 1.2829424e-38
0.027381076 -0.002854425 0.54900002 1.2553538e-38
0.02926942 -0.002854425 0.54900002 1.2000364e-38
0.031214518 -0.0028596243 0.55000001 1.1908195e-38
0.033226687 -0.002870023 0.55199999 1.1723804e-38
0.03518898 -0.0028752221 0.55299997 1.1815607e-38
0.037225232 -0.0028856208 0.55500001 1.4581476e-38
0.03920472 -0.0028908201 0.55599999 1.7795179e-38
0.010480498 -0.0048007211 0.55400002 1.6697717e-38
0.01238604 -0.0048007211 0.55400002 1.5687849e-38
0.014317379 -0.0048093866 0.55500001 1.5411262e-38
0.016080214 -0.0047660586 0.55000001 1.5134655e-38
0.01793932 -0.0047573932 0.54900002 1.4489286e-38
0.019791547 -0.0047487277 0.54799998 1.3568065e-38
0.021636898 -0.0047400622 0.54699999 1.3107087e-38
0.023518361 -0.0047400622 0.54699999 1.3381159e-38
0.025399826 -0.0047400622 0.54699999 1.2551398e-38
0.027331199 -0.0047487277 0.54799998 1.1354632e-38
0.02926942 -0.0047573932 0.54900002 1.1631219e-38
0.031214518 -0.0047660586 0.55000001 1.1352503e-38
0.033226687 -0.0047833896 0.55199999 1.1721286e-38
0.03518898 -0.0047920551 0.55299997 1.209114e-38
0.037225232 -0.0048093866 0.55500001 1.2183336e-38
0.010480498 -0.0067209932 0.55400002 1.5963008e-38
0.01238604 -0.0067209932 0.55400002 1.5319785e-38
0.014291582 -0.0067209932 0.55400002 1.4951003e-38
0.016080214 -0.0066724657 0.55000001 1.4029384e-38
0.017906643 -0.006648202 0.54799998 1.347621e-38
0.019791547 -0.006648202 0.54799998 1.3290765e-38
0.021636898 -0.0066360706 0.54699999 1.2829787e-38
0.023518361 -0.0066360706 0.54699999 1.2184045e-38
0.025399826 -0.0066360706 0.54699999 1.1630871e-38
0.027331199 -0.006648202 0.54799998 1.1446124e-38
0.02926942 -0.0066603343 0.54900002 1.1169537e-38
0.031214518 -0.0066724657 0.55000001 1.126175e-38
0.033166494 -0.0066845976 0.551 1.1353945e-38
0.03518898 -0.0067088609 0.55299997 1.1814556e-38
0.037158158 -0.0067209932 0.55400002 1.1537969e-38
0.039134212 -0.0067331246 0.55500001 1.5402717e-38
0.041339036 -0.0067816516 0.55900002 1.6785651e-38
0.043261774 -0.0067816516 0.55900002 1.7148365e-38
0.010480498 -0.0086412923 0.55400002 1.5319066e-38
0.012341325 -0.0086100958 0.55199999 1.4490022e-38
0.014239988 -0.0086100958 0.55199999 1.430563e-38
0.016050976 -0.0085633025 0.54900002 1.3384383e-38
0.017906643 -0.0085477037 0.54799998 1.3015601e-38
0.019791547 -0.0085477037 0.54799998 1.2737589e-38
0.021636898 -0.0085321059 0.54699999 1.2092219e-38
0.023518361 -0.0085321059 0.54699999 1.1998577e-38
0.025399826 -0.0085321059 0.54699999 1.1537599e-38
0.027281327 -0.0085321059 0.54699999 1.089258e-38
0.029216103 -0.0085477037 0.54799998 1.1261363e-38
0.031214518 -0.0085789002 0.55000001 1.1077697e-38
0.033166494 -0.008594498 0.551 1.144648e-38
0.035125349 -0.0086100958 0.55199999 1.1631611e-38
0.037091084 -0.0086256936 0.55299997 1.1908198e-38
0.039134212 -0.0086568901 0.55500001 1.3375074e-38
0.04111718 -0.0086724879 0.55599999 1.5495574e-38
0.043106988 -0.0086880857 0.55699998 1.7515703e-38
0.0085594775 -0.0105425 0.55299997 1.495173e-38
0.01046158 -0.0105425 0.55299997 1.4582947e-38
0.012318968 -0.010504371 0.551 1.4213801e-38
0.014162596 -0.010466243 0.54900002 1.3752822e-38
0.016050976 -0.010466243 0.54900002 1.3199653e-38
0.017906643 -0.010447179 0.54799998 1.2646479e-38
0.019755432 -0.010428115 0.54699999 1.2185131e-38
0.021636898 -0.010428115 0.54699999 1.1539762e-38
0.023475366 -0.010409051 0.546 1.1262812e-38
0.025353391 -0.010409051 0.546 1.0986225e-38
0.027281327 -0.010428115 0.54699999 1.0617096e-38
0.029162791 -0.010428115 0.54699999 1.0709292e-38
0.031157762 -0.010466243 0.54900002 1.1261394e-38
0.033106301 -0.010485307 0.55000001 1.153798e-38
0.035061717 -0.010504371 0.551 1.1906752e-38
0.037091084 -0.0105425 0.55299997 1.1998947e-38
0.0390637 -0.010561564 0.55400002 1.2734722e-38
0.041043229 -0.010580628 0.55500001 1.2089352e-38
0.043106988 -0.010618756 0.55699998 1.8066715e-38
0.0085594775 -0.012459333 0.55299997 1.4490743e-38
0.01046158 -0.012459333 0.55299997 1.4121961e-38
0.012296611 -0.012391741 0.55000001 1.3568421e-38
0.014162596 -0.012369212 0.54900002 1.3199639e-38
0.01602174 -0.01234668 0.54799998 1.2738308e-38
0.017873967 -0.012324151 0.54699999 1.2185134e-38
0.019755432 -0.012324151 0.54699999 1.1724146e-38
0.021636898 -0.012324151 0.54699999 1.1263168e-38
0.023475366 -0.01230162 0.546 1.0894043e-38
0.025353391 -0.01230162 0.546 1.0340869e-38
0.027231451 -0.01230162 0.546 1.0432701e-38
0.029162791 -0.012324151 0.54699999 1.0709288e-38
0.031044256 -0.012324151 0.54699999 1.0893319e-38
0.032985911 -0.01234668 0.54799998 1.1354297e-38
0.034998085 -0.012391741 0.55000001 1.1539045e-38
0.037024014 -0.012436802 0.55199999 1.1723437e-38
0.0390637 -0.012481864 0.55400002 1.1630518e-38
0.041043229 -0.012504394 0.55500001 1.1446127e-38
0.043029599 -0.012526924 0.55599999 1.7241276e-38
0.045103688 -0.012571986 0.55800003 1.6780298e-38
0.012296611 -0.014298148 0.55000001 1.3015257e-38
0.014162596 -0.014272152 0.54900002 1.2554279e-38
0.015992504 -0.014220159 0.54699999 1.2093657e-38
0.017873967 -0.014220159 0.54699999 1.1724874e-38
0.019755432 -0.014220159 0.54699999 1.098766e-38
0.021636898 -0.014220159 0.54699999 1.0526682e-38
0.023475366 -0.014194163 0.546 9.881322e-39
0.025353391 -0.014194163 0.546 9.881322e-39
0.027231451 -0.014194163 0.546 1.0064269e-38
0.029162791 -0.014220159 0.54699999 9.9720729e-39
0.031044256 -0.014220159 0.54699999 1.0800408e-38
0.032925721 -0.014220159 0.54699999 1.1076995e-38
0.034870815 -0.014246156 0.54799998 1.1169537e-38
0.036822796 -0.014272152 0.54900002 1.1169537e-38
0.038922675 -0.014350142 0.55199999 1.1077002e-38
0.040895324 -0.014376138 0.55299997 1.1169198e-38
0.04295221 -0.014428132 0.55500001 1.7148725e-38
0.045103688 -0.014506122 0.55800003 1.6687747e-38
0.010404827 -0.016204583 0.55000001 1.2553565e-38
0.012296611 -0.016204583 0.55000001 1.2554257e-38
0.014162596 -0.016175121 0.54900002 1.2001083e-38
0.015992504 -0.016116194 0.54699999 1.1632673e-38
0.017873967 -0.016116194 0.54699999 1.1079499e-38
0.019755432 -0.016116194 0.54699999 1.0710717e-38
0.021636898 -0.016116194 0.54699999 1.043413e-38
0.023475366 -0.016086733 0.546 9.7898662e-39
0.025353391 -0.016086733 0.546 9.4210837e-39
0.027231451 -0.016086733 0.546 9.695123e-39
0.029109476 -0.016086733 0.546 9.7873187e-39
0.031044256 -0.016116194 0.54699999 1.0247595e-38
0.032925721 -0.016116194 0.54699999 1.0155399e-38
0.034870815 -0.016145658 0.54799998 1.0247581e-38
0.036822796 -0.016175121 0.54900002 1.0339776e-38
0.038852163 -0.016234046 0.551 1.043092e-38
0.040821373 -0.016263509 0.55199999 9.4167677e-39
0.04295221 -0.016351897 0.55500001 1.5677548e-38
0.0085904347 -0.018275663 0.55500001 1.2739756e-38
0.010404827 -0.018111017 0.55000001 1.2278778e-38
0.012296611 -0.018111017 0.55000001 1.2002172e-38
0.014162596 -0.018078089 0.54900002 1.1448998e-38
0.015992504 -0.018012229 0.54699999 1.0804345e-38
0.017873967 -0.018012229 0.54699999 1.0712149e-38
0.019755432 -0.018012229 0.54699999 1.0527398e-38
0.021636898 -0.018012229 0.54699999 1.0343006e-38
0.023432372 -0.017946374 0.54500002 9.8809703e-39
0.025306957 -0.017946374 0.54500002 9.6043834e-39
0.027181579 -0.017946374 0.54500002 9.4192648e-39
0.029109476 -0.017979302 0.546 9.2348736e-39
0.031044256 -0.018012229 0.54699999 9.4178341e-39
0.032925721 -0.018012229 0.54699999 9.5100297e-39
0.034870815 -0.018045159 0.54799998 9.0483117e-39
0.036822796 -0.018078089 0.54900002 9.7858767e-39
0.038852163 -0.018143946 0.551 9.6011716e-39
0.040821373 -0.018176876 0.55199999 8.2182371e-39
0.043029599 -0.018308591 0.55599999 1.5768304e-38
0.0085904347 -0.020199401 0.55500001 1.2554646e-38
0.01046158 -0.020126611 0.55299997 1.2093668e-38
0.012318968 -0.020053819 0.551 1.1357156e-38
0.014214191 -0.020053819 0.551 1.1080569e-38
0.01602174 -0.019944634 0.54799998 1.0620297e-38
0.017873967 -0.019908238 0.54699999 1.0435905e-38
0.019755432 -0.019908238 0.54699999 1.0251148e-38
0.021636898 -0.019908238 0.54699999 9.9745616e-39
0.023432372 -0.01983545 0.54500002 9.7894823e-39
0.025306957 -0.01983545 0.54500002 9.4206998e-39
0.027181579 -0.01983545 0.54500002 8.9600817e-39
0.029109476 -0.019871844 0.546 8.6834949e-39
0.031044256 -0.019908238 0.54699999 8.7735199e-39
0.032925721 -0.019908238 0.54699999 8.8657155e-39
0.034870815 -0.019944634 0.54799998 8.5887755e-39
0.036822796 -0.01998103 0.54900002 8.3121886e-39
0.038922675 -0.020090215 0.55199999 7.9412845e-39
0.040895324 -0.020126611 0.55299997 7.9412845e-39
0.042874817 -0.020163007 0.55400002 1.6688466e-38
0.010499417 -0.022123167 0.55500001 1.1266066e-38
0.01238604 -0.022083305 0.55400002 1.1080569e-38
0.014214191 -0.021963719 0.551 1.061959e-38
0.016080214 -0.021923859 0.55000001 1.0528461e-38
0.01793932 -0.021883998 0.54900002 9.8830918e-39
0.019755432 -0.021804275 0.54699999 9.6986894e-39
0.021597341 -0.021764413 0.546 9.5143009e-39
0.023475366 -0.021764413 0.546 9.5121513e-39
0.025306957 -0.021724552 0.54500002 9.2355658e-39
0.027181579 -0.021724552 0.54500002 8.7745961e-39
0.029109476 -0.021764413 0.546 8.6824004e-39
0.031044256 -0.021804275 0.54699999 8.6813242e-39
0.032925721 -0.021804275 0.54699999 8.0359646e-39
0.034870815 -0.021844136 0.54799998 8.3103949e-39
0.036822796 -0.021883998 0.54900002 7.941618e-39
0.038922675 -0.022003582 0.55199999 5.178661e-39
0.040895324 -0.022043442 0.55299997 1.0986967e-38
0.042874817 -0.022083305 0.55400002 1.6413323e-38
0.010499417 -0.024046905 0.55500001 1.0712539e-38
0.01238604 -0.024003578 0.55400002 1.0344426e-38
0.014291582 -0.024003578 0.55400002 1.0067839e-38
0.016167922 -0.023960249 0.55299997 9.2402293e-39
0.017971996 -0.023830267 0.55000001 9.1480351e-39
0.019791547 -0.023743611 0.54799998 8.7788995e-39
0.021597341 -0.023656955 0.546 8.9632879e-39
0.023475366 -0.023656955 0.546 8.5012406e-39
0.027231451 -0.023656955 0.546 8.2235817e-39
0.029109476 -0.023656955 0.546 8.1313875e-39
0.031101007 -0.023743611 0.54799998 7.8522937e-39
0.032985911 -0.023743611 0.54799998 7.7600994e-39
0.03493445 -0.02378694 0.54900002 7.574276e-39
0.03695694 -0.023873594 0.551 6.2835568e-39
0.038993184 -0.023960249 0.55299997 5.1812632e-39
0.040895324 -0.023960249 0.55299997 1.3663261e-38
0.042874817 -0.024003578 0.55400002 1.668775e-38
0.010499417 -0.025970669 0.55500001 1.1165295e-38
0.012408398 -0.025970669 0.55500001 9.8848897e-39
0.014291582 -0.025923876 0.55400002 9.4239115e-39
0.016167922 -0.025877083 0.55299997 9.2395119e-39
0.017971996 -0.025736701 0.55000001 8.7785407e-39
0.019863781 -0.025736701 0.55000001 8.5008818e-39
0.021755565 -0.025736701 0.55000001 8.4086876e-39
0.027231451 -0.025549525 0.546 8.0377583e-39
0.029109476 -0.025549525 0.546 7.6689814e-39
0.031101007 -0.025643112 0.54799998 7.8515762e-39
0.032985911 -0.025643112 0.54799998 7.5749935e-39
0.034998085 -0.025736701 0.55000001 6.5619332e-39
0.037024014 -0.025830289 0.55199999 4.2570775e-39
0.0390637 -0.025923876 0.55400002 1.4663797e-38
0.040969275 -0.025923876 0.55400002 1.5585753e-38
0.042874817 -0.025923876 0.55400002 1.6411516e-38
0.010499417 -0.027894408 0.55500001 1.3003492e-38
0.012408398 -0.027894408 0.55500001 9.1480477e-39
0.014317379 -0.027894408 0.55500001 8.4104827e-39
0.016226398 -0.027894408 0.55500001 8.8700175e-39
0.018135378 -0.027894408 0.55500001 8.4090463e-39
0.02004436 -0.027894408 0.55500001 7.7636867e-39
0.027281327 -0.027492328 0.54699999 7.4835167e-39
0.029162791 -0.027492328 0.54699999 7.4835167e-39
0.031101007 -0.027542587 0.54799998 7.3913225e-39
0.032985911 -0.027542587 0.54799998 7.2069341e-39
0.034998085 -0.027643107 0.55000001 3.6181793e-39
0.037091084 -0.027793888 0.55299997 1.1270417e-38
0.0390637 -0.02784415 0.55400002 1.6873951e-38
0.040969275 -0.02784415 0.55400002 1.6044191e-38
0.042874817 -0.02784415 0.55400002 1.631932e-38
0.010518334 -0.0298719 0.55599999 1.4016561e-38
0.012430754 -0.0298719 0.55599999 1.0251923e-38
0.014343176 -0.0298719 0.55599999 9.6987496e-39
0.016226398 -0.029818173 0.55500001 8.8703944e-39
0.018135378 -0.029818173 0.55500001 8.4094163e-39
0.020080475 -0.0298719 0.55599999 8.4065352e-39
0.027331199 -0.029442089 0.54799998 7.0229043e-39
0.029216103 -0.029442089 0.54799998 7.299487e-39
0.031157762 -0.029495817 0.54900002 7.0221869e-39
0.033286877 -0.029710721 0.55299997 6.1002446e-39
0.0027138668 -0.030083327 0.52600002 1.8269696e-38
0.0045230999 -0.030083327 0.52600002 1.6792428e-38
0.0063323327 -0.030083327 0.52600002 1.6700232e-38
0.0081415661 -0.030083327 0.52600002 1.5956196e-38
0.010537251 -0.031856295 0.55699998 1.2821545e-38
0.012453112 -0.031856295 0.55699998 1.1357146e-38
0.014343176 -0.031799104 0.55599999 1.1633733e-38
0.016255634 -0.031799104 0.55599999 1.0895114e-38
0.018135378 -0.031741913 0.55500001 1.0157549e-38
0.020008244 -0.031684719 0.55400002 9.7901983e-39
0.021874228 -0.031627525 0.55299997 9.1448289e-39
0.023776332 -0.031627525 0.55299997 9.2355658e-39
0.025678433 -0.031627525 0.55299997 9.0511774e-39
0.027530698 -0.031570334 0.55199999 8.4980148e-39
0.029429361 -0.031570334 0.55199999 7.5760697e-39
0.031328022 -0.031570334 0.55199999 7.7590232e-39
0.033286877 -0.031627525 0.55299997 7.2058579e-39
0.03518898 -0.031627525 0.55299997 7.9430698e-39
0.037225232 -0.031741913 0.55500001 1.4949938e-38
0.03920472 -0.031799104 0.55599999 1.6688097e-38
0.041560888 -0.032142259 0.56199998 1.6134923e-38
-0.0027293449 -0.032088544 0.52899998 1.6702717e-38
-0.00090635347 -0.03196723 0.52700001 1.5596369e-38
0.00090459926 -0.031906571 0.52600002 1.550487e-38
0.0027138668 -0.031906571 0.52600002 1.5320479e-38
0.0045230999 -0.031906571 0.52600002 1.5413025e-38
0.0063323327 -0.031906571 0.52600002 1.6427177e-38
0.0081415661 -0.031906571 0.52600002 1.6701275e-38
0.0099507989 -0.031906571 0.52600002 1.5871514e-38
0.012453112 -0.033786993 0.55699998 1.2188651e-38
0.014343176 -0.033726335 0.55599999 1.1912068e-38
0.016255634 -0.033726335 0.55599999 1.108161e-38
0.018135378 -0.033665679 0.55500001 1.0436243e-38
0.020008244 -0.03360502 0.55400002 9.3320648e-39
0.021874228 -0.033544358 0.55299997 8.9632879e-39
0.023776332 -0.033544358 0.55299997 8.8700175e-39
0.025678433 -0.033544358 0.55299997 8.685629e-39
0.026982078 -0.032816455 0.54100001 8.4990882e-39
0.028842906 -0.032816455 0.54100001 8.406894e-39
0.031328022 -0.033483703 0.55199999 8.2235817e-39
0.033166494 -0.03342304 0.551 9.4221193e-39
0.035061717 -0.03342304 0.551 9.9742701e-39
0.037225232 -0.033665679 0.55500001 1.1541596e-38
0.03920472 -0.033726335 0.55599999 1.5034641e-38
0.041560888 -0.034090288 0.56199998 1.5403423e-38
-0.004557495 -0.033986311 0.52999997 1.6058404e-38
-0.0027293449 -0.033922188 0.52899998 1.5136804e-38
-0.00090635347 -0.033793941 0.52700001 1.4952412e-38
0.0009028794 -0.033665687 0.52499998 1.4674766e-38
0.0027087068 -0.033665687 0.52499998 1.4674766e-38
0.0045145 -0.033665687 0.52499998 1.4491454e-38
0.0063202931 -0.033665687 0.52499998 1.6980736e-38
0.0081260866 -0.033665687 0.52499998 1.7625772e-38
0.0099318791 -0.033665687 0.52499998 1.6980402e-38
0.011760032 -0.033729818 0.52600002 1.614918e-38
0.013569265 -0.033729818 0.52600002 1.467405e-38
0.015378532 -0.033729818 0.52600002 1.3662364e-38
0.018135378 -0.035589442 0.55500001 1.3109191e-38
0.02004436 -0.035589442 0.55500001 1.2555638e-38
0.021953342 -0.035589442 0.55500001 1.1264915e-38
0.023862323 -0.035589442 0.55500001 1.0803226e-38
0.026982078 -0.034691691 0.54100001 9.3309886e-39
0.028842906 -0.034691691 0.54100001 9.5153771e-39
0.030703733 -0.034691691 0.54100001 1.0987644e-38
0.033166494 -0.035332941 0.551 1.1725209e-38
0.035061717 -0.035332941 0.551 1.2736892e-38
0.03695694 -0.035332941 0.551 1.3382262e-38
-0.0045488966 -0.035755806 0.52899998 1.550453e-38
-0.0027241856 -0.035688214 0.528 1.4858444e-38
-0.00090635347 -0.035620626 0.52700001 1.4397466e-38
0.0009028794 -0.035485439 0.52499998 1.4581501e-38
0.0027035475 -0.035417847 0.52399999 1.439711e-38
0.0045059011 -0.035417847 0.52399999 1.4304914e-38
0.0063082548 -0.035417847 0.52399999 1.4581501e-38
0.008110608 -0.035417847 0.52399999 1.4398532e-38
0.0098940451 -0.035350259 0.523 1.3937554e-38
0.011692959 -0.035350259 0.523 1.4490012e-38
0.013491873 -0.035350259 0.523 1.5227577e-38
0.015290821 -0.035350259 0.523 1.6243171e-38
0.017089736 -0.035350259 0.523 1.688854e-38
0.01888865 -0.035350259 0.523 1.6980385e-38
0.020687563 -0.035350259 0.523 1.6980385e-38
0.02326039 -0.036566906 0.54100001 1.688783e-38
0.025121216 -0.036566906 0.54100001 1.6150265e-38
0.026982078 -0.036566906 0.54100001 1.5228999e-38
0.028842906 -0.036566906 0.54100001 1.458363e-38
0.030703733 -0.036566906 0.54100001 1.3936112e-38
0.032564558 -0.036566906 0.54100001 1.4028308e-38
0.034425385 -0.036566906 0.54100001 1.4119464e-38
-0.0045488966 -0.037589449 0.52899998 1.4582205e-38
-0.0027190261 -0.037447337 0.52700001 1.4212719e-38
-0.00090635347 -0.037447337 0.52700001 1.4028327e-38
0.00090115966 -0.037234161 0.52399999 1.4120523e-38
0.0026983882 -0.037163105 0.523 1.3751741e-38
0.0044973022 -0.037163105 0.523 1.3476603e-38
0.0062962165 -0.037163105 0.523 1.2554646e-38
0.0080951303 -0.037163105 0.523 1.3476576e-38
0.0098940451 -0.037163105 0.523 1.2831207e-38
0.011692959 -0.037163105 0.523 1.2831204e-38
0.013491873 -0.037163105 0.523 1.3845356e-38
0.015290821 -0.037163105 0.523 1.5042454e-38
0.017089736 -0.037163105 0.523 1.6425389e-38
0.01888865 -0.037163105 0.523 1.5876193e-38
0.020845786 -0.037447337 0.52700001 1.6337171e-38
0.022658458 -0.037447337 0.52700001 1.6979309e-38
0.024703303 -0.037802622 0.53200001 1.6887114e-38
0.026533209 -0.037802622 0.53200001 1.7256597e-38
0.028363081 -0.037802622 0.53200001 1.6887814e-38
0.030419966 -0.038086854 0.53600001 1.6241744e-38
0.032263596 -0.038086854 0.53600001 1.4951005e-38
0.034107227 -0.038086854 0.53600001 1.4489286e-38
0.035950854 -0.038086854 0.53600001 1.4304895e-38
0.037794482 -0.038086854 0.53600001 1.4486787e-38
-0.0045402977 -0.039348543 0.528 1.4213788e-38
-0.0027190261 -0.039274022 0.52700001 1.4213086e-38
-0.00090119394 -0.039050449 0.52399999 1.3752108e-38
0.00089943997 -0.038975924 0.523 1.3660264e-38
0.0026983882 -0.038975924 0.523 1.3475873e-38
0.0044973022 -0.038975924 0.523 1.246315e-38
0.0062962165 -0.038975924 0.523 1.2278759e-38
0.0080951303 -0.038975924 0.523 1.2830514e-38
0.0098940451 -0.038975924 0.523 1.2092949e-38
0.011692959 -0.038975924 0.523 1.2001449e-38
0.013466075 -0.0389014 0.52200001 1.2093644e-38
0.015261584 -0.0389014 0.52200001 1.3476213e-38
0.017089736 -0.038975924 0.523 1.4859148e-38
0.01888865 -0.038975924 0.523 1.6056648e-38
0.020845786 -0.039274022 0.52700001 1.6425431e-38
0.022658458 -0.039274022 0.52700001 1.6519047e-38
0.02447113 -0.039274022 0.52700001 1.6426852e-38
0.026433459 -0.039497588 0.52999997 1.6702694e-38
0.02825645 -0.039497588 0.52999997 1.6702694e-38
0.030306457 -0.039795686 0.53399998 1.6610877e-38
0.032143205 -0.039795686 0.53399998 1.6518681e-38
0.034107227 -0.039944734 0.53600001 1.6610511e-38
0.035950854 -0.039944734 0.53600001 1.5596359e-38
-0.0063564098 -0.041178718 0.528 1.329365e-38
-0.0045316983 -0.041100729 0.52700001 1.4031216e-38
-0.0027190261 -0.041100729 0.52700001 1.3662789e-38
-0.00089947414 -0.04078877 0.523 1.301742e-38
0.00089943997 -0.04078877 0.523 1.3384044e-38
0.0026983882 -0.04078877 0.523 1.3199653e-38
0.0044973022 -0.04078877 0.523 1.2370967e-38
0.0062962165 -0.04078877 0.523 1.1449011e-38
0.0080951303 -0.04078877 0.523 1.1908544e-38
0.0098751262 -0.040710781 0.52200001 1.200074e-38
0.011670601 -0.040710781 0.52200001 1.1447894e-38
0.01341448 -0.040554799 0.51999998 1.1447894e-38
0.015203109 -0.040554799 0.51999998 1.2278048e-38
0.016991705 -0.040554799 0.51999998 1.2923418e-38
0.018780299 -0.040554799 0.51999998 1.4949558e-38
0.020687563 -0.04078877 0.523 1.5779319e-38
0.022615464 -0.041022744 0.52600002 1.6149549e-38
0.02447113 -0.041100729 0.52700001 1.6426136e-38
0.026283838 -0.041100729 0.52700001 1.6518326e-38
0.028149825 -0.041178718 0.528 1.6518326e-38
0.030079441 -0.041334696 0.52999997 1.6425767e-38
0.032083012 -0.04156867 0.53299999 1.6610158e-38
0.033979956 -0.041646659 0.53399998 1.6241379e-38
0.035816707 -0.041646659 0.53399998 1.6241379e-38
0.041868728 -0.042192593 0.54100001 1.6793821e-38
0.043729555 -0.042192593 0.54100001 1.5410886e-38
0.045590382 -0.042192593 0.54100001 1.4212699e-38
0.047538921 -0.042270582 0.542 1.3475134e-38
0.049494337 -0.042348571 0.54299998 1.4481804e-38
-0.0082034953 -0.043171782 0.52999997 1.4121253e-38
-0.0063564098 -0.043008871 0.528 1.4305663e-38
-0.0045316983 -0.042927414 0.52700001 1.4397858e-38
-0.0027138668 -0.042845961 0.52600002 1.3754257e-38
-0.00089947414 -0.042601589 0.523 1.3201084e-38
0.00089772017 -0.042520136 0.52200001 1.2922702e-38
0.0026932287 -0.042520136 0.52200001 1.2922702e-38
0.0044973022 -0.042601589 0.523 1.2186569e-38
0.0062962165 -0.042601589 0.523 1.1725591e-38
0.0080796517 -0.042520136 0.52200001 1.1355714e-38
0.0098562092 -0.042438678 0.52100003 1.1724496e-38
0.011625885 -0.042357221 0.51999998 1.135643e-38
0.013388684 -0.042275764 0.51899999 1.0803256e-38
0.015173873 -0.042275764 0.51899999 1.1170982e-38
0.016991705 -0.042357221 0.51999998 1.2000742e-38
0.018780299 -0.042357221 0.51999998 1.31085e-38
0.020687563 -0.042601589 0.523 1.4122652e-38
0.022529472 -0.042683046 0.52399999 1.4398179e-38
0.024378259 -0.0427645 0.52499998 1.522794e-38
0.026233964 -0.042845961 0.52600002 1.6055566e-38
0.028043197 -0.042845961 0.52600002 1.6239958e-38
0.029909182 -0.042927414 0.52700001 1.5872944e-38
0.031902432 -0.043171782 0.52999997 1.5872944e-38
0.033789061 -0.043253243 0.53100002 1.5780748e-38
0.035682563 -0.043334696 0.53200001 1.6518313e-38
0.037582941 -0.04341615 0.53299999 1.70708e-38
0.039416287 -0.04341615 0.53299999 1.6609822e-38
0.041791342 -0.04398635 0.54000002 1.596441e-38
0.043648727 -0.04398635 0.54000002 1.5226845e-38
0.045506116 -0.04398635 0.54000002 1.3107781e-38
0.047451209 -0.044067804 0.54100001 1.3107781e-38
0.049403191 -0.044149257 0.542 1.2644667e-38
-0.0082034953 -0.04500889 0.52999997 1.4028327e-38
-0.006368448 -0.044923969 0.52899998 1.4581881e-38
-0.0045402977 -0.044839047 0.528 1.4305294e-38
-0.0027138668 -0.044669203 0.52600002 1.3200732e-38
-0.00089603453 -0.044244595 0.52100003 1.2463167e-38
0.00089600042 -0.044244595 0.52100003 1.2646489e-38
0.0026932287 -0.044329513 0.52200001 1.2554293e-38
0.0044973022 -0.044414435 0.523 1.2278048e-38
0.0062962165 -0.044414435 0.523 1.1448288e-38
0.0080796517 -0.044329513 0.52200001 1.1447922e-38
0.0098372903 -0.044159669 0.51999998 1.1263531e-38
0.011625885 -0.044159669 0.51999998 1.1079487e-38
0.013388684 -0.044074744 0.51899999 1.0618509e-38
0.015173873 -0.044074744 0.51899999 1.0710354e-38
0.016991705 -0.044159669 0.51999998 1.1355723e-38
0.018852532 -0.044329513 0.52200001 1.2094007e-38
0.020687563 -0.044414435 0.523 1.246279e-38
0.022486478 -0.044414435 0.523 1.3291492e-38
0.024285393 -0.044414435 0.523 1.3752471e-38
0.026184086 -0.044584278 0.52499998 1.5042875e-38
0.027989879 -0.044584278 0.52499998 1.6149222e-38
0.029852429 -0.044669203 0.52600002 1.6886056e-38
0.03178205 -0.044839047 0.528 1.679386e-38
0.033725422 -0.04500889 0.52999997 1.6977862e-38
0.035615493 -0.045093816 0.53100002 1.6516884e-38
0.037441924 -0.045093816 0.53100002 1.6977139e-38
0.039268389 -0.045093816 0.53100002 1.5594204e-38
0.041559167 -0.04560335 0.537 1.42134e-38
0.043406233 -0.04560335 0.537 1.3936813e-38
0.045337569 -0.045688272 0.53799999 1.3104203e-38
0.047451209 -0.04594304 0.54100001 1.255103e-38
0.049312036 -0.04594304 0.54100001 1.1906366e-38
-0.0082189739 -0.046934366 0.53100002 1.4121969e-38
-0.0063804863 -0.046845973 0.52999997 1.4490387e-38
-0.0045402977 -0.0466692 0.528 1.3937214e-38
-0.0027241856 -0.0466692 0.528 1.3107823e-38
-0.00089603453 -0.046050481 0.52100003 1.2554649e-38
0.00089600042 -0.046050481 0.52100003 1.255393e-38
0.0026932287 -0.046138868 0.52200001 1.255393e-38
0.0044801044 -0.046050481 0.52100003 1.2093654e-38
0.0062721395 -0.046050481 0.52100003 1.1448285e-38
0.0080332169 -0.045873698 0.51899999 1.0895101e-38
0.0098183723 -0.045873698 0.51899999 1.1079492e-38
0.011603529 -0.045873698 0.51899999 1.117132e-38
0.013388684 -0.045873698 0.51899999 1.0894733e-38
0.015173873 -0.045873698 0.51899999 1.0710354e-38
0.016991705 -0.045962092 0.51999998 1.080255e-38
0.018852532 -0.046138868 0.52200001 1.1355007e-38
0.020687563 -0.046227254 0.523 1.172379e-38
0.022486478 -0.046227254 0.523 1.2277341e-38
0.024285393 -0.046227254 0.523 1.2369536e-38
0.026184086 -0.04640403 0.52499998 1.1540443e-38
0.027989879 -0.04640403 0.52499998 1.3753138e-38
0.029795673 -0.04640403 0.52499998 1.2831945e-38
0.031661663 -0.046492424 0.52600002 1.3477314e-38
0.033534527 -0.04658081 0.52700001 1.4858804e-38
0.035548415 -0.046845973 0.52999997 1.5043195e-38
0.037371404 -0.046845973 0.52999997 1.3291753e-38
0.039194431 -0.046845973 0.52999997 1.2830782e-38
0.041559167 -0.047464699 0.537 1.301521e-38
0.043325406 -0.047376309 0.53600001 1.2093253e-38
0.045169033 -0.047376309 0.53600001 1.1630498e-38
0.047188077 -0.047553085 0.53799999 1.1538303e-38
0.049312036 -0.047818255 0.54100001 1.2365559e-38
-0.0082189739 -0.048774943 0.53100002 1.3754278e-38
-0.0063804863 -0.048683081 0.52999997 1.3844652e-38
-0.0045402977 -0.048499376 0.528 1.347587e-38
-0.0026983882 -0.048040099 0.523 1.292271e-38
-0.00089603453 -0.047856394 0.52100003 1.2461732e-38
0.00089600042 -0.047856394 0.52100003 1.2369176e-38
0.0026880694 -0.047856394 0.52100003 1.227698e-38
0.0044715046 -0.047764536 0.51999998 1.2002177e-38
0.0062600998 -0.047764536 0.51999998 1.1356808e-38
0.0080332169 -0.047672682 0.51899999 1.0802932e-38
0.0097994553 -0.047580827 0.51800001 1.0710737e-38
0.011581171 -0.047580827 0.51800001 1.098766e-38
0.013388684 -0.047672682 0.51899999 1.0618877e-38
0.015173873 -0.047672682 0.51899999 1.0710354e-38
0.016991705 -0.047764536 0.51999998 1.0433767e-38
0.018852532 -0.047948249 0.52200001 1.0526319e-38
0.020687563 -0.048040099 0.523 1.1263884e-38
0.022486478 -0.048040099 0.523 1.1170966e-38
0.024285393 -0.048040099 0.523 1.1631945e-38
0.026084341 -0.048040099 0.523 1.0895086e-38
0.027936567 -0.048131954 0.52399999 1.0157521e-38
0.029795673 -0.048223808 0.52499998 1.2369176e-38
0.031601466 -0.048223808 0.52499998 1.3106741e-38
0.033534527 -0.048407521 0.52700001 1.2552452e-38
0.035414275 -0.048499376 0.528 1.2275865e-38
0.037230387 -0.048499376 0.528 1.301342e-38
0.039046533 -0.048499376 0.528 1.2829029e-38
0.040940035 -0.04859123 0.52899998 1.2091471e-38
0.043325406 -0.049234219 0.53600001 1.1630493e-38
0.045169033 -0.049234219 0.53600001 1.1445398e-38
0.047012664 -0.049234219 0.53600001 1.2090767e-38
0.049129739 -0.049509779 0.53899997 1.0708562e-38
0.050983686 -0.049509779 0.53899997 1.0616366e-38
-0.0082499301 -0.050806157 0.53299999 1.3659927e-38
-0.0063804863 -0.050520193 0.52999997 1.3567716e-38
-0.0044973022 -0.049852949 0.523 1.3106738e-38
-0.0026983882 -0.049852949 0.523 1.2278062e-38
-0.00089603453 -0.049662307 0.52100003 1.2185867e-38
0.00089600042 -0.049662307 0.52100003 1.1816348e-38
0.0026880694 -0.049662307 0.52100003 1.1908544e-38
0.0044715046 -0.049566984 0.51999998 1.2000742e-38
0.0062480615 -0.049471661 0.51899999 1.1447569e-38
0.0080177393 -0.049376342 0.51800001 1.1170982e-38
0.0097994553 -0.049376342 0.51800001 1.0617808e-38
0.011581171 -0.049376342 0.51800001 1.1169537e-38
0.013388684 -0.049471661 0.51899999 1.1077341e-38
0.015173873 -0.049471661 0.51899999 1.0618175e-38
0.016991705 -0.049566984 0.51999998 1.0433784e-38
0.018816419 -0.049662307 0.52100003 1.043378e-38
0.020568894 -0.049566984 0.51999998 1.0525975e-38
0.02235749 -0.049566984 0.51999998 1.0984776e-38
0.024192523 -0.049662307 0.52100003 1.1076971e-38
0.026084341 -0.049852949 0.523 1.1076616e-38
0.027883254 -0.049852949 0.523 1.0339051e-38
0.029795673 -0.050043587 0.52499998 9.4210473e-39
0.031601466 -0.050043587 0.52499998 1.0066417e-38
0.033534527 -0.050234232 0.52700001 1.1446124e-38
0.035414275 -0.050329551 0.528 1.089295e-38
0.037230387 -0.050329551 0.528 1.1721991e-38
0.039046533 -0.050329551 0.528 1.1814186e-38
0.040940035 -0.050424874 0.52899998 1.153795e-38
0.043244574 -0.050996803 0.53500003 1.0615993e-38
0.045084763 -0.050996803 0.53500003 1.1168076e-38
0.047012664 -0.051092125 0.53600001 1.1260271e-38
0.049038585 -0.051282763 0.53799999 1.0706401e-38
0.050983686 -0.051378082 0.53899997 1.0153227e-38
-0.0044973022 -0.051665768 0.523 1.2554279e-38
-0.0026983882 -0.051665768 0.523 1.2093671e-38
-0.00089603453 -0.051468194 0.52100003 1.1817084e-38
0.00089600042 -0.051468194 0.52100003 1.1816365e-38
0.0026880694 -0.051468194 0.52100003 1.172417e-38
0.0044715046 -0.051369406 0.51999998 1.190855e-38
0.0062480615 -0.051270615 0.51899999 1.1447571e-38
0.0080177393 -0.051171832 0.51800001 1.1078783e-38
0.0097994553 -0.051171832 0.51800001 1.0894392e-38
0.011581171 -0.051171832 0.51800001 1.061924e-38
0.013388684 -0.051270615 0.51899999 1.061924e-38
0.015173873 -0.051270615 0.51899999 1.0526319e-38
0.016959028 -0.051270615 0.51899999 1.0434123e-38
0.018816419 -0.051468194 0.52100003 1.0433394e-38
0.020568894 -0.051369406 0.51999998 1.0249003e-38
0.02235749 -0.051369406 0.51999998 1.0708925e-38
0.024192523 -0.051468194 0.52100003 1.0524533e-38
0.026084341 -0.051665768 0.523 1.0340505e-38
0.027883254 -0.051665768 0.523 1.0156114e-38
0.02973892 -0.051764552 0.52399999 1.0247949e-38
0.031601466 -0.051863339 0.52499998 1.0340145e-38
0.033534527 -0.052060917 0.52700001 1.0984776e-38
0.035347201 -0.052060917 0.52700001 1.0800385e-38
0.037230387 -0.052159704 0.528 1.0892214e-38
0.039046533 -0.052159704 0.528 1.0892214e-38
0.040940035 -0.052258488 0.52899998 1.0800016e-38
0.043244574 -0.052851219 0.53500003 1.0523429e-38
0.045084763 -0.052851219 0.53500003 1.0800016e-38
0.047012664 -0.052950006 0.53600001 1.070782e-38
0.049038585 -0.053147577 0.53799999 1.0707123e-38
0.050983686 -0.053246364 0.53899997 9.9695575e-39
-0.0044973022 -0.053478613 0.523 1.2185511e-38
-0.0026983882 -0.053478613 0.523 1.2093671e-38
-0.00089603453 -0.05327411 0.52100003 1.1817084e-38
0.00089600042 -0.05327411 0.52100003 1.1724886e-38
0.0026880694 -0.05327411 0.52100003 1.1448299e-38
0.0044715046 -0.053171851 0.51999998 1.1631957e-38
0.0062480615 -0.053069595 0.51899999 1.1447566e-38
0.0080177393 -0.052967343 0.51800001 1.1079499e-38
0.0097994553 -0.052967343 0.51800001 1.0895108e-38
0.011603529 -0.053069595 0.51899999 1.0802903e-38
0.013388684 -0.053069595 0.51899999 1.0895098e-38
0.015144638 -0.052967343 0.51800001 1.0802552e-38
0.016926354 -0.052967343 0.51800001 1.0525966e-38
0.018816419 -0.05327411 0.52100003 1.0617432e-38
0.020687563 -0.053478613 0.523 1.0433041e-38
0.022486478 -0.053478613 0.523 1.0433394e-38
0.024285393 -0.053478613 0.523 1.052559e-38
0.026084341 -0.053478613 0.523 1.0432338e-38
0.027883254 -0.053478613 0.523 1.0247947e-38
0.02973892 -0.053580865 0.52399999 1.0247949e-38
0.031661663 -0.053785376 0.52600002 9.8791668e-39
0.033534527 -0.053887628 0.52700001 1.0063908e-38
0.035347201 -0.053887628 0.52700001 1.02483e-38
0.037159871 -0.053887628 0.52700001 1.0432328e-38
0.039046533 -0.05398988 0.528 1.0616719e-38
0.040940035 -0.054092132 0.52899998 1.0155741e-38
0.043244574 -0.054705661 0.53500003 1.080111e-38
0.045084763 -0.054705661 0.53500003 1.0706767e-38
0.047012664 -0.054807913 0.53600001 1.0522375e-38
0.049038585 -0.055012416 0.53799999 1.0153208e-38
0.050889093 -0.055012416 0.53799999 9.3234553e-39
-0.0044973022 -0.055291433 0.523 1.2184432e-38
-0.0026983882 -0.055291433 0.523 1.2000391e-38
-0.00089947414 -0.055291433 0.523 1.1815999e-38
0.00089943997 -0.055291433 0.523 1.1632327e-38
0.0026932287 -0.055185713 0.52200001 1.1447936e-38
0.0044715046 -0.054974273 0.51999998 1.1447932e-38
0.0062480615 -0.054868553 0.51899999 1.126354e-38
0.0080332169 -0.054868553 0.51899999 1.1262812e-38
0.0098183723 -0.054868553 0.51899999 1.107842e-38
0.011625885 -0.054974273 0.51999998 1.0802906e-38
0.01341448 -0.054974273 0.51999998 1.0802906e-38
0.015144638 -0.054762833 0.51800001 1.0618158e-38
0.016926354 -0.054762833 0.51800001 1.0618158e-38
0.018744184 -0.054868553 0.51899999 1.0892577e-38
0.020687563 -0.055291433 0.523 1.0892577e-38
0.022486478 -0.055291433 0.523 1.0432338e-38
0.024285393 -0.055291433 0.523 1.0524533e-38
0.026084341 -0.055291433 0.523 1.0340142e-38
0.027883254 -0.055291433 0.523 1.0340142e-38
0.02973892 -0.055397149 0.52399999 1.0247595e-38
0.031721853 -0.055714313 0.52700001 1.0155399e-38
0.033534527 -0.055714313 0.52700001 1.0155754e-38
0.035347201 -0.055714313 0.52700001 1.0155754e-38
0.037159871 -0.055714313 0.52700001 1.0156104e-38
0.039342336 -0.056242913 0.53200001 9.6029302e-39
0.04117221 -0.056242913 0.53200001 1.0247944e-38
0.04300208 -0.056242913 0.53200001 9.9713568e-39
0.04500049 -0.056454349 0.53399998 9.9706478e-39
0.04683724 -0.056454349 0.53399998 9.6940609e-39
0.048856292 -0.056665793 0.53600001 8.8642778e-39
0.050889093 -0.056877229 0.53799999 1.3474055e-38
-0.0026983882 -0.057104278 0.523 1.1724167e-38
-0.00089947414 -0.057104278 0.523 1.1539776e-38
0.00089943997 -0.057104278 0.523 1.144758e-38
0.0026932287 -0.056995094 0.52200001 1.1355384e-38
0.0044715046 -0.056776721 0.51999998 1.1447559e-38
0.0062600998 -0.056776721 0.51999998 1.1263168e-38
0.0080332169 -0.056667533 0.51899999 1.1078776e-38
0.0098183723 -0.056667533 0.51899999 1.0894385e-38
0.011625885 -0.056776721 0.51999998 1.0985852e-38
0.01341448 -0.056776721 0.51999998 1.1078048e-38
0.015173873 -0.056667533 0.51899999 1.0708925e-38
0.016959028 -0.056667533 0.51899999 1.0708925e-38
0.018744184 -0.056667533 0.51899999 1.0525249e-38
0.020687563 -0.057104278 0.523 1.0433054e-38
0.022486478 -0.057104278 0.523 1.0340505e-38
0.024285393 -0.057104278 0.523 1.0432701e-38
0.026084341 -0.057104278 0.523 1.0432328e-38
0.027883254 -0.057104278 0.523 1.0432328e-38
0.02973892 -0.057213463 0.52399999 1.033979e-38
0.031661663 -0.057431839 0.52600002 1.0247595e-38
0.033534527 -0.057541024 0.52700001 1.0155754e-38
0.035347201 -0.057541024 0.52700001 1.0063558e-38
0.037230387 -0.057650208 0.528 9.8791612e-39
0.039342336 -0.058086954 0.53200001 9.9713568e-39
0.04117221 -0.058086954 0.53200001 1.0524536e-38
0.04300208 -0.058086954 0.53200001 1.0708927e-38
0.04500049 -0.058305323 0.53399998 1.015396e-38
0.04683724 -0.058305323 0.53399998 1.015396e-38
0.048856292 -0.0585237 0.53600001 7.4850035e-39
0.050889093 -0.058742069 0.53799999 1.5137241e-38
0.0026932287 -0.058804449 0.52200001 1.1353575e-38
0.0044801044 -0.058691796 0.52100003 1.1170243e-38
0.0062600998 -0.058579143 0.51999998 1.1078048e-38
0.0080486946 -0.058579143 0.51999998 1.0802906e-38
0.0098372903 -0.058579143 0.51999998 1.0895101e-38
0.011648244 -0.058691796 0.52100003 1.0894046e-38
0.013440279 -0.058691796 0.52100003 1.080185e-38
0.015232348 -0.058691796 0.52100003 1.0433054e-38
0.017024383 -0.058691796 0.52100003 1.0525249e-38
0.01888865 -0.058917098 0.523 1.0340855e-38
0.020687563 -0.058917098 0.523 1.0433051e-38
0.022486478 -0.058917098 0.523 1.0156467e-38
0.024285393 -0.058917098 0.523 1.0156467e-38
0.026084341 -0.058917098 0.523 1.0156104e-38
0.027883254 -0.058917098 0.523 1.0063908e-38
0.029795673 -0.0591424 0.52499998 9.9717099e-39
0.031661663 -0.059255056 0.52600002 1.0156101e-38
0.033534527 -0.059367709 0.52700001 1.0155754e-38
0.035347201 -0.059367709 0.52700001 9.6025799e-39
0.037230387 -0.059480358 0.528 9.3266937e-39
0.039342336 -0.059930969 0.53200001 9.7876718e-39
0.041249596 -0.060043618 0.53299999 9.1419465e-39
0.043163739 -0.060156271 0.53399998 9.6029246e-39
0.045084763 -0.060268927 0.53500003 1.006215e-38
0.046924952 -0.060268927 0.53500003 9.6933672e-39
0.048856292 -0.06038158 0.53600001 1.3007837e-38
0.0080796517 -0.060613826 0.52200001 1.0157557e-38
0.0098751262 -0.060613826 0.52200001 1.0157557e-38
0.011670601 -0.060613826 0.52200001 9.8809759e-39
0.013466075 -0.060613826 0.52200001 9.7887802e-39
0.015232348 -0.060497709 0.52100003 1.0156478e-38
0.017024383 -0.060497709 0.52100003 1.0064283e-38
0.01888865 -0.060729943 0.523 1.0247595e-38
0.020687563 -0.060729943 0.523 1.0247595e-38
0.022529472 -0.060846061 0.52399999 1.0155412e-38
0.024331825 -0.060846061 0.52399999 9.1412598e-39
0.026134213 -0.060846061 0.52399999 1.0063206e-38
0.027936567 -0.060846061 0.52399999 9.8788151e-39
0.029795673 -0.060962178 0.52499998 9.7869824e-39
0.031661663 -0.061078303 0.52600002 9.6947867e-39
0.033534527 -0.06119442 0.52700001 9.4182026e-39
0.035347201 -0.06119442 0.52700001 9.4182026e-39
0.037300896 -0.061426651 0.52899998 8.4036654e-39
0.039416287 -0.061891127 0.53299999 8.4958596e-39
0.041249596 -0.061891127 0.53299999 9.1394578e-39
0.043244574 -0.062123369 0.53500003 9.0472621e-39
0.045169033 -0.062239487 0.53600001 7.848754e-39
0.047012664 -0.062239487 0.53600001 9.9692535e-39
0.0080796517 -0.062423181 0.52200001 9.6018849e-39
0.0098751262 -0.062423181 0.52200001 8.9565154e-39
0.011692959 -0.062542766 0.523 9.417481e-39
0.013491873 -0.062542766 0.523 9.3252854e-39
0.015261584 -0.062423181 0.52200001 9.3256637e-39
0.017057057 -0.062423181 0.52200001 8.7724899e-39
0.018924765 -0.062662348 0.52399999 9.0494061e-39
0.020727118 -0.062662348 0.52399999 9.2337974e-39
0.022658458 -0.063021101 0.52700001 9.1402061e-39
0.024378259 -0.06278193 0.52499998 9.0480104e-39
0.026184086 -0.06278193 0.52499998 9.0494299e-39
0.039638147 -0.064097367 0.53600001 7.1108036e-39
0.041481778 -0.064097367 0.53600001 6.275306e-39
0.043325406 -0.064097367 0.53600001 4.247033e-39
0.045169033 -0.064097367 0.53600001 5.7361312e-40
0.047012664 -0.064097367 0.53600001 6.6585149e-39
