# .PCD v0.7 - Point Cloud Data file format
VERSION 0.7
FIELDS x y z rgb
SIZE 4 4 4 4
TYPE F F F F
COUNT 1 1 1 1
WIDTH 956
HEIGHT 1
VIEWPOINT 0 0 0 1 0 0 0
POINTS 956
DATA ascii
-0.014033648 -0.00094281853 0.54400003 1.7706159e-38
-0.012184842 -0.0009445516 0.54500002 1.8904702e-38
-0.010310256 -0.0009445516 0.54500002 1.6979306e-38
-0.0084201926 -0.00094281853 0.54400003 1.670272e-38
-0.0065490287 -0.00094281853 0.54400003 1.5874732e-38
-0.0046434863 -0.000935886 0.54000002 1.5598145e-38
-0.0027860987 -0.000935886 0.54000002 1.5596357e-38
-0.00093387079 -0.00094108528 0.54299998 1.5596357e-38
0.00093383528 -0.00094108528 0.54299998 1.5318703e-38
0.0027860987 -0.000935886 0.54000002 1.5134312e-38
0.0046434863 -0.000935886 0.54000002 1.4674769e-38
0.006512912 -0.00093761907 0.54100001 1.4490378e-38
0.0083737392 -0.00093761907 0.54100001 1.4397466e-38
0.010310238 -0.0009445516 0.54500002 1.4581857e-38
0.012184823 -0.0009445516 0.54500002 1.4397097e-38
0.014059409 -0.0009445516 0.54500002 1.5319054e-38
0.01593403 -0.0009445516 0.54500002 1.7518579e-38
0.017808616 -0.0009445516 0.54500002 1.7426384e-38
-0.014033648 -0.0028284288 0.54400003 1.7250525e-38
-0.012162484 -0.0028284288 0.54400003 1.7158329e-38
-0.010291338 -0.0028284288 0.54400003 1.5688219e-38
-0.0084047131 -0.0028232289 0.54299998 1.5042849e-38
-0.0065249507 -0.0028180298 0.542 1.5226858e-38
-0.004634887 -0.0028024318 0.53899997 1.5042467e-38
-0.0027706204 -0.0027920331 0.537 1.421341e-38
-0.00092355185 -0.0027920331 0.537 1.4121214e-38
0.00092523644 -0.0027972325 0.53799999 1.3661333e-38
0.0027757797 -0.0027972325 0.53799999 1.329255e-38
0.0046262876 -0.0027972325 0.53799999 1.3475497e-38
0.0064888345 -0.0028024318 0.53899997 1.3567693e-38
0.008342782 -0.0028024318 0.53899997 1.3933616e-38
0.010215648 -0.0028076314 0.54000002 1.4118008e-38
0.012095393 -0.0028128305 0.54100001 1.4118361e-38
0.01395622 -0.0028128305 0.54100001 1.3565187e-38
0.015904794 -0.0028284288 0.54400003 1.5865127e-38
0.017808616 -0.0028336279 0.54500002 1.6602692e-38
0.019755432 -0.0028440263 0.54699999 1.7333472e-38
-0.012117769 -0.0046967342 0.542 1.716086e-38
-0.010253502 -0.0046967342 0.542 1.6791014e-38
-0.0083737569 -0.0046880688 0.54100001 1.5223688e-38
-0.006512912 -0.0046880688 0.54100001 1.4858088e-38
-0.0046090903 -0.0046447408 0.53600001 1.4304914e-38
-0.0027654611 -0.0046447408 0.53600001 1.4027967e-38
-0.00092183205 -0.0046447408 0.53600001 1.3474794e-38
0.00092179701 -0.0046447408 0.53600001 1.3381496e-38
0.0027654611 -0.0046447408 0.53600001 1.2920518e-38
0.0046176892 -0.0046534063 0.537 1.2461698e-38
0.0064767958 -0.0046620718 0.53799999 1.2646089e-38
0.008342782 -0.0046707373 0.53899997 1.2369905e-38
0.01019673 -0.0046707373 0.53899997 1.2646492e-38
0.012073036 -0.0046794033 0.54000002 1.2921994e-38
0.01395622 -0.0046880688 0.54100001 1.2921994e-38
0.015875556 -0.0047053997 0.54299998 1.3013479e-38
0.017808616 -0.0047227312 0.54500002 1.5963739e-38
0.019719316 -0.0047313967 0.546 1.7424598e-38
-0.014007849 -0.0065875435 0.54299998 1.7061828e-38
-0.012117769 -0.0065754117 0.542 8.5798296e-39
-0.010234583 -0.0065632802 0.54100001 1.6876398e-38
-0.0083737569 -0.0065632802 0.54100001 1.6323224e-38
-0.006512912 -0.0065632802 0.54100001 1.4305644e-38
-0.0046090903 -0.0065026213 0.53600001 1.3752471e-38
-0.0027654611 -0.0065026213 0.53600001 1.3291844e-38
-0.00092183205 -0.0065026213 0.53600001 1.2830866e-38
0.00092179701 -0.0065026213 0.53600001 1.2093671e-38
0.0027654611 -0.0065026213 0.53600001 1.190928e-38
0.0046176892 -0.0065147532 0.537 1.1908181e-38
0.0064647575 -0.0065147532 0.537 1.1631594e-38
0.0083273035 -0.0065268846 0.53799999 1.1815632e-38
0.01019673 -0.006539016 0.53899997 1.1723437e-38
0.012050678 -0.006539016 0.53899997 1.2184422e-38
0.013930423 -0.0065511488 0.54000002 1.2092226e-38
0.015817082 -0.0065632802 0.54100001 1.2091846e-38
0.017743262 -0.0065875435 0.54299998 1.4396737e-38
0.019647086 -0.0065996759 0.54400003 1.7793734e-38
-0.019647103 -0.0084853126 0.54400003 1.8344747e-38
-0.01777594 -0.0084853126 0.54400003 1.7428121e-38
-0.015904794 -0.0084853126 0.54400003 1.6690556e-38
-0.014007849 -0.0084697139 0.54299998 1.0894733e-38
-0.012117769 -0.0084541161 0.542 7.7600994e-39
-0.010234583 -0.0084385183 0.54100001 1.512648e-38
-0.0083737569 -0.0084385183 0.54100001 1.5679654e-38
-0.006512912 -0.0084385183 0.54100001 1.4398209e-38
-0.0046004909 -0.0083449306 0.53500003 1.4029426e-38
-0.0027603016 -0.0083449306 0.53500003 1.3476605e-38
-0.00092183205 -0.0083605284 0.53600001 1.3107823e-38
0.00092179701 -0.0083605284 0.53600001 1.2093671e-38
0.0027654611 -0.0083605284 0.53600001 1.1817084e-38
0.0046090903 -0.0083605284 0.53600001 1.1356092e-38
0.0064527192 -0.0083605284 0.53600001 1.1263896e-38
0.0083118258 -0.0083761262 0.537 1.1354284e-38
0.010158895 -0.0083761262 0.537 1.144648e-38
0.01202832 -0.008391724 0.53799999 1.1446124e-38
0.013930423 -0.0084229205 0.54000002 1.1907102e-38
0.015817082 -0.0084385183 0.54100001 1.1815999e-38
0.017743262 -0.0084697139 0.54299998 1.2276978e-38
0.019647086 -0.0084853126 0.54400003 1.7517861e-38
-0.023260407 -0.01031373 0.54100001 1.9420381e-38
-0.02139958 -0.01031373 0.54100001 1.868284e-38
-0.019538753 -0.01031373 0.54100001 1.7115514e-38
-0.017710585 -0.010332794 0.542 1.8423883e-38
-0.015875556 -0.010351858 0.54299998 1.9345839e-38
-0.013982053 -0.010332794 0.542 1.383858e-38
-0.01209541 -0.01031373 0.54100001 9.966364e-39
-0.010215666 -0.010294666 0.54000002 1.6512635e-38
-0.0083427997 -0.0102756 0.53899997 1.5682874e-38
-0.0064527192 -0.010218409 0.53600001 1.4306013e-38
-0.0046004909 -0.010199345 0.53500003 1.393723e-38
-0.0027603016 -0.010199345 0.53500003 1.3384407e-38
-0.00092011219 -0.010199345 0.53500003 1.310782e-38
0.0009200772 -0.010199345 0.53500003 1.2646828e-38
0.0027603016 -0.010199345 0.53500003 1.2278045e-38
0.0046004909 -0.010199345 0.53500003 1.1355373e-38
0.0064406805 -0.010199345 0.53500003 1.0986591e-38
0.0082963482 -0.010218409 0.53600001 1.0710354e-38
0.010139978 -0.010218409 0.53600001 1.0894745e-38
0.01202832 -0.010256537 0.53799999 1.1077692e-38
0.013930423 -0.010294666 0.54000002 1.1446474e-38
0.015817082 -0.01031373 0.54100001 1.1629442e-38
0.017677909 -0.01031373 0.54100001 1.0984072e-38
0.019610967 -0.010351858 0.54299998 1.6138136e-38
0.021676451 -0.010447179 0.54799998 1.6783506e-38
-0.023260407 -0.012188968 0.54100001 1.8397591e-38
-0.02139958 -0.012188968 0.54100001 1.858485e-38
-0.019502638 -0.012166438 0.54000002 1.7847296e-38
-0.017645234 -0.012166438 0.54000002 1.794667e-38
-0.015817082 -0.012188968 0.54100001 2.1634496e-38
-0.013956255 -0.012188968 0.54100001 1.5585972e-38
-0.012073054 -0.012166438 0.54000002 1.687671e-38
-0.010158912 -0.012098846 0.537 1.4951017e-38
-0.0082963658 -0.012076315 0.53600001 1.467443e-38
-0.0064406805 -0.012053786 0.53500003 1.4398196e-38
-0.0045918915 -0.012031254 0.53399998 1.3752827e-38
-0.002755142 -0.012031254 0.53399998 1.3568058e-38
-0.00091839232 -0.012031254 0.53399998 1.2830493e-38
0.0009183574 -0.012031254 0.53399998 1.2646462e-38
0.0027603016 -0.012053786 0.53500003 1.227768e-38
0.0045918915 -0.012031254 0.53399998 1.1724156e-38
0.0064286413 -0.012031254 0.53399998 1.1355373e-38
0.0082808696 -0.012053786 0.53500003 1.1078783e-38
0.010139978 -0.012076315 0.53600001 1.0617805e-38
0.01202832 -0.012121377 0.53799999 1.0801468e-38
0.013930423 -0.012166438 0.54000002 1.0985859e-38
0.015817082 -0.012188968 0.54100001 1.1169537e-38
0.017677909 -0.012188968 0.54100001 1.0339776e-38
0.019610967 -0.012234028 0.54299998 1.5217593e-38
0.021676451 -0.01234668 0.54799998 1.696931e-38
-0.023217414 -0.014038184 0.54000002 1.3617841e-38
-0.021360027 -0.014038184 0.54000002 1.7388477e-38
-0.019502638 -0.014038184 0.54000002 1.8494808e-38
-0.017645234 -0.014038184 0.54000002 1.8216073e-38
-0.015787845 -0.014038184 0.54000002 2.2364858e-38
-0.013930459 -0.014038184 0.54000002 1.8431814e-38
-0.012050696 -0.014012185 0.53899997 1.787864e-38
-0.010139995 -0.013934196 0.53600001 1.4581152e-38
-0.0082808873 -0.0139082 0.53500003 1.4304565e-38
-0.0064406805 -0.0139082 0.53500003 1.3936841e-38
-0.0045918915 -0.013882202 0.53399998 1.3199276e-38
-0.0027499825 -0.013856206 0.53299999 1.2922676e-38
-0.00091667246 -0.013856206 0.53299999 1.2185111e-38
0.0009166376 -0.013856206 0.53299999 1.2185111e-38
0.002755142 -0.013882202 0.53399998 1.1816329e-38
0.0045918915 -0.013882202 0.53399998 1.1631947e-38
0.0064286413 -0.013882202 0.53399998 1.1263165e-38
0.0082808696 -0.0139082 0.53500003 1.1354284e-38
0.010139978 -0.013934196 0.53600001 1.1169893e-38
0.011983606 -0.013934196 0.53600001 1.0801471e-38
0.013982018 -0.014090176 0.542 1.0801471e-38
0.015846319 -0.014090176 0.542 1.0893666e-38
0.017710585 -0.014090176 0.542 9.9717099e-39
0.019610967 -0.014116172 0.54299998 1.3375845e-38
0.021636898 -0.014220159 0.54699999 1.6510496e-38
0.023561355 -0.014246156 0.54799998 1.6780295e-38
-0.023217414 -0.015909955 0.54000002 1.686962e-38
-0.021360027 -0.015909955 0.54000002 1.2704552e-38
-0.019430405 -0.015851028 0.53799999 1.0860639e-38
-0.01757988 -0.015851028 0.53799999 1.6375451e-38
-0.015758609 -0.015880492 0.53899997 1.8034972e-38
-0.013904661 -0.015880492 0.53899997 1.5650087e-38
-0.012005981 -0.015821565 0.537 1.9983281e-38
-0.010139995 -0.015792103 0.53600001 1.4947414e-38
-0.0082808873 -0.01576264 0.53500003 1.3841066e-38
-0.0064406805 -0.01576264 0.53500003 1.3475144e-38
-0.0045918915 -0.015733177 0.53399998 1.2737579e-38
-0.0027499825 -0.015703714 0.53299999 1.1724493e-38
-0.00091667246 -0.015703714 0.53299999 1.1540102e-38
0.0009166376 -0.015703714 0.53299999 1.1445013e-38
0.002755142 -0.015733177 0.53399998 1.1352817e-38
0.0045832926 -0.015703714 0.53299999 1.1446124e-38
0.0064166025 -0.015703714 0.53299999 1.089295e-38
0.011983606 -0.015792103 0.53600001 1.0617067e-38
0.013827235 -0.015792103 0.53600001 1.034048e-38
0.015670899 -0.015792103 0.53600001 1.0433029e-38
0.017808616 -0.01605727 0.54500002 9.6954636e-39
0.019683201 -0.01605727 0.54500002 1.309999e-38
0.021597341 -0.016086733 0.546 1.605025e-38
0.023518361 -0.016116194 0.54699999 1.6687381e-38
-0.023217414 -0.017781727 0.54000002 1.7605737e-38
-0.021360027 -0.017781727 0.54000002 1.1512132e-38
-0.019430405 -0.017715868 0.53799999 7.4555356e-39
-0.01757988 -0.017715868 0.53799999 1.1032098e-38
-0.015758609 -0.017748795 0.53899997 1.2138433e-38
-0.013904661 -0.017748795 0.53899997 1.2133765e-38
-0.012005981 -0.01768294 0.537 1.8218662e-38
-0.010139995 -0.01765001 0.53600001 1.4210217e-38
-0.0082808873 -0.017617082 0.53500003 1.3749239e-38
-0.0064286413 -0.017584151 0.53399998 1.2462802e-38
-0.0045832926 -0.017551223 0.53299999 1.1909629e-38
-0.0027499825 -0.017551223 0.53299999 1.1539399e-38
-0.00091667246 -0.017551223 0.53299999 1.0894029e-38
0.0009166376 -0.017551223 0.53299999 1.0893319e-38
0.0027499825 -0.017551223 0.53299999 1.0708927e-38
0.0045832926 -0.017551223 0.53299999 1.0524868e-38
0.0064166025 -0.017551223 0.53299999 1.0432673e-38
0.0082963482 -0.01765001 0.53600001 1.0340858e-38
0.010139978 -0.01765001 0.53600001 1.0248663e-38
0.011983606 -0.01765001 0.53600001 1.0155735e-38
0.013827235 -0.01765001 0.53600001 1.0247931e-38
0.015670899 -0.01765001 0.53600001 1.0155368e-38
0.01757988 -0.017715868 0.53799999 9.4178033e-39
0.019683201 -0.017946374 0.54500002 1.3007438e-38
0.021597341 -0.017979302 0.546 1.5865503e-38
0.023518361 -0.018012229 0.54699999 1.6687384e-38
-0.023260407 -0.019689867 0.54100001 1.4998243e-38
-0.02139958 -0.019689867 0.54100001 1.3612101e-38
-0.019466521 -0.019617075 0.53899997 1.379649e-38
-0.017612556 -0.019617075 0.53899997 1.4443643e-38
-0.015758609 -0.019617075 0.53899997 1.4720226e-38
-0.013904661 -0.019617075 0.53899997 1.2242102e-38
-0.012005981 -0.019544285 0.537 1.7220647e-38
-0.010139995 -0.019507891 0.53600001 1.3381177e-38
-0.0082808873 -0.019471496 0.53500003 1.2828003e-38
-0.0064286413 -0.019435098 0.53399998 1.2092941e-38
-0.0045832926 -0.019398704 0.53299999 1.1539767e-38
-0.0027448232 -0.01936231 0.53200001 1.1355723e-38
-0.00091495266 -0.01936231 0.53200001 1.080255e-38
0.00091491785 -0.01936231 0.53200001 1.0157546e-38
0.0027448232 -0.01936231 0.53200001 1.0157546e-38
0.0045832926 -0.019398704 0.53299999 9.9724232e-39
0.0064166025 -0.019398704 0.53299999 1.0064619e-38
0.0082963482 -0.019507891 0.53600001 9.9717099e-39
0.010139978 -0.019507891 0.53600001 9.7873187e-39
0.011983606 -0.019507891 0.53600001 9.8791318e-39
0.013827235 -0.019507891 0.53600001 9.9713274e-39
0.015700135 -0.019544285 0.537 9.6014757e-39
0.01757988 -0.019580681 0.53799999 8.863919e-39
0.019430388 -0.019580681 0.53799999 1.4019456e-38
-0.023260407 -0.021565106 0.54100001 1.472993e-38
-0.02139958 -0.021565106 0.54100001 1.3620352e-38
-0.019466521 -0.021485381 0.53899997 1.2974992e-38
-0.017612556 -0.021485381 0.53899997 1.3158663e-38
-0.015758609 -0.021485381 0.53899997 1.4264994e-38
-0.013930459 -0.021525245 0.54000002 1.2267282e-38
-0.012028337 -0.02144552 0.53799999 1.3742412e-38
-0.010158912 -0.02140566 0.537 1.2369888e-38
-0.0082963658 -0.021365797 0.53600001 1.2001105e-38
-0.0064286413 -0.021286072 0.53399998 1.1816348e-38
-0.0045832926 -0.021246212 0.53299999 1.135537e-38
-0.0027448232 -0.021206351 0.53200001 1.1078771e-38
-0.00091495266 -0.021206351 0.53200001 1.0709988e-38
0.00091491785 -0.021206351 0.53200001 1.0708925e-38
0.0027448232 -0.021206351 0.53200001 1.0432338e-38
0.0045832926 -0.021246212 0.53299999 1.034013e-38
0.0064166025 -0.021246212 0.53299999 1.0155738e-38
0.0082963482 -0.021365797 0.53600001 9.7880347e-39
0.010139978 -0.021365797 0.53600001 9.3270566e-39
0.011983606 -0.021365797 0.53600001 9.1430129e-39
0.013853032 -0.02140566 0.537 9.0508186e-39
0.015700135 -0.02140566 0.537 8.8657253e-39
0.017612556 -0.021485381 0.53899997 8.0359646e-39
0.019574853 -0.021604966 0.542 1.6136734e-38
-0.023260407 -0.023440316 0.54100001 1.8069227e-38
-0.02139958 -0.023440316 0.54100001 1.8157109e-38
-0.019502638 -0.023396989 0.54000002 1.3731719e-38
-0.017645234 -0.023396989 0.54000002 1.207749e-38
-0.015758609 -0.02335366 0.53899997 1.4474577e-38
-0.013904661 -0.02335366 0.53899997 1.2552514e-38
-0.012050696 -0.02335366 0.53899997 1.2183731e-38
-0.010177829 -0.023310333 0.53799999 1.2277329e-38
-0.0082963658 -0.023223678 0.53600001 1.1724156e-38
-0.0064527192 -0.023223678 0.53600001 1.1815985e-38
-0.0045832926 -0.023093693 0.53299999 1.1170616e-38
-0.0027499825 -0.023093693 0.53299999 1.107948e-38
-0.00091667246 -0.023093693 0.53299999 1.0249719e-38
0.0009166376 -0.023093693 0.53299999 1.0524496e-38
0.0027499825 -0.023093693 0.53299999 1.0340104e-38
0.0045832926 -0.023093693 0.53299999 9.9731196e-39
0.0064286413 -0.023137022 0.53399998 9.696537e-39
0.0082963482 -0.023223678 0.53600001 9.511801e-39
0.010139978 -0.023223678 0.53600001 9.1430185e-39
0.011983606 -0.023223678 0.53600001 9.0508186e-39
0.013853032 -0.023267005 0.537 8.9586244e-39
0.015700135 -0.023267005 0.537 7.4878215e-39
0.017645234 -0.023396989 0.54000002 1.0991234e-38
0.019574853 -0.023483643 0.542 1.6781034e-38
-0.019538753 -0.025315555 0.54100001 1.7793381e-38
-0.017645234 -0.025268761 0.54000002 1.5586405e-38
-0.015758609 -0.025221966 0.53899997 1.3281514e-38
-0.013904661 -0.025221966 0.53899997 1.2184785e-38
-0.010196748 -0.025221966 0.53899997 1.16323e-38
-0.0083273211 -0.025175173 0.53799999 1.1540105e-38
-0.0064527192 -0.025081586 0.53600001 1.1079127e-38
-0.0045918915 -0.024987996 0.53399998 1.0341562e-38
-0.002755142 -0.024987996 0.53399998 1.0341538e-38
-0.00091839232 -0.024987996 0.53399998 9.9727609e-39
0.0009166376 -0.024941202 0.53299999 9.6047015e-39
0.0027499825 -0.024941202 0.53299999 9.6047015e-39
0.0045918915 -0.024987996 0.53399998 9.512866e-39
0.0064286413 -0.024987996 0.53399998 9.1440891e-39
0.0082963482 -0.025081586 0.53600001 9.3270426e-39
0.010139978 -0.025081586 0.53600001 9.0504599e-39
0.012005963 -0.025128379 0.537 8.7749534e-39
0.013878828 -0.025175173 0.53799999 8.4983707e-39
0.015787845 -0.025268761 0.54000002 8.5910232e-39
0.017677909 -0.025315555 0.54100001 1.4214957e-38
-0.0083273211 -0.027039984 0.53799999 1.0892933e-38
-0.0064767958 -0.027039984 0.53799999 1.034194e-38
-0.0046176892 -0.026989724 0.537 9.7887662e-39
-0.0027654611 -0.026939467 0.53600001 9.6961894e-39
-0.00091839232 -0.026838943 0.53399998 9.05082e-39
0.0009183574 -0.026838943 0.53399998 9.2355658e-39
0.002755142 -0.026838943 0.53399998 9.2355658e-39
0.0045918915 -0.026838943 0.53399998 8.8675064e-39
0.0064527192 -0.026939467 0.53600001 8.6831179e-39
0.0082963482 -0.026939467 0.53600001 8.4065352e-39
0.010158895 -0.026989724 0.537 8.4065352e-39
0.01202832 -0.027039984 0.53799999 8.2221468e-39
0.013930423 -0.027140507 0.54000002 8.4987295e-39
0.015817082 -0.027190767 0.54100001 1.4389706e-38
-0.0064888345 -0.02895855 0.53899997 8.9600691e-39
-0.0046262876 -0.028904824 0.53799999 8.9600691e-39
-0.0027654611 -0.028797373 0.53600001 8.9604195e-39
-0.00092011219 -0.028743647 0.53500003 8.4994469e-39
0.0009200772 -0.028743647 0.53500003 8.1313875e-39
0.0027654611 -0.028797373 0.53600001 8.2235817e-39
0.0046090903 -0.028797373 0.53600001 8.1321049e-39
0.0064527192 -0.028797373 0.53600001 8.0399107e-39
0.0083273035 -0.028904824 0.53799999 7.7626106e-39
0.01019673 -0.02895855 0.53899997 7.7626106e-39
0.012073036 -0.02901228 0.54000002 7.4849517e-39
0.01395622 -0.029066006 0.54100001 1.1541537e-38
-0.0083427997 -0.030826829 0.53899997 1.0892953e-38
-0.0064888345 -0.030826829 0.53899997 1.0156478e-38
-0.0046262876 -0.030769637 0.53799999 9.7876956e-39
-0.0027757797 -0.030769637 0.53799999 9.4192396e-39
-0.00092699152 -0.030826829 0.53899997 9.327044e-39
0.00092523644 -0.030769637 0.53799999 8.8660714e-39
0.0027654611 -0.030655254 0.53600001 8.8660714e-39
0.0046090903 -0.030655254 0.53600001 8.221788e-39
0.0064767958 -0.030769637 0.53799999 8.3139823e-39
0.008342782 -0.030826829 0.53899997 8.1292351e-39
0.010215648 -0.030884024 0.54000002 8.0370408e-39
0.012073036 -0.030884024 0.54000002 7.3027156e-39
0.01395622 -0.030941216 0.54100001 1.0990521e-38
0.038711138 -0.031398758 0.54900002 1.6701981e-38
0.040525563 -0.031341564 0.54799998 1.7900524e-38
0.042410467 -0.031341564 0.54799998 1.7622145e-38
0.044214543 -0.031284373 0.54699999 1.4118711e-38
0.046011735 -0.031227179 0.546 1.4757011e-38
0.047889762 -0.031227179 0.546 1.4941402e-38
-0.0064888345 -0.032695133 0.53899997 1.1354321e-38
-0.004634887 -0.032695133 0.53899997 1.0432364e-38
-0.0027757797 -0.032634478 0.53799999 9.8816723e-39
-0.00092355185 -0.032573819 0.537 9.6050854e-39
0.00092351669 -0.032573819 0.537 9.8798941e-39
0.0027706204 -0.032573819 0.537 9.142329e-39
0.0046262876 -0.032634478 0.53799999 9.3270426e-39
0.0064767958 -0.032634478 0.53799999 9.0504599e-39
0.0083582606 -0.032755796 0.54000002 8.6816872e-39
0.010234565 -0.032816455 0.54100001 9.234861e-39
0.012095393 -0.032816455 0.54100001 1.0156467e-38
0.01395622 -0.032816455 0.54100001 1.1262814e-38
0.017743262 -0.032937769 0.54299998 1.4393542e-38
0.019610967 -0.032937769 0.54299998 1.5218296e-38
0.027031954 -0.032877114 0.542 1.55896e-38
0.02889622 -0.032877114 0.542 1.641936e-38
0.030930748 -0.03305909 0.54500002 1.6054856e-38
0.032805335 -0.03305909 0.54500002 1.596266e-38
0.034807187 -0.033180408 0.54699999 1.5687849e-38
0.036755718 -0.033241063 0.54799998 1.6056631e-38
0.038640626 -0.033241063 0.54799998 1.7254812e-38
0.040451616 -0.033180408 0.54699999 1.5779681e-38
0.042178299 -0.03305909 0.54500002 1.4858384e-38
0.044052884 -0.03305909 0.54500002 1.3383254e-38
0.046011735 -0.033119749 0.546 1.4207028e-38
0.047889762 -0.033119749 0.546 1.5036789e-38
-0.0065008737 -0.034627568 0.54000002 1.098662e-38
-0.0046176892 -0.03443519 0.537 1.098662e-38
-0.0027706204 -0.03443519 0.537 1.0710381e-38
-0.00092183205 -0.034371067 0.53600001 1.0618185e-38
0.00092179701 -0.034371067 0.53600001 1.0249771e-38
0.0027654611 -0.034371067 0.53600001 1.006538e-38
0.0046090903 -0.034371067 0.53600001 9.9731687e-39
0.0064767958 -0.034499317 0.53799999 9.6043862e-39
0.0083273035 -0.034499317 0.53799999 9.6976342e-39
0.010083223 -0.034178689 0.53299999 1.0527395e-38
0.011916532 -0.034178689 0.53299999 1.1450126e-38
0.01377564 -0.034242813 0.53399998 1.2095495e-38
0.015612424 -0.034242813 0.53399998 1.3475497e-38
0.017710585 -0.034755819 0.542 1.3475497e-38
0.019574853 -0.034755819 0.542 1.3382598e-38
0.021478673 -0.034819942 0.54299998 1.3566989e-38
0.023346379 -0.034819942 0.54299998 1.3659182e-38
0.025214085 -0.034819942 0.54299998 1.4212356e-38
0.026982078 -0.034691691 0.54100001 1.4396747e-38
0.028842906 -0.034691691 0.54100001 1.5134312e-38
0.030703733 -0.034691691 0.54100001 1.5503451e-38
0.032805335 -0.034948193 0.54500002 1.5595646e-38
0.034743551 -0.03501232 0.546 1.6241025e-38
0.036688648 -0.035076443 0.54699999 1.697859e-38
0.038499601 -0.03501232 0.546 1.697606e-38
0.040303711 -0.034948193 0.54500002 1.4763365e-38
0.042178299 -0.034948193 0.54500002 1.4397097e-38
0.044052884 -0.034948193 0.54500002 1.1907815e-38
0.046011735 -0.03501232 0.546 1.227372e-38
0.047889762 -0.03501232 0.546 1.4763002e-38
0.049767785 -0.03501232 0.546 1.6040926e-38
-0.0083427997 -0.036431719 0.53899997 1.0343707e-38
-0.0064767958 -0.036364127 0.53799999 1.0250798e-38
-0.0046176892 -0.036296539 0.537 1.0066407e-38
-0.0027654611 -0.036228947 0.53600001 1.0067123e-38
-0.00092183205 -0.036228947 0.53600001 9.6983404e-39
0.00092179701 -0.036228947 0.53600001 1.0157158e-38
0.0027654611 -0.036228947 0.53600001 9.7883753e-39
0.0046090903 -0.036228947 0.53600001 9.8805835e-39
0.0064767958 -0.036364127 0.53799999 1.0525953e-38
0.0083273035 -0.036364127 0.53799999 1.0712142e-38
0.010064305 -0.035958581 0.53200001 1.2095076e-38
0.011894176 -0.035958581 0.53200001 1.347481e-38
0.013749843 -0.036026172 0.53299999 1.3843593e-38
0.015612424 -0.036093764 0.53399998 1.3753173e-38
0.017677909 -0.036566906 0.54100001 1.3753173e-38
0.019538736 -0.036566906 0.54100001 1.4120537e-38
0.021478673 -0.036702085 0.54299998 1.4028341e-38
0.023346379 -0.036702085 0.54299998 1.4581504e-38
0.025214085 -0.036702085 0.54299998 1.5226873e-38
0.026932206 -0.036499314 0.54000002 1.5411981e-38
0.028789593 -0.036499314 0.54000002 1.5596372e-38
0.030703733 -0.036566906 0.54100001 1.5964438e-38
0.032745142 -0.036769681 0.54400003 1.6425417e-38
0.034616288 -0.036769681 0.54400003 1.6333934e-38
0.036554504 -0.036837272 0.54500002 1.578076e-38
0.038499601 -0.03690486 0.546 1.5319419e-38
0.040303711 -0.036837272 0.54500002 1.4213072e-38
0.042178299 -0.036837272 0.54500002 1.412016e-38
0.044052884 -0.036837272 0.54500002 1.1723074e-38
0.045927469 -0.036837272 0.54500002 1.1445366e-38
0.047802053 -0.036837272 0.54500002 1.430343e-38
0.049676638 -0.036837272 0.54500002 1.5489554e-38
-0.015817082 -0.038442142 0.54100001 1.2093639e-38
-0.013956255 -0.038442142 0.54100001 1.190926e-38
-0.011983624 -0.038086854 0.53600001 1.2278043e-38
-0.010139995 -0.038086854 0.53600001 1.163337e-38
-0.0082963658 -0.038086854 0.53600001 1.2094348e-38
-0.0064527192 -0.038086854 0.53600001 1.1818086e-38
-0.0046090903 -0.038086854 0.53600001 1.1910282e-38
-0.0027654611 -0.038086854 0.53600001 1.1633695e-38
-0.00092011219 -0.038015798 0.53500003 1.1080527e-38
0.0009200772 -0.038015798 0.53500003 1.0251855e-38
0.0027654611 -0.038086854 0.53600001 1.0712826e-38
0.0046176892 -0.03815791 0.537 1.0529537e-38
0.0064767958 -0.038228966 0.53799999 1.1635885e-38
0.0083273035 -0.038228966 0.53799999 1.2463518e-38
0.010045388 -0.037731566 0.53100002 1.3569866e-38
0.011871819 -0.037731566 0.53100002 1.3660983e-38
0.013724046 -0.037802622 0.53200001 1.3753178e-38
0.015583187 -0.037873682 0.53299999 1.3936848e-38
0.017416498 -0.037873682 0.53299999 1.4029044e-38
0.019213693 -0.037802622 0.53200001 1.4212722e-38
0.021043563 -0.037802622 0.53200001 1.4858091e-38
0.02283044 -0.037731566 0.53100002 1.5594941e-38
0.024656871 -0.037731566 0.53100002 1.5687137e-38
0.026782582 -0.03815791 0.537 1.5873686e-38
0.028629651 -0.03815791 0.537 1.5873686e-38
0.03053347 -0.038228966 0.53799999 1.6609442e-38
0.032383978 -0.038228966 0.53799999 1.6425051e-38
0.034616288 -0.038655318 0.54400003 1.6517602e-38
0.036554504 -0.038726375 0.54500002 1.6333211e-38
0.038429093 -0.038726375 0.54500002 1.4951366e-38
0.040303711 -0.038726375 0.54500002 1.4305996e-38
0.042178299 -0.038726375 0.54500002 1.3659172e-38
0.044052884 -0.038726375 0.54500002 1.181526e-38
0.045843199 -0.038655318 0.54400003 1.0799998e-38
0.047714345 -0.038655318 0.54400003 1.3381471e-38
0.049676638 -0.038726375 0.54500002 1.5674667e-38
-0.019538753 -0.040317353 0.54100001 1.4307002e-38
-0.017677909 -0.040317353 0.54100001 1.4210557e-38
-0.015758609 -0.040168304 0.53899997 1.4487143e-38
-0.013827271 -0.039944734 0.53600001 1.4027628e-38
-0.011983624 -0.039944734 0.53600001 1.4212019e-38
-0.010102158 -0.039795686 0.53399998 1.4766628e-38
-0.0082499301 -0.039721161 0.53299999 1.4951019e-38
-0.0064045643 -0.03964664 0.53200001 1.5503451e-38
-0.0045746937 -0.03964664 0.53200001 1.5042472e-38
-0.0027654611 -0.039944734 0.53600001 1.3938217e-38
-0.00091323286 -0.039572116 0.53100002 1.3938217e-38
0.00091319816 -0.039572116 0.53100002 1.3662377e-38
0.0027654611 -0.039944734 0.53600001 1.3846768e-38
0.0046262876 -0.04009378 0.53799999 1.421522e-38
0.0064767958 -0.04009378 0.53799999 1.3938633e-38
0.0083273035 -0.04009378 0.53799999 1.4030065e-38
0.010045388 -0.039572116 0.53100002 1.3845674e-38
0.011871819 -0.039572116 0.53100002 1.3660955e-38
0.013724046 -0.03964664 0.53200001 1.3568759e-38
0.015553951 -0.03964664 0.53200001 1.3844267e-38
0.017383821 -0.03964664 0.53200001 1.4120854e-38
0.019213693 -0.03964664 0.53200001 1.467334e-38
0.021043563 -0.03964664 0.53200001 1.4765535e-38
0.02283044 -0.039572116 0.53100002 1.5134675e-38
0.024656871 -0.039572116 0.53100002 1.587224e-38
0.026732709 -0.039944734 0.53600001 1.5689295e-38
0.028576339 -0.039944734 0.53600001 1.6058077e-38
0.030419966 -0.039944734 0.53600001 1.6609442e-38
0.032263596 -0.039944734 0.53600001 1.6793833e-38
0.034107227 -0.039944734 0.53600001 1.6609445e-38
0.035749633 -0.039721161 0.53299999 1.6517249e-38
0.037935503 -0.04009378 0.53799999 1.5503472e-38
0.039786045 -0.04009378 0.53799999 1.4397124e-38
0.041636553 -0.04009378 0.53799999 1.2646793e-38
0.043972056 -0.040540926 0.54400003 1.1171663e-38
0.045843199 -0.040540926 0.54400003 1.1076609e-38
0.047714345 -0.040540926 0.54400003 1.209076e-38
0.049585491 -0.040540926 0.54400003 1.5857973e-38
-0.02139958 -0.042192593 0.54100001 1.4674419e-38
-0.019466521 -0.042036608 0.53899997 1.485881e-38
-0.017547203 -0.04188063 0.537 1.485881e-38
-0.015700135 -0.04188063 0.537 1.4766614e-38
-0.013827271 -0.041802641 0.53600001 1.5410919e-38
-0.01191655 -0.04156867 0.53299999 1.6332875e-38
-0.010064323 -0.041490681 0.53200001 1.6333967e-38
-0.0082344525 -0.041490681 0.53200001 1.6333967e-38
-0.006392526 -0.041412693 0.53100002 1.6058083e-38
-0.0045660948 -0.041412693 0.53100002 1.633467e-38
-0.0027396639 -0.041412693 0.53100002 1.6518316e-38
-0.00091323286 -0.041412693 0.53100002 1.7532468e-38
0.00091319816 -0.041412693 0.53100002 1.7901616e-38
0.0027396639 -0.041412693 0.53100002 1.8086007e-38
0.0046262876 -0.041958619 0.53799999 1.8084572e-38
0.0064767958 -0.041958619 0.53799999 1.7807985e-38
0.0083273035 -0.041958619 0.53799999 1.7438843e-38
0.0099129621 -0.040866759 0.52399999 1.6977865e-38
0.011715315 -0.040866759 0.52399999 1.6056259e-38
0.013724046 -0.041490681 0.53200001 1.5410889e-38
0.015553951 -0.041490681 0.53200001 1.4858429e-38
0.017383821 -0.041490681 0.53200001 1.4950624e-38
0.019213693 -0.041490681 0.53200001 1.458221e-38
0.021043563 -0.041490681 0.53200001 1.5135384e-38
0.022873433 -0.041490681 0.53200001 1.5135391e-38
0.024703303 -0.041490681 0.53200001 1.5227587e-38
0.026583083 -0.04156867 0.53299999 1.5227577e-38
0.028363081 -0.041490681 0.53200001 1.5227577e-38
0.030192951 -0.041490681 0.53200001 1.5779684e-38
0.032083012 -0.04156867 0.53299999 1.6425054e-38
0.033916321 -0.04156867 0.53299999 1.6793134e-38
0.035749633 -0.04156867 0.53299999 1.6424352e-38
0.037935503 -0.041958619 0.53799999 1.5502386e-38
0.039786045 -0.041958619 0.53799999 1.3566277e-38
0.041636553 -0.041958619 0.53799999 1.1725172e-38
0.04381039 -0.042270582 0.542 1.1079809e-38
0.045674656 -0.042270582 0.542 1.0983356e-38
0.047538921 -0.042270582 0.542 1.0614574e-38
0.049494337 -0.042348571 0.54299998 1.5214752e-38
-0.02139958 -0.044067804 0.54100001 1.5135397e-38
-0.019430405 -0.043823432 0.53799999 1.5135397e-38
-0.017514529 -0.043660522 0.53600001 1.495138e-38
-0.015670899 -0.043660522 0.53600001 1.5412358e-38
-0.013749877 -0.04341615 0.53299999 1.6333951e-38
-0.01191655 -0.04341615 0.53299999 1.5965169e-38
-0.010064323 -0.043334696 0.53200001 1.6056648e-38
-0.0082189739 -0.043253243 0.53100002 1.6148844e-38
-0.0063804863 -0.043171782 0.52999997 1.6516898e-38
-0.004557495 -0.043171782 0.52999997 1.7346658e-38
-0.0027345042 -0.043171782 0.52999997 1.7901266e-38
-0.00091151294 -0.043171782 0.52999997 1.6610527e-38
0.00089600042 -0.042438678 0.52100003 1.6978565e-38
0.0026880694 -0.042438678 0.52100003 1.5964413e-38
0.0044887033 -0.042520136 0.52200001 1.5781439e-38
0.0062841778 -0.042520136 0.52200001 1.5873634e-38
0.008110608 -0.042683046 0.52399999 1.5320498e-38
0.0099129621 -0.042683046 0.52399999 1.6519042e-38
0.011715315 -0.042683046 0.52399999 1.7532483e-38
0.013517669 -0.042683046 0.52399999 1.6426136e-38
0.015320057 -0.042683046 0.52399999 1.5872959e-38
0.017383821 -0.043334696 0.53200001 1.5504176e-38
0.019177578 -0.043253243 0.53100002 1.5597053e-38
0.021004008 -0.043253243 0.53100002 1.5412662e-38
0.022787441 -0.043171782 0.52999997 1.5043889e-38
0.024610432 -0.043171782 0.52999997 1.5320476e-38
0.026583083 -0.04341615 0.53299999 1.5228621e-38
0.028309768 -0.043253243 0.53100002 1.5781795e-38
0.030136198 -0.043253243 0.53100002 1.5871877e-38
0.032022823 -0.043334696 0.53200001 1.559529e-38
0.033852693 -0.043334696 0.53200001 1.4762939e-38
0.035682563 -0.043334696 0.53200001 1.4762939e-38
0.037935503 -0.043823432 0.53799999 1.3749913e-38
0.039786045 -0.043823432 0.53799999 1.1906001e-38
0.041636553 -0.043823432 0.53799999 1.153864e-38
0.04381039 -0.044149257 0.542 1.0801075e-38
0.045674656 -0.044149257 0.542 1.0616732e-38
0.047538921 -0.044149257 0.542 1.0063558e-38
0.049494337 -0.044230714 0.54299998 1.4202028e-38
-0.02132047 -0.045773193 0.53899997 1.4766246e-38
-0.019358175 -0.045518428 0.53600001 1.467405e-38
-0.017514529 -0.045518428 0.53600001 1.4951382e-38
-0.015670899 -0.045518428 0.53600001 1.5135774e-38
-0.013749877 -0.045263659 0.53299999 1.5319059e-38
-0.011871836 -0.045093816 0.53100002 1.5226864e-38
-0.010026486 -0.04500889 0.52999997 1.5227241e-38
-0.0082034953 -0.04500889 0.52999997 1.5135045e-38
-0.006368448 -0.044923969 0.52899998 1.5505258e-38
-0.0045488966 -0.044923969 0.52899998 1.5966236e-38
-0.0027293449 -0.044923969 0.52899998 1.5227561e-38
-0.00089603453 -0.044244595 0.52100003 1.4858779e-38
0.00089600042 -0.044244595 0.52100003 1.5227561e-38
0.0026880694 -0.044244595 0.52100003 1.4397801e-38
0.0044887033 -0.044329513 0.52200001 1.2556367e-38
0.0062841778 -0.044329513 0.52200001 1.5137845e-38
0.0080951303 -0.044414435 0.523 1.6147768e-38
0.0098940451 -0.044414435 0.523 1.5225811e-38
0.011692959 -0.044414435 0.523 1.4305608e-38
0.013491873 -0.044414435 0.523 1.4858782e-38
0.015290821 -0.044414435 0.523 1.6978225e-38
0.017089736 -0.044414435 0.523 1.7623594e-38
0.019177578 -0.045093816 0.53100002 1.670306e-38
0.021004008 -0.045093816 0.53100002 1.7164038e-38
0.022658458 -0.044754125 0.52700001 1.7254812e-38
0.02447113 -0.044754125 0.52700001 1.6978225e-38
0.026283838 -0.044754125 0.52700001 1.7346995e-38
0.02809651 -0.044754125 0.52700001 1.7346995e-38
0.030022688 -0.044923969 0.52899998 1.5503097e-38
0.031962629 -0.045093816 0.53100002 1.5042119e-38
0.033789061 -0.045093816 0.53100002 1.2461288e-38
0.035615493 -0.045093816 0.53100002 1.2922259e-38
0.037441924 -0.045093816 0.53100002 1.1264572e-38
0.039268389 -0.045093816 0.53100002 1.0895789e-38
0.041481778 -0.045518428 0.53600001 1.0801082e-38
0.04381039 -0.046027962 0.542 1.0708887e-38
0.045674656 -0.046027962 0.542 1.0247949e-38
0.047538921 -0.046027962 0.542 9.8791668e-39
0.049494337 -0.046112884 0.54299998 1.3374065e-38
-0.02132047 -0.047641471 0.53899997 1.4674064e-38
-0.019358175 -0.047376309 0.53600001 1.476626e-38
-0.017416498 -0.047111142 0.53299999 1.4858834e-38
-0.015524716 -0.046934366 0.53100002 1.5135421e-38
-0.013698285 -0.046934366 0.53100002 1.5043565e-38
-0.011871836 -0.046934366 0.53100002 1.4490392e-38
-0.010026486 -0.046845973 0.52999997 1.4490404e-38
-0.0082034953 -0.046845973 0.52999997 1.5504556e-38
-0.006368448 -0.046757586 0.52899998 1.670022e-38
-0.0045488966 -0.046757586 0.52899998 1.3196786e-38
-0.0027293449 -0.046757586 0.52899998 1.4305984e-38
-0.00089603453 -0.046050481 0.52100003 1.4213788e-38
0.00089600042 -0.046050481 0.52100003 1.0807531e-38
0.0026932287 -0.046138868 0.52200001 1.1821668e-38
0.0044887033 -0.046138868 0.52200001 1.5041754e-38
0.0062600998 -0.045962092 0.51999998 1.3105645e-38
0.0080486946 -0.045962092 0.51999998 1.2923426e-38
0.0098562092 -0.046050481 0.52100003 1.3568795e-38
0.011692959 -0.046227254 0.523 1.495031e-38
0.013491873 -0.046227254 0.523 1.5134702e-38
0.015232348 -0.046050481 0.52100003 1.504246e-38
0.017024383 -0.046050481 0.52100003 1.4120503e-38
0.01888865 -0.046227254 0.523 1.6055536e-38
0.020687563 -0.046227254 0.523 1.5778949e-38
0.022486478 -0.046227254 0.523 1.338579e-38
0.024285393 -0.046227254 0.523 1.5137507e-38
0.026134213 -0.046315644 0.52399999 1.6331063e-38
0.027989879 -0.04640403 0.52499998 1.3472998e-38
0.029909182 -0.04658081 0.52700001 1.5408028e-38
0.031962629 -0.046934366 0.53100002 1.282655e-38
0.033789061 -0.046934366 0.53100002 1.0894703e-38
0.035615493 -0.046934366 0.53100002 1.1447869e-38
0.037441924 -0.046934366 0.53100002 1.1076603e-38
0.039416287 -0.047111142 0.53299999 1.070782e-38
0.041481778 -0.047376309 0.53600001 1.0615978e-38
0.043325406 -0.047376309 0.53600001 1.0431587e-38
0.045590382 -0.047818255 0.54100001 1.024723e-38
0.047451209 -0.047818255 0.54100001 9.601861e-39
-0.019285941 -0.049050502 0.53399998 1.4489676e-38
-0.017416498 -0.048958652 0.53299999 1.4950679e-38
-0.015524716 -0.048774943 0.53100002 1.4950679e-38
-0.013672486 -0.048683081 0.52999997 1.4766623e-38
-0.011849477 -0.048683081 0.52999997 1.3936862e-38
-0.010026486 -0.048683081 0.52999997 1.3936502e-38
-0.0081570605 -0.048407521 0.52700001 1.5596023e-38
-0.006344371 -0.048407521 0.52700001 1.4950287e-38
-0.0044801044 -0.047856394 0.52100003 1.3567352e-38
-0.0026983882 -0.048040099 0.523 1.4488594e-38
-0.00089947414 -0.048040099 0.523 1.3105659e-38
0.00089943997 -0.048040099 0.523 1.2645407e-38
0.0026932287 -0.047948249 0.52200001 1.448932e-38
0.0044887033 -0.047948249 0.52200001 1.3106714e-38
0.0062600998 -0.047764536 0.51999998 1.1815976e-38
0.0080486946 -0.047764536 0.51999998 1.1815309e-38
0.0098562092 -0.047856394 0.52100003 1.135433e-38
0.011670601 -0.047948249 0.52200001 1.2185864e-38
0.013466075 -0.047948249 0.52200001 1.2831233e-38
0.015232348 -0.047856394 0.52100003 1.3291832e-38
0.017024383 -0.047856394 0.52100003 1.375281e-38
0.018852532 -0.047948249 0.52200001 1.3565535e-38
0.020648006 -0.047948249 0.52200001 1.2643578e-38
0.022486478 -0.048040099 0.523 1.3382965e-38
0.024285393 -0.048040099 0.523 1.4028334e-38
0.026084341 -0.048040099 0.523 1.2923392e-38
0.027936567 -0.048131954 0.52399999 1.3753153e-38
0.029795673 -0.048223808 0.52499998 1.338079e-38
0.031601466 -0.048223808 0.52499998 1.0614921e-38
0.033789061 -0.048774943 0.53100002 1.0800016e-38
0.035615493 -0.048774943 0.53100002 1.0984407e-38
0.037441924 -0.048774943 0.53100002 1.0432328e-38
0.039416287 -0.048958652 0.53299999 1.0247937e-38
0.041481778 -0.049234219 0.53600001 1.0155735e-38
0.043325406 -0.049234219 0.53600001 9.9713442e-39
0.045169033 -0.049234219 0.53600001 1.033869e-38
0.047451209 -0.049693491 0.54100001 9.5089297e-39
-0.019285941 -0.050901476 0.53399998 1.4120537e-38
-0.017416498 -0.050806157 0.53299999 1.4213464e-38
-0.015495477 -0.050520193 0.52999997 1.3844682e-38
-0.013620893 -0.050329551 0.528 1.412054e-38
-0.011782406 -0.050234232 0.52700001 1.3659562e-38
-0.0099697327 -0.050234232 0.52700001 1.3567719e-38
-0.0081570605 -0.050234232 0.52700001 1.3567719e-38
-0.0063323327 -0.050138913 0.52600002 1.2187247e-38
-0.0044801044 -0.049662307 0.52100003 1.2187247e-38
-0.0026880694 -0.049662307 0.52100003 1.2369525e-38
-0.00089603453 -0.049662307 0.52100003 1.1078786e-38
0.00089772017 -0.049757626 0.52200001 1.2185876e-38
0.0026829096 -0.049566984 0.51999998 1.0987333e-38
0.0044715046 -0.049566984 0.51999998 9.6986908e-39
0.0062480615 -0.049471661 0.51899999 1.1726995e-38
0.0080332169 -0.049471661 0.51899999 1.4393539e-38
0.0098372903 -0.049566984 0.51999998 1.227304e-38
0.011648244 -0.049662307 0.52100003 1.1815649e-38
0.013466075 -0.049757626 0.52200001 1.200004e-38
0.015232348 -0.049662307 0.52100003 1.2000733e-38
0.017024383 -0.049662307 0.52100003 1.1263168e-38
0.018816419 -0.049662307 0.52100003 1.1170972e-38
0.020648006 -0.049757626 0.52200001 1.1724146e-38
0.022443481 -0.049757626 0.52200001 1.1539045e-38
0.024238955 -0.049757626 0.52200001 1.1170263e-38
0.026084341 -0.049852949 0.523 1.1262433e-38
0.027883254 -0.049852949 0.523 1.1446825e-38
0.029795673 -0.050043587 0.52499998 1.0985464e-38
0.031601466 -0.050043587 0.52499998 1.0247909e-38
0.03340726 -0.050043587 0.52499998 1.0431975e-38
0.035615493 -0.050615519 0.53100002 1.0247584e-38
0.037441924 -0.050615519 0.53100002 1.0339404e-38
0.039416287 -0.050806157 0.53299999 1.0247208e-38
0.041404385 -0.050996803 0.53500003 9.9713442e-39
0.043325406 -0.051092125 0.53600001 9.7869529e-39
0.045169033 -0.051092125 0.53600001 9.9702582e-39
-0.01921371 -0.052554853 0.53200001 1.3290776e-38
-0.017383821 -0.052554853 0.53200001 1.3382615e-38
-0.015495477 -0.052357275 0.52999997 1.347481e-38
-0.013620893 -0.052159704 0.528 1.3290051e-38
-0.011782406 -0.052060917 0.52700001 1.3290051e-38
-0.0099508157 -0.05196213 0.52600002 1.3382972e-38
-0.0081415828 -0.05196213 0.52600002 1.4212733e-38
-0.0063323327 -0.05196213 0.52600002 1.3474796e-38
-0.0044715046 -0.051369406 0.51999998 1.2276253e-38
-0.0026829096 -0.051369406 0.51999998 1.2737591e-38
-0.00089431455 -0.051369406 0.51999998 1.2092222e-38
0.00089600042 -0.051468194 0.52100003 1.2828009e-38
0.0026829096 -0.051369406 0.51999998 1.1998248e-38
0.0044715046 -0.051369406 0.51999998 1.1262128e-38
0.0062480615 -0.051270615 0.51899999 1.1999693e-38
0.0080332169 -0.051270615 0.51899999 1.1356054e-38
0.0098372903 -0.051369406 0.51999998 1.0987272e-38
0.011648244 -0.051468194 0.52100003 1.3196049e-38
0.013466075 -0.051566981 0.52200001 1.1352136e-38
0.015232348 -0.051468194 0.52100003 1.1720556e-38
0.016991705 -0.051369406 0.51999998 1.1351773e-38
0.018780299 -0.051369406 0.51999998 1.0983721e-38
0.020568894 -0.051369406 0.51999998 1.1352503e-38
0.022443481 -0.051566981 0.52200001 1.0891839e-38
0.024238955 -0.051566981 0.52200001 1.107623e-38
0.026084341 -0.051665768 0.523 1.0892604e-38
0.027883254 -0.051665768 0.523 1.1169191e-38
0.029795673 -0.051863339 0.52499998 1.0247944e-38
0.031601466 -0.051863339 0.52499998 1.0247944e-38
0.03340726 -0.051863339 0.52499998 1.0156104e-38
0.035414275 -0.052159704 0.528 1.0156104e-38
0.037441924 -0.05245607 0.53100002 1.0063896e-38
0.039490242 -0.052752424 0.53399998 9.7873089e-39
0.041404385 -0.052851219 0.53500003 9.6022142e-39
0.043325406 -0.052950006 0.53600001 9.5100185e-39
0.045169033 -0.052950006 0.53600001 9.3248916e-39
-0.01921371 -0.054398894 0.53200001 1.3106385e-38
-0.017383821 -0.054398894 0.53200001 1.2922713e-38
-0.015524716 -0.054296643 0.53100002 1.2830517e-38
-0.013646689 -0.054092132 0.52899998 1.2829435e-38
-0.011782406 -0.053887628 0.52700001 1.2460653e-38
-0.0099508157 -0.053785376 0.52600002 1.2276978e-38
-0.0081415828 -0.053785376 0.52600002 1.3383325e-38
-0.0063323327 -0.053785376 0.52600002 1.2554632e-38
-0.0044715046 -0.053171851 0.51999998 1.1909263e-38
-0.0026829096 -0.053171851 0.51999998 1.2185131e-38
-0.00089431455 -0.053171851 0.51999998 1.1170979e-38
0.00089428056 -0.053171851 0.51999998 1.1446519e-38
0.0026829096 -0.053171851 0.51999998 1.1354323e-38
0.0044715046 -0.053171851 0.51999998 9.9735316e-39
0.0062480615 -0.053069595 0.51899999 1.0250119e-38
0.0080332169 -0.053069595 0.51899999 9.8823603e-39
0.0098372903 -0.053171851 0.51999998 1.0619916e-38
0.011625885 -0.053171851 0.51999998 1.1721985e-38
0.013440279 -0.05327411 0.52100003 1.0892224e-38
0.015203109 -0.053171851 0.51999998 1.0984072e-38
0.016991705 -0.053171851 0.51999998 1.0799681e-38
0.018780299 -0.053171851 0.51999998 1.0432338e-38
0.020568894 -0.053171851 0.51999998 1.0432338e-38
0.022443481 -0.053376362 0.52200001 1.0800034e-38
0.024238955 -0.053376362 0.52200001 1.024686e-38
0.026084341 -0.053478613 0.523 1.0799681e-38
0.027883254 -0.053478613 0.523 1.0523094e-38
0.029795673 -0.053683117 0.52499998 1.0154683e-38
0.031661663 -0.053785376 0.52600002 1.0062487e-38
0.033598162 -0.05398988 0.528 1.0155032e-38
0.035414275 -0.05398988 0.528 1.0062836e-38
0.037371404 -0.054194383 0.52999997 9.8791486e-39
0.039638147 -0.054807913 0.53600001 9.6947573e-39
0.041636553 -0.055012416 0.53799999 9.7862495e-39
0.043567896 -0.055114668 0.53899997 9.5096626e-39
-0.017383821 -0.056242913 0.53200001 1.2737608e-38
-0.015553951 -0.056242913 0.53200001 1.2553217e-38
-0.013672486 -0.056031469 0.52999997 1.2276262e-38
-0.011760049 -0.055608593 0.52600002 1.209187e-38
-0.0099318968 -0.055502869 0.52499998 1.1907845e-38
-0.0081261033 -0.055502869 0.52499998 1.2276627e-38
-0.0062962165 -0.055291433 0.523 1.200038e-38
-0.0044715046 -0.054974273 0.51999998 1.1262814e-38
-0.0026777503 -0.054868553 0.51899999 1.1539399e-38
-0.00089259475 -0.054868553 0.51899999 1.1447203e-38
0.00089256081 -0.054868553 0.51899999 1.0524547e-38
0.0026777503 -0.054868553 0.51899999 1.0432352e-38
0.0044715046 -0.054974273 0.51999998 1.1997539e-38
0.0062600998 -0.054974273 0.51999998 1.1628757e-38
0.0080486946 -0.054974273 0.51999998 1.1445771e-38
0.0098372903 -0.054974273 0.51999998 1.0431619e-38
0.011625885 -0.054974273 0.51999998 1.1168451e-38
0.013440279 -0.055079997 0.52100003 1.1168451e-38
0.015203109 -0.054974273 0.51999998 1.0524531e-38
0.016991705 -0.054974273 0.51999998 9.6947699e-39
0.018816419 -0.055079997 0.52100003 1.0247581e-38
0.020648006 -0.055185713 0.52200001 1.006319e-38
0.022443481 -0.055185713 0.52200001 1.0062843e-38
0.024238955 -0.055185713 0.52200001 1.0155039e-38
0.026084341 -0.055291433 0.523 1.0155741e-38
0.027883254 -0.055291433 0.523 9.9713498e-39
0.029795673 -0.055502869 0.52499998 9.9710079e-39
0.031661663 -0.055608593 0.52600002 9.8788123e-39
0.033598162 -0.055820029 0.528 1.043018e-38
0.035414275 -0.055820029 0.528 1.0245789e-38
0.037371404 -0.056031469 0.52999997 9.8784479e-39
0.039786045 -0.056877229 0.53799999 9.8784479e-39
0.041636553 -0.056877229 0.53799999 9.9706478e-39
0.043567896 -0.056982946 0.53899997 9.9706478e-39
-0.017416498 -0.058196139 0.53299999 1.2184079e-38
-0.015583187 -0.058196139 0.53299999 1.2184079e-38
-0.011760049 -0.057431839 0.52600002 1.1723456e-38
-0.0099318968 -0.057322647 0.52499998 1.1723106e-38
-0.0081261033 -0.057322647 0.52499998 1.1446519e-38
-0.0062962165 -0.057104278 0.523 1.2275185e-38
-0.0044973022 -0.057104278 0.523 1.1906403e-38
-0.0026777503 -0.056667533 0.51899999 1.1355021e-38
-0.00089259475 -0.056667533 0.51899999 1.1447217e-38
0.00089256081 -0.056667533 0.51899999 1.1629829e-38
0.0026777503 -0.056667533 0.51899999 9.6015247e-39
0.0044715046 -0.056776721 0.51999998 1.0708936e-38
0.0062600998 -0.056776721 0.51999998 1.0708936e-38
0.0080486946 -0.056776721 0.51999998 9.6972544e-39
0.0098372903 -0.056776721 0.51999998 1.0342614e-38
0.011648244 -0.056885909 0.52100003 1.0524871e-38
0.013440279 -0.056885909 0.52100003 1.1262436e-38
0.015203109 -0.056776721 0.51999998 1.0708562e-38
0.016991705 -0.056776721 0.51999998 1.0431975e-38
0.018780299 -0.056776721 0.51999998 1.0339426e-38
0.020608453 -0.056885909 0.52100003 1.0339426e-38
0.022443481 -0.056995094 0.52200001 1.0614574e-38
0.024238955 -0.056995094 0.52200001 1.0798965e-38
0.026084341 -0.057104278 0.523 1.0246144e-38
0.027989879 -0.057322647 0.52499998 1.0246144e-38
0.029795673 -0.057322647 0.52499998 1.0063216e-38
0.031661663 -0.057431839 0.52600002 9.7866292e-39
0.033598162 -0.057650208 0.528 1.0061748e-38
0.035414275 -0.057650208 0.528 1.0061748e-38
0.037300896 -0.057759393 0.52899998 9.9695716e-39
-0.0099318968 -0.0591424 0.52499998 1.1355021e-38
-0.0081261033 -0.0591424 0.52499998 1.1262826e-38
-0.0063323327 -0.059255056 0.52600002 1.1539072e-38
-0.0045230999 -0.059255056 0.52600002 1.1446876e-38
-0.0027138668 -0.059255056 0.52600002 1.0985514e-38
-0.00089259475 -0.058466487 0.51899999 1.0893319e-38
0.00089256081 -0.058466487 0.51899999 1.0800408e-38
0.0026777503 -0.058466487 0.51899999 1.1076995e-38
0.0044629057 -0.058466487 0.51899999 1.1538709e-38
0.0062600998 -0.058579143 0.51999998 1.0985535e-38
0.0080486946 -0.058579143 0.51999998 9.8805835e-39
0.0098372903 -0.058579143 0.51999998 1.1079127e-38
0.011648244 -0.058691796 0.52100003 1.0800401e-38
0.013466075 -0.058804449 0.52200001 1.0062836e-38
0.015232348 -0.058691796 0.52100003 1.061638e-38
0.016991705 -0.058579143 0.51999998 1.0431989e-38
0.018780299 -0.058579143 0.51999998 1.0247242e-38
0.020608453 -0.058691796 0.52100003 9.6018722e-39
0.022443481 -0.058804449 0.52200001 1.0246142e-38
0.024238955 -0.058804449 0.52200001 9.8773591e-39
0.026084341 -0.058917098 0.523 9.7851733e-39
0.028043197 -0.059255056 0.52600002 9.6929777e-39
0.029909182 -0.059367709 0.52700001 9.7862691e-39
0.031721853 -0.059367709 0.52700001 9.4174866e-39
0.033598162 -0.059480358 0.528 9.7851775e-39
0.035414275 -0.059480358 0.528 9.5085906e-39
0.037300896 -0.059593011 0.52899998 9.600789e-39
-0.0099318968 -0.060962178 0.52499998 1.1262485e-38
-0.0081261033 -0.060962178 0.52499998 1.1262485e-38
-0.0063323327 -0.061078303 0.52600002 1.0157563e-38
-0.0045230999 -0.061078303 0.52600002 1.0249758e-38
-0.0027138668 -0.061078303 0.52600002 1.071003e-38
-0.00090463366 -0.061078303 0.52600002 1.0617835e-38
0.00090459926 -0.061078303 0.52600002 1.0708588e-38
0.0027035475 -0.060846061 0.52399999 9.8788277e-39
0.0045059011 -0.060846061 0.52399999 1.0155754e-38
0.0063082548 -0.060846061 0.52399999 9.8791668e-39
0.0080486946 -0.060381588 0.51999998 9.9720897e-39
0.0098372903 -0.060381588 0.51999998 9.6955028e-39
0.011648244 -0.060497709 0.52100003 9.3252489e-39
0.013466075 -0.060613826 0.52200001 9.7862201e-39
0.015290821 -0.060729943 0.523 9.9699205e-39
0.017057057 -0.060613826 0.52200001 9.2323554e-39
0.018852532 -0.060613826 0.52200001 9.5103983e-39
0.020648006 -0.060613826 0.52200001 9.6025939e-39
0.022443481 -0.060613826 0.52200001 8.7728136e-39
0.024238955 -0.060613826 0.52200001 8.5884224e-39
0.026134213 -0.060846061 0.52399999 9.0497831e-39
0.028043197 -0.061078303 0.52600002 8.8653918e-39
0.029909182 -0.06119442 0.52700001 9.1408969e-39
0.031721853 -0.06119442 0.52700001 9.2330925e-39
0.033661794 -0.061426651 0.52899998 8.9561525e-39
0.035615493 -0.061658893 0.53100002 9.0483481e-39
0.037441924 -0.061658893 0.53100002 9.2316758e-39
-0.0099508157 -0.062901519 0.52600002 1.0892977e-38
-0.0081415828 -0.062901519 0.52600002 1.0892977e-38
-0.0063323327 -0.062901519 0.52600002 1.0708588e-38
-0.0045230999 -0.062901519 0.52600002 9.6944364e-39
0.00090631901 -0.063021101 0.52700001 9.326014e-39
0.0027035475 -0.062662348 0.52399999 8.6806446e-39
0.0045059011 -0.062662348 0.52399999 9.6011618e-39
0.0063082548 -0.062662348 0.52399999 9.047988e-39
0.0081570437 -0.063021101 0.52700001 8.7721004e-39
0.0098562092 -0.062303599 0.52100003 9.4174698e-39
0.011648244 -0.062303599 0.52100003 8.5870169e-39
0.013491873 -0.062542766 0.523 9.047995e-39
0.015290821 -0.062542766 0.523 9.32277e-39
0.017089736 -0.062542766 0.523 8.9539875e-39
0.01888865 -0.062542766 0.523 7.6664717e-39
0.020687563 -0.062542766 0.523 8.1274498e-39
0.022486478 -0.062542766 0.523 8.217884e-39
