# .PCD v0.7 - Point Cloud Data file format
VERSION 0.7
FIELDS x y z rgb
SIZE 4 4 4 4
TYPE F F F F
COUNT 1 1 1 1
WIDTH 485
HEIGHT 1
VIEWPOINT 0 0 0 1 0 0 0
POINTS 485
DATA ascii
-0.0041533508 0.02092733 0.80500001 1.8628437e-38
-0.0013844678 0.02092733 0.80500001 1.7706481e-38
-0.0096670389 0.018091943 0.80299997 1.9560053e-38
-0.0068878378 0.018046882 0.801 1.8914683e-38
-0.0041327132 0.018046882 0.801 1.854592e-38
-0.0013775885 0.018046882 0.801 1.7162986e-38
0.0013775361 0.018046882 0.801 1.7062588e-38
0.0041327132 0.018046882 0.801 1.7615762e-38
-0.020611919 0.015232331 0.79900002 1.7887722e-38
-0.017863648 0.015232331 0.79900002 1.9455048e-38
-0.015153238 0.015270459 0.801 1.937677e-38
-0.012398113 0.015270459 0.801 1.87314e-38
-0.0096429624 0.015270459 0.801 1.8731001e-38
-0.0068706395 0.015232331 0.79900002 1.7809045e-38
-0.0041223941 0.015232331 0.79900002 1.7346272e-38
-0.0013775885 0.015270459 0.801 1.6147728e-38
0.0013775361 0.015270459 0.801 1.5042486e-38
0.0041327132 0.015270459 0.801 1.624103e-38
-0.02058612 0.012447204 0.79799998 1.8076393e-38
-0.017863648 0.012462802 0.79900002 2.0104697e-38
-0.015115402 0.012462802 0.79900002 1.8916134e-38
-0.012367156 0.012462802 0.79900002 1.771759e-38
-0.0096188849 0.012462802 0.79900002 1.7715041e-38
-0.0068620401 0.012447204 0.79799998 1.6424303e-38
-0.0041172346 0.012447204 0.79799998 1.5504504e-38
-0.001372429 0.012447204 0.79799998 1.4398157e-38
0.0013740966 0.012462802 0.79900002 1.3659169e-38
0.0041327132 0.012493998 0.801 1.3566974e-38
0.0068878378 0.012493998 0.801 1.7796593e-38
-0.023360165 0.0096933125 0.79900002 1.8253993e-38
-0.02058612 0.0096811801 0.79799998 1.9093734e-38
-0.017841289 0.0096811801 0.79799998 1.8909343e-38
-0.015096484 0.0096811801 0.79799998 1.7717222e-38
-0.012351678 0.0096811801 0.79799998 1.6979657e-38
-0.0096068457 0.0096811801 0.79799998 1.5689975e-38
-0.0068448423 0.0096569173 0.796 1.4399236e-38
-0.0041069156 0.0096569173 0.796 1.3937146e-38
-0.0013689892 0.0096569173 0.796 1.2646408e-38
0.0013723767 0.0096811801 0.79799998 1.1907808e-38
0.0041223941 0.0096933125 0.79900002 1.1631221e-38
0.0068878378 0.0097175753 0.801 1.5220098e-38
0.0096429624 0.0097175753 0.801 1.7432793e-38
0.012398086 0.0097175753 0.801 1.7978839e-38
-0.023360165 0.0069237831 0.79900002 1.8716051e-38
-0.020611919 0.0069237831 0.79900002 1.8268254e-38
-0.017841289 0.0069151176 0.79799998 1.7899472e-38
-0.015058648 0.0068977866 0.796 1.716367e-38
-0.012289765 0.0068804557 0.79400003 1.6149518e-38
-0.0095586926 0.0068804557 0.79400003 1.4768709e-38
-0.0068276445 0.0068804557 0.79400003 1.4031144e-38
-0.0040965974 0.0068804557 0.79400003 1.2738986e-38
-0.0013655497 0.0068804557 0.79400003 1.1724834e-38
0.0013689372 0.0068977866 0.796 1.1445398e-38
0.0041172346 0.0069151176 0.79799998 1.1814181e-38
0.0068878378 0.0069411141 0.801 1.2734695e-38
0.0096429624 0.0069411141 0.801 1.7160085e-38
-0.020611919 0.0041542542 0.79900002 1.7440285e-38
-0.017841289 0.0041490546 0.79799998 1.6887111e-38
-0.015020813 0.0041282577 0.79400003 1.6242448e-38
-0.012289765 0.0041282577 0.79400003 1.4859513e-38
-0.0095586926 0.0041282577 0.79400003 1.4489611e-38
-0.0068276445 0.0041282577 0.79400003 1.3567655e-38
-0.0040965974 0.0041282577 0.79400003 1.2094358e-38
-0.0013655497 0.0041282577 0.79400003 1.1080206e-38
0.0013654978 0.0041282577 0.79400003 1.1814181e-38
0.0041172346 0.0041490546 0.79799998 1.1906376e-38
0.0068706395 0.0041542542 0.79900002 1.1540102e-38
0.0096429624 0.0041646529 0.801 1.3937188e-38
0.012429043 0.0041750516 0.80299997 1.8346189e-38
-0.020611919 0.0013847646 0.79900002 1.7255893e-38
-0.017796574 0.0013795652 0.796 1.6241741e-38
-0.015020813 0.001376099 0.79400003 1.5595643e-38
-0.012289765 0.001376099 0.79400003 1.4581491e-38
-0.0095346142 0.0013726327 0.792 1.3476914e-38
-0.0068104463 0.0013726327 0.792 1.2739349e-38
-0.0040862779 0.0013726327 0.792 1.1816336e-38
-0.00136211 0.0013726327 0.792 1.1170966e-38
0.0013654978 0.001376099 0.79400003 1.1721637e-38
0.0041069156 0.0013795652 0.796 1.2182616e-38
0.0068706395 0.0013847646 0.79900002 1.2000038e-38
0.0096429624 0.0013882307 0.801 1.0709299e-38
0.012398086 0.0013882307 0.801 1.7885927e-38
0.015153212 0.0013882307 0.801 1.7701536e-38
-0.020611919 -0.0013847646 0.79900002 1.6242798e-38
-0.017796574 -0.0013795652 0.796 1.578182e-38
-0.015020813 -0.001376099 0.79400003 1.5043195e-38
-0.012289765 -0.001376099 0.79400003 1.3660261e-38
-0.0095346142 -0.0013726327 0.792 1.2738633e-38
-0.0068104463 -0.0013726327 0.792 1.1724481e-38
-0.0040862779 -0.0013726327 0.792 1.1169164e-38
-0.00136211 -0.0013726327 0.792 1.1169164e-38
0.0013654978 -0.001376099 0.79400003 1.0894046e-38
0.0041069156 -0.0013795652 0.796 1.0986242e-38
0.0068706395 -0.0013847646 0.79900002 1.1353226e-38
0.0096429624 -0.0013882307 0.801 9.9702918e-39
0.012398086 -0.0013882307 0.801 1.6690964e-38
0.015153212 -0.0013882307 0.801 1.7336334e-38
-0.02058612 -0.0041490546 0.79799998 1.5137517e-38
-0.017796574 -0.0041386564 0.796 1.4768734e-38
-0.015020813 -0.0041282577 0.79400003 1.3846793e-38
-0.012289765 -0.0041282577 0.79400003 1.2924837e-38
-0.0095346142 -0.0041178591 0.792 1.2278023e-38
-0.0068104463 -0.0041178591 0.792 1.107948e-38
-0.0040862779 -0.0041178591 0.792 1.0064283e-38
-0.00136211 -0.0041178591 0.792 9.8798913e-39
0.0013654978 -0.0041282577 0.79400003 9.9709939e-39
0.0040965974 -0.0041282577 0.79400003 9.9709939e-39
0.0068620401 -0.0041490546 0.79799998 9.9706478e-39
0.0096188849 -0.0041542542 0.79900002 8.5877133e-39
0.012398086 -0.0041646529 0.801 1.5677158e-38
0.015228883 -0.0041854503 0.80500001 1.733668e-38
-0.023330927 -0.0069151176 0.79799998 1.6045592e-38
-0.02058612 -0.0069151176 0.79799998 1.4583286e-38
-0.017796574 -0.0068977866 0.796 1.4122308e-38
-0.015020813 -0.0068804557 0.79400003 1.3293617e-38
-0.012289765 -0.0068804557 0.79400003 1.2463856e-38
-0.0095346142 -0.0068631242 0.792 1.181849e-38
-0.0068104463 -0.0068631242 0.792 1.0712142e-38
-0.0040862779 -0.0068631242 0.792 9.6969335e-39
-0.00136211 -0.0068631242 0.792 8.590586e-39
0.0013654978 -0.0068804557 0.79400003 9.0483075e-39
0.0040965974 -0.0068804557 0.79400003 8.5873364e-39
0.0068620401 -0.0069151176 0.79799998 8.3096775e-39
0.0096188849 -0.0069237831 0.79900002 6.8345698e-39
0.012398086 -0.0069411141 0.801 1.5953421e-38
0.015228883 -0.0069757765 0.80500001 1.7151965e-38
-0.023330927 -0.009681141 0.79799998 1.5305528e-38
-0.02058612 -0.009681141 0.79799998 1.4121227e-38
-0.017796574 -0.0096568782 0.796 1.3568053e-38
-0.015058648 -0.0096568782 0.796 1.2372001e-38
-0.012320722 -0.0096568782 0.796 1.2003219e-38
-0.0095827691 -0.0096568782 0.796 1.0805752e-38
-0.0068276445 -0.0096326144 0.79400003 9.9759909e-39
-0.0040965974 -0.0096326144 0.79400003 9.3299124e-39
-0.0013655497 -0.0096326144 0.79400003 8.5001644e-39
0.0013654978 -0.0096326144 0.79400003 7.7604582e-39
0.0040965974 -0.0096326144 0.79400003 7.4838755e-39
0.0068620401 -0.009681141 0.79799998 6.0073329e-39
0.0096429624 -0.0097175362 0.801 7.9434229e-39
0.012398086 -0.0097175362 0.801 1.7794826e-38
-0.023330927 -0.012447204 0.79799998 1.6779577e-38
-0.02058612 -0.012447204 0.79799998 1.2832288e-38
-0.017841289 -0.012447204 0.79799998 1.237131e-38
-0.015096484 -0.012447204 0.79799998 1.1727698e-38
-0.012351678 -0.012447204 0.79799998 1.0713546e-38
-0.0095827691 -0.012416008 0.796 1.015966e-38
-0.0068276445 -0.012384812 0.79400003 9.5143009e-39
-0.0040965974 -0.012384812 0.79400003 8.5001644e-39
-0.0013655497 -0.012384812 0.79400003 8.0391932e-39
0.0013689372 -0.012416008 0.796 7.3923987e-39
0.0041172346 -0.012447204 0.79799998 6.6548449e-39
0.0068706395 -0.012462802 0.79900002 1.1361616e-39
0.0096429624 -0.012493998 0.801 1.2015246e-38
0.012398086 -0.012493998 0.801 1.8160722e-38
-0.025193471 -0.014698495 0.77100003 1.7705402e-38
-0.02248306 -0.014660366 0.76899999 1.8074184e-38
-0.02058612 -0.015213227 0.79799998 1.4760537e-38
-0.017841289 -0.015213227 0.79799998 1.2640037e-38
-0.015096484 -0.015213227 0.79799998 1.0623528e-38
-0.012351678 -0.015213227 0.79799998 9.4249849e-39
-0.0096068457 -0.015213227 0.79799998 8.5941523e-39
-0.0068620401 -0.015213227 0.79799998 7.5800158e-39
-0.0041172346 -0.015213227 0.79799998 7.6686227e-39
-0.001372429 -0.015213227 0.79799998 7.2998457e-39
0.0013740966 -0.015232292 0.79900002 7.2984108e-39
0.0041327132 -0.015270419 0.801 5.5467205e-39
0.0068878378 -0.015270419 0.801 1.4847815e-38
0.0096429624 -0.015270419 0.801 1.7152706e-38
0.012398086 -0.015270419 0.801 1.7055813e-38
-0.03049737 -0.017370969 0.77100003 1.918629e-38
-0.027845435 -0.017370969 0.77100003 2.0569224e-38
-0.025193471 -0.017370969 0.77100003 1.8454061e-38
-0.02248306 -0.017325908 0.76899999 1.5964779e-38
-0.019838003 -0.017325908 0.76899999 1.6050925e-38
-0.017192923 -0.017325908 0.76899999 1.3930426e-38
-0.015115402 -0.018001821 0.79900002 1.402906e-38
-0.012367156 -0.018001821 0.79900002 1.255393e-38
-0.0096068457 -0.01797929 0.79799998 9.9778014e-39
-0.0068620401 -0.01797929 0.79799998 9.0558451e-39
-0.0041172346 -0.01797929 0.79799998 8.1299525e-39
-0.001372429 -0.01797929 0.79799998 7.115816e-39
0.0013740966 -0.018001821 0.79900002 6.1020382e-39
0.0041223941 -0.018001821 0.79900002 5.7332613e-39
0.0068706395 -0.018001821 0.79900002 1.7425649e-38
0.0096670389 -0.018091943 0.80299997 1.7886628e-38
0.01246 -0.018137002 0.80500001 1.7332756e-38
-0.033149306 -0.020043407 0.77100003 1.973875e-38
-0.03049737 -0.020043407 0.77100003 1.8087439e-38
-0.027845435 -0.020043407 0.77100003 1.7349874e-38
-0.025128119 -0.019991411 0.76899999 1.6427877e-38
-0.02248306 -0.019991411 0.76899999 1.7165442e-38
-0.019838003 -0.019991411 0.76899999 1.900081e-38
-0.017125849 -0.019913422 0.76599997 1.7710071e-38
-0.014491111 -0.019913422 0.76599997 1.3755286e-38
-0.012367156 -0.02077131 0.79900002 1.2464547e-38
-0.0096068457 -0.020745313 0.79799998 1.1819157e-38
-0.0068620401 -0.020745313 0.79799998 1.0528437e-38
-0.0041172346 -0.020745313 0.79799998 9.4213892e-39
-0.001372429 -0.020745313 0.79799998 8.9604181e-39
0.0013723767 -0.020745313 0.79799998 9.6968957e-39
0.0041069156 -0.020693321 0.796 1.0342255e-38
0.0068448423 -0.020693321 0.796 1.2734722e-38
0.0095827691 -0.020693321 0.796 1.5131808e-38
0.012320695 -0.020693321 0.796 1.7333454e-38
0.015058622 -0.020693321 0.796 1.7241258e-38
-0.033364285 -0.022863194 0.77600002 1.8084935e-38
-0.03049737 -0.02271588 0.77100003 1.7441341e-38
-0.0277732 -0.022656953 0.76899999 1.7072559e-38
-0.025128119 -0.022656953 0.76899999 1.6150234e-38
-0.02248306 -0.022656953 0.76899999 1.6242429e-38
-0.019838003 -0.022656953 0.76899999 1.7162986e-38
-0.017125849 -0.022568565 0.76599997 1.5411269e-38
-0.014491111 -0.022568565 0.76599997 1.4952419e-38
-0.011871851 -0.022598028 0.76700002 1.7165114e-38
-0.0096188849 -0.02354084 0.79900002 1.81782e-38
-0.0068706395 -0.02354084 0.79900002 1.7717222e-38
-0.0041172346 -0.023511376 0.79799998 1.7993436e-38
-0.0013552306 -0.023216747 0.78799999 1.642611e-38
0.001355179 -0.023216747 0.78799999 1.5043488e-38
0.0040656403 -0.023216747 0.78799999 1.375275e-38
0.0067932485 -0.023275675 0.79000002 1.3750967e-38
0.0095346142 -0.0233346 0.792 1.2921206e-38
0.012258783 -0.0233346 0.792 1.384183e-38
0.015020788 -0.023393527 0.79400003 1.5132569e-38
-0.033149306 -0.025388354 0.77100003 1.7165483e-38
-0.03049737 -0.025388354 0.77100003 1.6703426e-38
-0.027700968 -0.025256637 0.76700002 1.6887817e-38
-0.025062766 -0.025256637 0.76700002 1.5874381e-38
-0.02248306 -0.025322495 0.76899999 1.4399251e-38
-0.019838003 -0.025322495 0.76899999 1.5135381e-38
-0.017148206 -0.025256637 0.76700002 1.4029034e-38
-0.014510029 -0.025256637 0.76700002 1.2740781e-38
-0.011871851 -0.025256637 0.76700002 1.4123715e-38
-0.0092818029 -0.025388354 0.77100003 1.614918e-38
-0.0066298665 -0.025388354 0.77100003 1.6425767e-38
-0.0039779302 -0.025388354 0.77100003 1.624423e-38
-0.0013311529 -0.02548714 0.77399999 1.68896e-38
0.0013379814 -0.025618857 0.778 1.6611225e-38
0.0040501622 -0.025849363 0.78500003 1.7072203e-38
0.0067674508 -0.02591522 0.787 1.6333912e-38
0.0094864592 -0.025948148 0.78799999 1.5227564e-38
0.012196869 -0.025948148 0.78799999 1.513465e-38
0.014982951 -0.026079865 0.792 1.4858063e-38
0.017662404 -0.026014008 0.79000002 1.6140269e-38
0.020379692 -0.026014008 0.79000002 1.6509052e-38
-0.033149306 -0.028060792 0.77100003 1.744242e-38
-0.030418258 -0.027988 0.76899999 1.6980034e-38
-0.027700968 -0.02791521 0.76700002 1.6334664e-38
-0.025062766 -0.02791521 0.76700002 1.5873692e-38
-0.022424588 -0.02791521 0.76700002 1.3753192e-38
-0.01978641 -0.02791521 0.76700002 1.4121214e-38
-0.017148206 -0.02791521 0.76700002 1.3660236e-38
-0.014510029 -0.02791521 0.76700002 1.2001449e-38
-0.011871851 -0.02791521 0.76700002 1.2462427e-38
-0.0092577254 -0.027988 0.76899999 1.5225425e-38
-0.0066298665 -0.028060792 0.77100003 1.6147381e-38
-0.0039779302 -0.028060792 0.77100003 1.5965861e-38
-0.0013294332 -0.02813358 0.773 1.6242448e-38
0.0013311022 -0.028169975 0.77399999 1.6242095e-38
0.0040037273 -0.028242767 0.77600002 1.5781116e-38
0.0066900598 -0.028315555 0.778 1.6426483e-38
0.0094744209 -0.028643116 0.787 1.6979657e-38
0.012196869 -0.028679509 0.78799999 1.7992016e-38
0.014982951 -0.028825091 0.792 1.6701278e-38
0.017662404 -0.028752301 0.79000002 1.3751734e-38
0.020379692 -0.028752301 0.79000002 1.4489299e-38
-0.032977324 -0.030573819 0.76700002 1.7718654e-38
-0.030339146 -0.030573819 0.76700002 1.6058782e-38
-0.027664851 -0.030533956 0.76599997 1.5597804e-38
-0.02503009 -0.030533956 0.76599997 1.5780414e-38
-0.022424588 -0.030573819 0.76700002 1.4028697e-38
-0.019760612 -0.030533956 0.76599997 1.2924096e-38
-0.017125849 -0.030533956 0.76599997 1.3292878e-38
-0.014491111 -0.030533956 0.76599997 1.1909277e-38
-0.011871851 -0.030573819 0.76700002 1.163269e-38
-0.0092577254 -0.03065354 0.76899999 1.3014869e-38
-0.0066298665 -0.030733265 0.77100003 1.4029021e-38
-0.0039779302 -0.030733265 0.77100003 1.5411276e-38
-0.0013294332 -0.030812988 0.773 1.6517623e-38
0.0013311022 -0.030852847 0.77399999 1.716228e-38
0.0039934083 -0.030852847 0.77399999 1.6885693e-38
0.0066900598 -0.031012295 0.778 1.6793839e-38
0.0093660736 -0.031012295 0.778 1.7439208e-38
0.012088522 -0.03113188 0.78100002 1.6516158e-38
0.014850526 -0.031291328 0.78500003 1.4487854e-38
0.017617688 -0.03141091 0.78799999 1.3014857e-38
0.020379692 -0.031490635 0.79000002 1.2830465e-38
0.023155507 -0.031570356 0.792 1.6690245e-38
-0.036033444 -0.033622339 0.77600002 1.7071855e-38
-0.032977324 -0.033232391 0.76700002 1.7348442e-38
-0.030339146 -0.033232391 0.76700002 1.5873672e-38
-0.027664851 -0.033189062 0.76599997 1.4767325e-38
-0.02503009 -0.033189062 0.76599997 1.5688216e-38
-0.02239535 -0.033189062 0.76599997 1.4028695e-38
-0.019760612 -0.033189062 0.76599997 1.2094355e-38
-0.017125849 -0.033189062 0.76599997 1.218655e-38
-0.014491111 -0.033189062 0.76599997 1.1724872e-38
-0.011871851 -0.033232391 0.76700002 1.1263893e-38
-0.0092577254 -0.033319045 0.76899999 1.1724872e-38
-0.0066298665 -0.033405703 0.77100003 1.2093654e-38
-0.0039779302 -0.033405703 0.77100003 1.2647181e-38
-0.0013294332 -0.033492357 0.773 1.2647181e-38
0.0013311022 -0.033535682 0.77399999 1.4121619e-38
0.0039934083 -0.033535682 0.77399999 1.4859184e-38
0.0066728615 -0.033622339 0.77600002 1.5503465e-38
0.0093660736 -0.033708993 0.778 1.3567356e-38
0.012073043 -0.033795647 0.77999997 1.3841733e-38
0.014774854 -0.03383898 0.78100002 1.2550995e-38
0.017617688 -0.034142271 0.78799999 1.1538269e-38
0.020379692 -0.034228928 0.79000002 1.1722658e-38
0.023155507 -0.034315582 0.792 1.5400549e-38
0.025879676 -0.034315582 0.792 1.6599092e-38
-0.036033444 -0.036312144 0.77600002 1.679635e-38
-0.032977324 -0.035891 0.76700002 1.679635e-38
-0.030339146 -0.035891 0.76700002 1.5229024e-38
-0.027664851 -0.035844203 0.76599997 1.4675851e-38
-0.02503009 -0.035844203 0.76599997 1.5319785e-38
-0.02239535 -0.035844203 0.76599997 1.3844655e-38
-0.019760612 -0.035844203 0.76599997 1.1818487e-38
-0.017125849 -0.035844203 0.76599997 1.1634096e-38
-0.014510029 -0.035891 0.76700002 1.1908897e-38
-0.011871851 -0.035891 0.76700002 1.1171332e-38
-0.009233648 -0.035891 0.76700002 1.1262089e-38
-0.0066126678 -0.035984587 0.76899999 1.1077697e-38
-0.0039779302 -0.036078177 0.77100003 1.117132e-38
-0.0013259934 -0.036078177 0.77100003 1.0802537e-38
0.0013293825 -0.036171764 0.773 1.0341897e-38
0.0039882488 -0.036171764 0.773 1.2277995e-38
0.0066556633 -0.036218554 0.77399999 1.1999266e-38
0.0093419962 -0.036312144 0.77600002 1.2275852e-38
0.012042088 -0.036405731 0.778 1.2090755e-38
0.014755935 -0.036499318 0.77999997 1.1076603e-38
0.017505901 -0.036639702 0.78299999 1.1997133e-38
0.020379692 -0.036967263 0.79000002 9.7844376e-39
0.023155507 -0.037060849 0.792 1.3376551e-38
0.025879676 -0.037060849 0.792 1.6050225e-38
-0.035940573 -0.038901389 0.77399999 1.6610877e-38
-0.033063315 -0.038650092 0.76899999 1.5873312e-38
-0.030339146 -0.038549572 0.76700002 1.5043914e-38
-0.027664851 -0.038499311 0.76599997 1.4490741e-38
-0.02503009 -0.038499311 0.76599997 1.4490012e-38
-0.02239535 -0.038499311 0.76599997 1.4029034e-38
-0.019760612 -0.038499311 0.76599997 1.227803e-38
-0.017125849 -0.038499311 0.76599997 1.1171682e-38
-0.014491111 -0.038499311 0.76599997 1.1908897e-38
-0.011871851 -0.038549572 0.76700002 1.1263528e-38
-0.009233648 -0.038549572 0.76700002 1.0893666e-38
-0.00659547 -0.038549572 0.76700002 1.0709275e-38
-0.0039676107 -0.038650092 0.76899999 1.0617432e-38
-0.0013259934 -0.038750611 0.77100003 1.0617432e-38
0.0013293825 -0.038851131 0.773 9.8795017e-39
0.0039882488 -0.038851131 0.773 1.0709262e-38
0.0066556633 -0.038901389 0.77399999 1.0342643e-38
0.0093419962 -0.039001912 0.77600002 9.8816653e-39
0.012042088 -0.039102431 0.778 1.0617067e-38
0.014755935 -0.039202951 0.77999997 1.0617067e-38
0.017505901 -0.039353732 0.78299999 1.0523442e-38
0.020379692 -0.039705556 0.79000002 1.0154659e-38
0.023155507 -0.039806075 0.792 1.2546447e-38
0.025879676 -0.039806075 0.792 1.6142077e-38
-0.035940573 -0.041584261 0.77399999 1.605734e-38
-0.033149306 -0.041423086 0.77100003 1.5688558e-38
-0.030418258 -0.041315634 0.76899999 1.4768043e-38
-0.027664851 -0.041154452 0.76599997 1.4583652e-38
-0.02503009 -0.041154452 0.76599997 1.3937201e-38
-0.022336878 -0.041047003 0.764 1.3476223e-38
-0.019709019 -0.041047003 0.764 1.2646828e-38
-0.017125849 -0.041154452 0.76599997 1.2093654e-38
-0.014491111 -0.041154452 0.76599997 1.1817057e-38
-0.011871851 -0.041208182 0.76700002 1.1356079e-38
-0.009233648 -0.041208182 0.76700002 1.0985514e-38
-0.00659547 -0.041208182 0.76700002 1.0340145e-38
-0.0039676107 -0.041315634 0.76899999 1.0616729e-38
-0.0013259934 -0.041423086 0.77100003 1.0616729e-38
0.0013293825 -0.041530538 0.773 1.0156478e-38
0.0039882488 -0.041530538 0.773 9.6033044e-39
0.0066556633 -0.041584261 0.77399999 1.0063896e-38
0.0093660736 -0.041799169 0.778 1.0248287e-38
0.012042088 -0.041799169 0.778 1.0156098e-38
0.014755935 -0.041906621 0.77999997 1.034049e-38
0.017505901 -0.042067803 0.78299999 1.0246845e-38
0.020328097 -0.042336434 0.78799999 8.7717248e-39
0.023097035 -0.04244389 0.79000002 1.3098932e-38
0.025879676 -0.042551339 0.792 1.5588214e-38
-0.035940573 -0.044267096 0.77399999 1.5780037e-38
-0.033149306 -0.044095524 0.77100003 1.5226864e-38
-0.030418258 -0.043981135 0.76899999 1.4766964e-38
-0.027700968 -0.043866754 0.76700002 1.4121595e-38
-0.02503009 -0.043809559 0.76599997 1.393757e-38
-0.022336878 -0.043695174 0.764 1.32922e-38
-0.019709019 -0.043695174 0.764 1.2647181e-38
-0.017081134 -0.043695174 0.764 1.2094007e-38
-0.014453275 -0.043695174 0.764 1.1817052e-38
-0.011856372 -0.043809559 0.76599997 1.1356074e-38
-0.009233648 -0.043866754 0.76700002 1.0895111e-38
-0.00659547 -0.043866754 0.76700002 1.0618524e-38
-0.0039779302 -0.044095524 0.77100003 1.0524531e-38
-0.0013259934 -0.044095524 0.77100003 1.0524531e-38
0.0013293825 -0.044209909 0.773 1.0340142e-38
0.0039934083 -0.044267096 0.77399999 1.0247947e-38
0.0066556633 -0.044267096 0.77399999 1.0064596e-38
0.0093660736 -0.044495869 0.778 1.0341183e-38
0.012042088 -0.044495869 0.778 1.0892214e-38
0.014755935 -0.044610251 0.77999997 1.0431236e-38
0.017505901 -0.044781834 0.78299999 9.1419591e-39
0.020328097 -0.045067795 0.78799999 8.0356115e-39
0.023097035 -0.045182183 0.79000002 1.5862317e-38
0.025879676 -0.045296565 0.792 1.5401339e-38
-0.035940573 -0.046949971 0.77399999 1.5319073e-38
-0.033149306 -0.046767998 0.77100003 1.4673704e-38
-0.03049737 -0.046767998 0.77100003 1.4396747e-38
-0.0277732 -0.046646677 0.76899999 1.4212356e-38
-0.025128119 -0.046646677 0.76899999 1.3567716e-38
-0.02239535 -0.0464647 0.76599997 1.3198934e-38
-0.019709019 -0.046343386 0.764 1.2830503e-38
-0.017081134 -0.046343386 0.764 1.2277329e-38
-0.014453275 -0.046343386 0.764 1.1448269e-38
-0.011856372 -0.0464647 0.76599997 1.1724856e-38
-0.009233648 -0.046525363 0.76700002 1.061923e-38
-0.0066126678 -0.046646677 0.76899999 1.0527035e-38
-0.0039779302 -0.046767998 0.77100003 1.070889e-38
-0.0013294332 -0.046889313 0.773 1.0801085e-38
0.0013293825 -0.046889313 0.773 1.033979e-38
0.0039934083 -0.046949971 0.77399999 1.0247595e-38
0.0066556633 -0.046949971 0.77399999 1.0063206e-38
0.0093660736 -0.047192607 0.778 9.8788151e-39
0.012042088 -0.047192607 0.778 9.6944238e-39
0.014755935 -0.047313921 0.77999997 9.8788151e-39
0.017505901 -0.047495902 0.78299999 9.1398557e-39
0.020328097 -0.047799196 0.78799999 1.4579398e-38
0.023330927 -0.048405785 0.79799998 1.899265e-38
-0.033235297 -0.04956872 0.773 1.4394979e-38
-0.030576481 -0.04956872 0.773 1.3750325e-38
-0.027845435 -0.049440473 0.77100003 1.3381543e-38
-0.025193471 -0.049440473 0.77100003 1.3012044e-38
-0.02239535 -0.049119845 0.76599997 1.245887e-38
-0.019760612 -0.049119845 0.76599997 1.1906053e-38
-0.017125849 -0.049119845 0.76599997 1.1998248e-38
-0.014491111 -0.049119845 0.76599997 1.1353226e-38
-0.011871851 -0.049183972 0.76700002 1.0984444e-38
-0.0092577254 -0.049312219 0.76899999 1.1075563e-38
-0.0066126678 -0.049312219 0.76899999 1.0706781e-38
-0.0039779302 -0.049440473 0.77100003 1.0431273e-38
-0.0013294332 -0.04956872 0.773 1.0523468e-38
0.0013293825 -0.04956872 0.773 1.0152894e-38
0.0039934083 -0.049632844 0.77399999 9.9685024e-39
0.0066728615 -0.049761094 0.77600002 9.5068306e-39
0.0093660736 -0.049889345 0.778 8.4926786e-39
0.012042088 -0.049889345 0.778 7.2937473e-39
0.014774854 -0.050081722 0.78100002 4.4357262e-39
0.017617688 -0.050530594 0.78799999 4.4469282e-39
-0.033235297 -0.052248091 0.773 7.1140224e-39
-0.030576481 -0.052248091 0.773 6.5644443e-39
-0.027917666 -0.052248091 0.773 6.841027e-39
-0.025258824 -0.052248091 0.773 7.2984262e-39
-0.022541536 -0.052112907 0.77100003 7.6672088e-39
-0.019889599 -0.052112907 0.77100003 7.2980885e-39
-0.017237637 -0.052112907 0.77100003 7.3902841e-39
-0.014547865 -0.051977724 0.76899999 5.6432587e-39
-0.011902807 -0.051977724 0.76899999 4.9056937e-39
-0.0092818029 -0.052112907 0.77100003 5.0879171e-39
-0.0066298665 -0.052112907 0.77100003 4.4425477e-39
-0.0039882488 -0.052248091 0.773 3.3387239e-39
-0.0013294332 -0.052248091 0.773 2.4167802e-39
0.0013293825 -0.052248091 0.773 8.5306566e-40
0.0039882488 -0.052248091 0.773 2.0770606e-40
0.0066470644 -0.052248091 0.773 1.5838036e-39
0.0093660736 -0.052586045 0.778 2.413553e-39
0.012042088 -0.052586045 0.778 4.9928376e-39
-0.033235297 -0.054927498 0.773 1.7242664e-38
-0.030576481 -0.054927498 0.773 1.5954098e-38
-0.027953781 -0.054998551 0.77399999 1.4571164e-38
-0.025291501 -0.054998551 0.77399999 1.392615e-38
-0.022600008 -0.054927498 0.773 1.3188585e-38
-0.019941194 -0.054927498 0.773 1.2729409e-38
-0.017282352 -0.054927498 0.773 1.2913801e-38
-0.014585701 -0.054785382 0.77100003 1.2545734e-38
-0.011933764 -0.054785382 0.77100003 1.3375495e-38
-0.0092818029 -0.054785382 0.77100003 1.3650666e-38
-0.0066298665 -0.054785382 0.77100003 1.4572623e-38
-0.0039779302 -0.054785382 0.77100003 1.5310195e-38
-0.0013259934 -0.054785382 0.77100003 1.6416542e-38
0.0013293825 -0.054927498 0.773 1.7338148e-38
0.0039882488 -0.054927498 0.773 1.8075713e-38
0.0066470644 -0.054927498 0.773 1.8905111e-38
