# .PCD v0.7 - Point Cloud Data file format
VERSION 0.7
FIELDS x y z rgb
SIZE 4 4 4 4
TYPE F F F F
COUNT 1 1 1 1
WIDTH 576
HEIGHT 1
VIEWPOINT 0 0 0 1 0 0 0
POINTS 576
DATA ascii
-0.028206594 0.017596275 0.78100002 1.983524e-38
-0.025487557 0.017573742 0.77999997 1.9100519e-38
-0.022804664 0.017573742 0.77999997 1.845515e-38
-0.020070178 0.017528681 0.778 1.7988831e-38
-0.01739414 0.017528681 0.778 1.6974679e-38
-0.03890207 0.01487011 0.77999997 1.8254709e-38
-0.03621918 0.01487011 0.77999997 1.8909025e-38
-0.033536259 0.01487011 0.77999997 2.0199764e-38
-0.030853368 0.01487011 0.77999997 1.9193434e-38
-0.028170476 0.01487011 0.77999997 1.8548064e-38
-0.025422206 0.014831982 0.778 1.854697e-38
-0.022746192 0.014831982 0.778 1.7993796e-38
-0.020070178 0.014831982 0.778 1.707149e-38
-0.01739414 0.014831982 0.778 1.6518316e-38
-0.014718127 0.014831982 0.778 1.7064023e-38
-0.012073068 0.01487011 0.77999997 1.7432806e-38
-0.03621918 0.01216644 0.77999997 1.9099114e-38
-0.033536259 0.01216644 0.77999997 1.8453744e-38
-0.03077426 0.012135244 0.778 1.8086348e-38
-0.028026015 0.012104048 0.77600002 1.7717565e-38
-0.025356853 0.012104048 0.77600002 1.7071461e-38
-0.02268772 0.012104048 0.77600002 1.6426092e-38
-0.020018585 0.012104048 0.77600002 1.5871842e-38
-0.01739414 0.012135244 0.778 1.5595255e-38
-0.014718127 0.012135244 0.778 1.5134318e-38
-0.012073068 0.01216644 0.77999997 1.5687491e-38
-0.0093901502 0.01216644 0.77999997 1.8255072e-38
-0.0067072571 0.01216644 0.77999997 1.8070681e-38
-0.038602825 0.009390017 0.77399999 2.0194747e-38
-0.036033444 0.0094142808 0.77600002 1.8177148e-38
-0.033364285 0.0094142808 0.77600002 1.7439583e-38
-0.030616036 0.009390017 0.77399999 1.6979271e-38
-0.027917666 0.0093778856 0.773 1.6057315e-38
-0.025258824 0.0093778856 0.773 1.5687804e-38
-0.022629244 0.009390017 0.77399999 1.513463e-38
-0.01996699 0.009390017 0.77399999 1.4766962e-38
-0.017349426 0.0094142808 0.77600002 1.3660614e-38
-0.014718127 0.0094385445 0.778 1.3936841e-38
-0.012073068 0.0094628073 0.77999997 1.3660254e-38
-0.0093901502 0.0094628073 0.77999997 1.6969339e-38
-0.0067072571 0.0094628073 0.77999997 1.7430317e-38
-0.044324614 0.0067678038 0.78100002 1.8531299e-38
-0.041638281 0.0067678038 0.78100002 1.9457883e-38
-0.038602825 0.006707144 0.77399999 1.8443731e-38
-0.035940573 0.006707144 0.77399999 1.9371763e-38
-0.033235297 0.0066984789 0.773 1.7251263e-38
-0.030576481 0.0066984789 0.773 1.6334656e-38
-0.027917666 0.0066984789 0.773 1.5043917e-38
-0.025258824 0.0066984789 0.773 1.4398895e-38
-0.022600008 0.0066984789 0.773 1.3569135e-38
-0.019941194 0.0066984789 0.773 1.3659901e-38
-0.017282352 0.0066984789 0.773 1.3106727e-38
-0.014642454 0.006707144 0.77399999 1.2646803e-38
-0.012042113 0.0067418064 0.778 1.2370216e-38
-0.0093901502 0.0067591374 0.77999997 1.3747817e-38
-0.0067072571 0.0067591374 0.77999997 1.7435642e-38
-0.0040398431 0.0067851343 0.78299999 1.7885924e-38
-0.044324614 0.0040606665 0.78100002 1.8713886e-38
-0.041638281 0.0040606665 0.78100002 1.7157283e-38
-0.03890207 0.004055467 0.77999997 1.4299218e-38
-0.035940573 0.0040242709 0.77399999 1.7347775e-38
-0.033235297 0.0040190723 0.773 1.6702406e-38
-0.03049737 0.0040086736 0.77100003 1.6242481e-38
-0.027845435 0.0040086736 0.77100003 1.4767351e-38
-0.025258824 0.0040190723 0.773 1.4122321e-38
-0.022600008 0.0040190723 0.773 1.3015973e-38
-0.019941194 0.0040190723 0.773 1.2646115e-38
-0.017282352 0.0040190723 0.773 1.1724158e-38
-0.014623537 0.0040190723 0.773 1.2182951e-38
-0.011980199 0.0040242709 0.77399999 1.2090755e-38
-0.0093419962 0.0040346701 0.77600002 1.1446102e-38
-0.0066900598 0.0040450683 0.778 1.6516861e-38
-0.0040243645 0.004055467 0.77999997 1.8162514e-38
-0.052048277 0.0013449028 0.77600002 1.9512613e-38
-0.044267856 0.0013518352 0.77999997 2.0153617e-38
-0.041584965 0.0013518352 0.77999997 1.9265865e-38
-0.038702577 0.0013449028 0.77600002 1.917367e-38
-0.035894137 0.0013397034 0.773 1.8452653e-38
-0.033149306 0.0013362372 0.77100003 1.7346305e-38
-0.03049737 0.0013362372 0.77100003 1.6335386e-38
-0.027845435 0.0013362372 0.77100003 1.5136843e-38
-0.025193471 0.0013362372 0.77100003 1.3480179e-38
-0.022541536 0.0013362372 0.77100003 1.2650418e-38
-0.019889599 0.0013362372 0.77100003 1.2462088e-38
-0.017237637 0.0013362372 0.77100003 1.135574e-38
-0.014585701 0.0013362372 0.77100003 1.1261713e-38
-0.011964721 0.0013397034 0.773 1.1446104e-38
-0.0093179187 0.0013414364 0.77399999 1.0985126e-38
-0.0066900598 0.0013483689 0.778 1.4580756e-38
-0.0040140459 0.0013483689 0.778 1.8346552e-38
-0.04937914 -0.0013449028 0.77600002 1.4086429e-38
-0.046830393 -0.0013483689 0.778 2.0336204e-38
-0.044154353 -0.0013483689 0.778 2.0428399e-38
-0.041371711 -0.0013449028 0.77600002 1.9714585e-38
-0.038602825 -0.0013414364 0.77399999 2.2849236e-38
-0.035801269 -0.0013362372 0.77100003 1.7993109e-38
-0.033149306 -0.0013362372 0.77100003 1.6794566e-38
-0.03049737 -0.0013362372 0.77100003 1.5872924e-38
-0.027845435 -0.0013362372 0.77100003 1.4950968e-38
-0.025193471 -0.0013362372 0.77100003 1.3937554e-38
-0.022541536 -0.0013362372 0.77100003 1.3568772e-38
-0.019889599 -0.0013362372 0.77100003 1.209511e-38
-0.017237637 -0.0013362372 0.77100003 1.1357545e-38
-0.014585701 -0.0013362372 0.77100003 1.0986588e-38
-0.011964721 -0.0013397034 0.773 1.0156827e-38
-0.0093179187 -0.0013414364 0.77399999 1.0432656e-38
-0.0066728615 -0.0013449028 0.77600002 1.2737547e-38
-0.0040140459 -0.0013483689 0.778 1.8254719e-38
-0.04937914 -0.0040346701 0.77600002 1.8344021e-38
-0.046710007 -0.0040346701 0.77600002 1.4813855e-38
-0.044040848 -0.0040346701 0.77600002 1.6657746e-38
-0.041371711 -0.0040346701 0.77600002 1.6659174e-38
-0.038602825 -0.0040242709 0.77399999 2.3297236e-38
-0.035801269 -0.0040086736 0.77100003 1.7714753e-38
-0.033149306 -0.0040086736 0.77100003 1.5778645e-38
-0.03049737 -0.0040086736 0.77100003 1.4491406e-38
-0.027845435 -0.0040086736 0.77100003 1.3385059e-38
-0.025128119 -0.0039982749 0.76899999 1.3104894e-38
-0.02248306 -0.0039982749 0.76899999 1.255172e-38
-0.019838003 -0.0039982749 0.76899999 1.1815985e-38
-0.017237637 -0.0040086736 0.77100003 1.107842e-38
-0.014585701 -0.0040086736 0.77100003 1.0248635e-38
-0.011964721 -0.0040190723 0.773 1.034083e-38
-0.0093179187 -0.0040242709 0.77399999 9.4192368e-39
-0.0066728615 -0.0040346701 0.77600002 1.2185099e-38
-0.0040037273 -0.0040346701 0.77600002 1.8071047e-38
-0.04937914 -0.0067244754 0.77600002 1.713028e-38
-0.046710007 -0.0067244754 0.77600002 1.5919492e-38
-0.044040848 -0.0067244754 0.77600002 1.6472666e-38
-0.041371711 -0.0067244754 0.77600002 1.4534761e-38
-0.038602825 -0.006707144 0.77399999 2.2463565e-38
-0.035801269 -0.006681148 0.77100003 1.6517626e-38
-0.033149306 -0.006681148 0.77100003 1.5134692e-38
-0.030418258 -0.0066638165 0.76899999 1.3846077e-38
-0.027700968 -0.0066464855 0.76700002 1.2278752e-38
-0.025062766 -0.0066464855 0.76700002 1.1999278e-38
-0.022424588 -0.0066464855 0.76700002 1.1261713e-38
-0.019838003 -0.0066638165 0.76899999 1.070888e-38
-0.017192923 -0.0066638165 0.76899999 1.0524491e-38
-0.014585701 -0.006681148 0.77100003 9.9709743e-39
-0.011964721 -0.0066984789 0.773 9.786583e-39
-0.0093179187 -0.006707144 0.77399999 9.050104e-39
-0.0066728615 -0.0067244754 0.77600002 1.2645734e-38
-0.0040037273 -0.0067244754 0.77600002 1.807176e-38
-0.046710007 -0.0094142426 0.77600002 1.4266429e-38
-0.044040848 -0.0094142426 0.77600002 1.4450818e-38
-0.041371711 -0.0094142426 0.77600002 1.5487655e-38
-0.038602825 -0.0093899788 0.77399999 1.7792546e-38
-0.035894137 -0.0093778474 0.773 1.4950627e-38
-0.033149306 -0.0093535846 0.77100003 1.4213062e-38
-0.030418258 -0.0093293199 0.76899999 1.3016304e-38
-0.027700968 -0.0093050571 0.76700002 1.2647522e-38
-0.025062766 -0.0093050571 0.76700002 1.1447922e-38
-0.022424588 -0.0093050571 0.76700002 1.0802552e-38
-0.019838003 -0.0093293199 0.76899999 1.0249344e-38
-0.017192923 -0.0093293199 0.76899999 9.4195955e-39
-0.014585701 -0.0093535846 0.77100003 9.0511774e-39
-0.011964721 -0.0093778474 0.773 9.0511774e-39
-0.0093179187 -0.0093899788 0.77399999 6.3822083e-39
-0.0066900598 -0.0094385063 0.778 1.3296864e-38
-0.0040243645 -0.0094627691 0.77999997 1.7610785e-38
-0.046950776 -0.01216644 0.77999997 1.8344735e-38
-0.044267856 -0.01216644 0.77999997 1.5947648e-38
-0.041584965 -0.01216644 0.77999997 1.5407701e-38
-0.03890207 -0.01216644 0.77999997 1.5407701e-38
-0.035940573 -0.012072852 0.77399999 1.4675119e-38
-0.033235297 -0.012057254 0.773 1.3476576e-38
-0.030576481 -0.012057254 0.773 1.3015588e-38
-0.0277732 -0.011994862 0.76899999 1.2093632e-38
-0.025128119 -0.011994862 0.76899999 1.1172754e-38
-0.02248306 -0.011994862 0.76899999 1.0527385e-38
-0.019889599 -0.012026059 0.77100003 9.9745546e-39
-0.017237637 -0.012026059 0.77100003 9.2370007e-39
-0.014585701 -0.012026059 0.77100003 8.8689413e-39
-0.011964721 -0.012057254 0.773 7.946999e-39
-0.0093419962 -0.012104048 0.77600002 8.6836112e-39
-0.0066900598 -0.012135244 0.778 1.5321697e-38
-0.0040295245 -0.012182039 0.78100002 1.7517507e-38
-0.041638281 -0.014889137 0.78100002 1.5037887e-38
-0.036265619 -0.014889137 0.78100002 1.2922992e-38
-0.033450272 -0.014831943 0.778 1.2830796e-38
-0.030576481 -0.014736623 0.773 1.1818462e-38
-0.027845435 -0.014698495 0.77100003 1.0988701e-38
-0.025193471 -0.014698495 0.77100003 1.015895e-38
-0.022541536 -0.014698495 0.77100003 9.8823631e-39
-0.019889599 -0.014698495 0.77100003 9.3299124e-39
-0.017237637 -0.014698495 0.77100003 8.7767471e-39
-0.014585701 -0.014698495 0.77100003 8.1321049e-39
-0.011980199 -0.014755686 0.77399999 7.4867453e-39
-0.0093660736 -0.014831943 0.778 1.6414425e-38
-0.0067072571 -0.014870071 0.77999997 1.715199e-38
-0.0040243645 -0.014870071 0.77999997 1.7240558e-38
-0.036265619 -0.017596275 0.78100002 1.2370904e-38
-0.033450272 -0.017528681 0.778 1.2831882e-38
-0.030695148 -0.017483622 0.77600002 1.1451099e-38
-0.027917666 -0.01741603 0.773 1.0713543e-38
-0.025258824 -0.01741603 0.773 1.015895e-38
-0.022600008 -0.01741603 0.773 9.329195e-39
-0.019941194 -0.01741603 0.773 8.4998099e-39
-0.017282352 -0.01741603 0.773 7.5778634e-39
-0.014642454 -0.017438559 0.77399999 6.1070605e-39
-0.012042113 -0.017528681 0.778 1.0716821e-38
-0.0093901502 -0.017573742 0.77999997 1.8347634e-38
-0.0067072571 -0.017573742 0.77999997 1.7425677e-38
-0.0040140459 -0.017528681 0.778 1.7057248e-38
-0.0013380323 -0.017528681 0.778 1.7149444e-38
0.014812689 -0.017641334 0.78299999 1.9096984e-38
0.017505901 -0.017641334 0.78299999 1.5779335e-38
0.020250708 -0.017686397 0.78500003 1.5226162e-38
0.02295085 -0.017686397 0.78500003 1.6780658e-38
-0.036033444 -0.020173388 0.77600002 1.4029049e-38
-0.033364285 -0.020173388 0.77600002 1.5043201e-38
-0.030695148 -0.020173388 0.77600002 1.3568801e-38
-0.027917666 -0.020095399 0.773 1.2554649e-38
-0.025193471 -0.020043407 0.77100003 1.108166e-38
-0.022541536 -0.020043407 0.77100003 9.883117e-39
-0.019889599 -0.020043407 0.77100003 9.1426541e-39
-0.017282352 -0.020095399 0.773 8.3129061e-39
-0.014623537 -0.020095399 0.773 8.9611355e-39
-0.011980199 -0.020121394 0.77399999 1.0897224e-38
-0.0093419962 -0.020173388 0.77600002 1.6139534e-38
-0.0066728615 -0.020173388 0.77600002 1.6139534e-38
-0.0040037273 -0.020173388 0.77600002 1.7334852e-38
-0.0013345927 -0.020173388 0.77600002 1.7058265e-38
0.012042088 -0.020225381 0.778 1.9744483e-38
0.0147181 -0.020225381 0.778 1.8361549e-38
0.017461188 -0.020303372 0.78100002 1.3202087e-38
0.020250708 -0.02040736 0.78500003 1.3939652e-38
0.02295085 -0.02040736 0.78500003 1.742351e-38
-0.035894137 -0.022774804 0.773 1.2555308e-38
-0.033235297 -0.022774804 0.773 1.3108482e-38
-0.030576481 -0.022774804 0.773 1.2372364e-38
-0.0277732 -0.022656953 0.76899999 1.1358212e-38
-0.025062766 -0.022598028 0.76700002 1.0345125e-38
-0.022424588 -0.022598028 0.76700002 9.9763482e-39
-0.01978641 -0.022598028 0.76700002 9.791601e-39
-0.017192923 -0.022656953 0.76899999 1.1912074e-38
-0.014547865 -0.022656953 0.76899999 1.3567342e-38
-0.011933764 -0.02271588 0.77100003 1.3567342e-38
-0.0092818029 -0.02271588 0.77100003 1.3660955e-38
-0.0066298665 -0.02271588 0.77100003 1.3384368e-38
-0.0039882488 -0.022774804 0.773 1.3937907e-38
-0.0013311529 -0.022804266 0.77399999 1.4952059e-38
0.0066470644 -0.022774804 0.773 1.7442433e-38
0.01201113 -0.022863194 0.77600002 1.9651898e-38
0.014680265 -0.022863194 0.77600002 1.5964073e-38
0.017394114 -0.022922119 0.778 1.0992996e-38
0.020199113 -0.023069434 0.78299999 1.1177384e-38
0.022892375 -0.023069434 0.78299999 1.696469e-38
0.025650941 -0.023128361 0.78500003 1.6780298e-38
-0.041265082 -0.02548714 0.77399999 1.4491081e-38
-0.035708398 -0.025322495 0.76899999 1.6057691e-38
-0.032977324 -0.025256637 0.76700002 1.5873299e-38
-0.030339146 -0.025256637 0.76700002 1.4952737e-38
-0.027664851 -0.025223708 0.76599997 1.4030781e-38
-0.024964737 -0.02515785 0.764 1.3571923e-38
-0.022336878 -0.02515785 0.764 1.4309487e-38
-0.019709019 -0.02515785 0.764 1.4400655e-38
-0.017081134 -0.02515785 0.764 1.4585047e-38
-0.014491111 -0.025223708 0.76599997 1.4399914e-38
-0.011871851 -0.025256637 0.76700002 1.5229675e-38
-0.0092216088 -0.025223708 0.76599997 1.5414479e-38
-0.0065868706 -0.025223708 0.76599997 1.6520827e-38
-0.0039521325 -0.025223708 0.76599997 1.7072944e-38
-0.0013139545 -0.02515785 0.764 1.7349531e-38
0.0013139045 -0.02515785 0.764 1.7535352e-38
0.0039882488 -0.025454212 0.773 1.7535352e-38
0.0066470644 -0.025454212 0.773 1.7627162e-38
0.0093179187 -0.02548714 0.77399999 1.7627162e-38
0.011980173 -0.02548714 0.77399999 1.6611578e-38
0.014680265 -0.025552999 0.77600002 1.5044252e-38
0.0173494 -0.025552999 0.77600002 1.1726972e-38
0.020199113 -0.025783503 0.78299999 1.0436243e-38
0.022892375 -0.025783503 0.78299999 1.6137788e-38
0.025650941 -0.025849363 0.78500003 1.6414374e-38
-0.044040848 -0.028242767 0.77600002 1.7898763e-38
-0.041265082 -0.028169975 0.77399999 1.8086733e-38
-0.038453206 -0.028060792 0.77100003 1.8178929e-38
-0.035708398 -0.027988 0.76899999 1.8362231e-38
-0.03293433 -0.027878813 0.76599997 1.8362231e-38
-0.030299591 -0.027878813 0.76599997 1.854878e-38
-0.02759262 -0.027806023 0.764 1.9101595e-38
-0.024899386 -0.027733231 0.76200002 1.9009393e-38
-0.022278406 -0.027733231 0.76200002 1.864061e-38
-0.019657426 -0.027733231 0.76200002 1.8639884e-38
-0.017014062 -0.027696835 0.76099998 1.8178906e-38
-0.014396521 -0.027696835 0.76099998 1.7903035e-38
-0.01179446 -0.027733231 0.76200002 1.7626449e-38
-0.0091975322 -0.027806023 0.764 1.7993456e-38
-0.0065696728 -0.027806023 0.764 1.7440282e-38
-0.0039314949 -0.027733231 0.76200002 1.7257691e-38
-0.001310515 -0.027733231 0.76200002 1.7442082e-38
0.0013139045 -0.027806023 0.764 1.7165127e-38
0.0039572921 -0.02791521 0.76700002 1.7441714e-38
0.0066298665 -0.028060792 0.77100003 1.808491e-38
0.0092818029 -0.028060792 0.77100003 1.808491e-38
0.011964696 -0.02813358 0.773 1.6701628e-38
0.014642429 -0.028169975 0.77399999 1.4212346e-38
0.0173494 -0.028242767 0.77600002 1.0252213e-38
0.020070128 -0.028315555 0.778 9.9756308e-39
0.022804664 -0.028388346 0.77999997 1.475552e-38
0.025650941 -0.028570326 0.78500003 1.6968215e-38
-0.046830393 -0.031012295 0.778 1.7902698e-38
-0.043927338 -0.030852847 0.77399999 1.8087089e-38
-0.04110514 -0.030733265 0.77100003 1.8178929e-38
-0.038253706 -0.030573819 0.76700002 1.8086733e-38
-0.03556909 -0.030533956 0.76599997 1.8271477e-38
-0.032762352 -0.03037451 0.76200002 1.9193434e-38
-0.03014137 -0.03037451 0.76200002 1.9191986e-38
-0.02752039 -0.03037451 0.76200002 1.9652606e-38
-0.024866708 -0.030334648 0.76099998 1.7627152e-38
-0.022249166 -0.030334648 0.76099998 1.8180326e-38
-0.019631626 -0.030334648 0.76099998 1.6889962e-38
-0.016969347 -0.030254925 0.759 1.7350941e-38
-0.014358685 -0.030254925 0.759 1.6705196e-38
-0.011748024 -0.030254925 0.759 1.6428609e-38
-0.009137339 -0.030254925 0.759 1.6980007e-38
-0.0065438757 -0.030334648 0.76099998 1.6980007e-38
-0.0039314949 -0.03037451 0.76200002 1.6887095e-38
-0.001310515 -0.03037451 0.76200002 1.6979291e-38
0.0013139045 -0.030454235 0.764 1.7347726e-38
0.0039521325 -0.030533956 0.76599997 1.725553e-38
0.00659547 -0.030573819 0.76700002 1.6976395e-38
0.009233648 -0.030573819 0.76700002 1.6607612e-38
0.011933739 -0.030733265 0.77100003 1.4489636e-38
0.014623512 -0.030812988 0.773 1.1631572e-38
0.017282328 -0.030812988 0.773 9.6986894e-39
0.020018535 -0.030932572 0.77600002 1.006747e-38
0.022804664 -0.031092016 0.77999997 1.254743e-38
0.025585586 -0.031211603 0.78299999 1.6604037e-38
-0.046529427 -0.033492357 0.773 1.7349518e-38
-0.043757077 -0.033405703 0.77100003 1.7165127e-38
-0.040891882 -0.033232391 0.76700002 1.7718304e-38
-0.038253706 -0.033232391 0.76700002 1.7626108e-38
-0.035476223 -0.033102408 0.764 1.8362968e-38
-0.032762352 -0.03301575 0.76200002 1.7717599e-38
-0.030101812 -0.032972421 0.76099998 1.7348414e-38
-0.027484272 -0.032972421 0.76099998 1.5873284e-38
-0.024801355 -0.032885768 0.759 1.5044955e-38
-0.022190694 -0.032885768 0.759 1.642789e-38
-0.019580033 -0.032885768 0.759 1.6794918e-38
-0.016969347 -0.032885768 0.759 1.5780766e-38
-0.014320851 -0.032799114 0.75700003 1.6979297e-38
-0.011717069 -0.032799114 0.75700003 1.7348079e-38
-0.009137339 -0.032885768 0.759 1.7164777e-38
-0.0065438757 -0.032972421 0.76099998 1.7810146e-38
-0.0039314949 -0.03301575 0.76200002 1.7163709e-38
-0.001310515 -0.03301575 0.76200002 1.799347e-38
0.0013139045 -0.033102408 0.764 1.6701628e-38
0.0039418135 -0.033102408 0.764 1.559528e-38
0.0065868706 -0.033189062 0.76599997 1.2738947e-38
0.009233648 -0.033232391 0.76700002 1.2646752e-38
0.011902782 -0.033319045 0.76899999 1.1723379e-38
0.014585676 -0.033405703 0.77100003 1.0709239e-38
0.017282328 -0.033492357 0.773 1.0248294e-38
0.020018535 -0.033622339 0.77600002 1.034049e-38
0.022804664 -0.033795647 0.77999997 1.0246832e-38
0.025520235 -0.03383898 0.78100002 1.5962952e-38
-0.049251873 -0.036218554 0.77399999 1.8080651e-38
-0.046529427 -0.036171764 0.773 1.7072934e-38
-0.043757077 -0.036078177 0.77100003 1.7902695e-38
-0.040891882 -0.035891 0.76700002 1.7994188e-38
-0.038203832 -0.035844203 0.76599997 1.7348819e-38
-0.035383355 -0.03565703 0.76200002 1.8729593e-38
-0.032633364 -0.035516646 0.759 1.6332506e-38
-0.030022701 -0.035516646 0.759 1.7162609e-38
-0.02741204 -0.035516646 0.759 1.5134305e-38
-0.024801355 -0.035516646 0.759 1.716153e-38
-0.022132222 -0.035423059 0.75700003 1.4395661e-38
-0.019528439 -0.035423059 0.75700003 1.4214507e-38
-0.016924633 -0.035423059 0.75700003 1.4675485e-38
-0.014301931 -0.035376266 0.75599998 1.4951353e-38
-0.011701589 -0.035376266 0.75599998 1.522794e-38
-0.009137339 -0.035516646 0.759 1.5134302e-38
-0.0065266774 -0.035516646 0.759 1.3751368e-38
-0.0039263354 -0.035610233 0.76099998 1.6147028e-38
-0.001310515 -0.03565703 0.76200002 1.4671898e-38
0.0013104652 -0.03565703 0.76200002 1.5499845e-38
0.0039314949 -0.03565703 0.76200002 1.2180802e-38
0.0065696728 -0.035750616 0.764 9.791601e-39
0.0092216088 -0.035844203 0.76599997 1.0160378e-38
0.011871826 -0.035891 0.76700002 1.0615978e-38
0.01454784 -0.035984587 0.76899999 1.0155e-38
0.017237613 -0.036078177 0.77100003 1.0154647e-38
0.019966939 -0.036218554 0.77399999 1.0431234e-38
0.022804664 -0.036499318 0.77999997 9.9688499e-39
0.025487557 -0.036499318 0.77999997 1.5777175e-38
-0.049188241 -0.038851131 0.773 1.7343437e-38
-0.046529427 -0.038851131 0.773 1.6887464e-38
-0.043643568 -0.038650092 0.76899999 1.7164051e-38
-0.040838569 -0.038499311 0.76599997 1.7532129e-38
-0.038203832 -0.038499311 0.76599997 1.6978955e-38
-0.035336919 -0.038248006 0.76099998 1.6703801e-38
-0.032633364 -0.038147487 0.759 1.5136476e-38
-0.029943593 -0.038046971 0.75700003 1.485952e-38
-0.027339811 -0.038046971 0.75700003 1.5412694e-38
-0.024736004 -0.038046971 0.75700003 1.393827e-38
-0.022132222 -0.038046971 0.75700003 1.4860227e-38
-0.019528439 -0.038046971 0.75700003 1.4858081e-38
-0.016902274 -0.037996709 0.75599998 1.4489299e-38
-0.014301931 -0.037996709 0.75599998 1.3568744e-38
-0.011701589 -0.037996709 0.75599998 1.3384352e-38
-0.0091012223 -0.037996709 0.75599998 1.282866e-38
-0.0065094801 -0.038046971 0.75700003 1.3013052e-38
-0.0039160163 -0.038147487 0.759 1.2185111e-38
-0.0013053553 -0.038147487 0.759 1.1631938e-38
0.0013053057 -0.038147487 0.759 1.1353163e-38
0.0039263354 -0.038248006 0.76099998 1.0062444e-38
0.0065696728 -0.038398791 0.764 1.0523079e-38
0.0091975322 -0.038398791 0.764 1.0430883e-38
0.011856347 -0.038499311 0.76599997 9.9709967e-39
0.01454784 -0.038650092 0.76899999 9.7866054e-39
0.017237613 -0.038750611 0.77100003 1.0061748e-38
0.019966939 -0.038901389 0.77399999 9.8773563e-39
0.022746192 -0.039102431 0.778 9.691575e-39
0.025487557 -0.039202951 0.77999997 1.5960878e-38
-0.049060978 -0.041423086 0.77100003 1.7158339e-38
-0.046409041 -0.041423086 0.77100003 1.5782909e-38
-0.043530062 -0.041208182 0.76700002 1.6243887e-38
-0.040838569 -0.041154452 0.76599997 1.6795268e-38
-0.038203832 -0.041154452 0.76599997 1.633429e-38
-0.035336919 -0.040885817 0.76099998 1.7254465e-38
-0.032633364 -0.040778369 0.759 1.5502748e-38
-0.029943593 -0.040670916 0.75700003 1.5043198e-38
-0.027339811 -0.040670916 0.75700003 1.3752459e-38
-0.024736004 -0.040670916 0.75700003 1.4027967e-38
-0.022132222 -0.040670916 0.75700003 1.3382598e-38
-0.019528439 -0.040670916 0.75700003 1.2093992e-38
-0.016902274 -0.04061719 0.75599998 1.4306687e-38
-0.014301931 -0.04061719 0.75599998 1.1819884e-38
-0.011701589 -0.04061719 0.75599998 1.1819884e-38
-0.0091012223 -0.04061719 0.75599998 1.12617e-38
-0.0065094801 -0.040670916 0.75700003 1.190707e-38
-0.003905698 -0.040670916 0.75700003 1.0525209e-38
-0.0013019157 -0.040670916 0.75700003 1.1447161e-38
0.0013053057 -0.040778369 0.759 1.0432328e-38
0.0039263354 -0.040885817 0.76099998 1.0524524e-38
0.0065696728 -0.041047003 0.764 1.0155735e-38
0.0091975322 -0.041047003 0.764 1.0155735e-38
0.011856347 -0.041154452 0.76599997 9.8791612e-39
0.014510004 -0.041208182 0.76700002 9.6025743e-39
0.017237613 -0.041423086 0.77100003 9.5100297e-39
0.019966939 -0.041584261 0.77399999 8.3114865e-39
0.022746192 -0.041799169 0.778 1.052104e-38
0.025487557 -0.041906621 0.77999997 1.494643e-38
-0.049060978 -0.044095524 0.77100003 1.6327512e-38
-0.046409041 -0.044095524 0.77100003 1.6241366e-38
-0.043530062 -0.043866754 0.76700002 1.5964779e-38
-0.040838569 -0.043809559 0.76599997 1.559671e-38
-0.038203832 -0.043809559 0.76599997 1.5412318e-38
-0.035336919 -0.043523595 0.76099998 1.550488e-38
-0.032633364 -0.04340921 0.759 1.485951e-38
-0.029943593 -0.043294825 0.75700003 1.5042472e-38
-0.027303692 -0.04323763 0.75599998 1.3843929e-38
-0.024703326 -0.04323763 0.75599998 1.3383328e-38
-0.022102984 -0.04323763 0.75599998 1.3014545e-38
-0.01950264 -0.04323763 0.75599998 1.2369888e-38
-0.016902274 -0.04323763 0.75599998 1.1816714e-38
-0.014301931 -0.04323763 0.75599998 1.2737932e-38
-0.011670634 -0.043123249 0.75400001 1.0986215e-38
-0.0090771457 -0.043123249 0.75400001 1.0433394e-38
-0.0065008802 -0.04323763 0.75599998 1.0433394e-38
-0.003905698 -0.043294825 0.75700003 1.0708925e-38
-0.0013019157 -0.043294825 0.75700003 1.0524533e-38
0.0013053057 -0.04340921 0.759 1.0431626e-38
0.0039263354 -0.043523595 0.76099998 1.033943e-38
0.0065696728 -0.043695174 0.764 1.0155735e-38
0.0091975322 -0.043695174 0.764 1.006354e-38
0.011856347 -0.043809559 0.76599997 9.8791612e-39
0.014510004 -0.043866754 0.76700002 9.6947699e-39
0.017237613 -0.044095524 0.77100003 9.4167439e-39
0.019966939 -0.044267096 0.77399999 7.11187e-39
0.02268772 -0.044381484 0.77600002 1.4479058e-38
-0.049188241 -0.046889313 0.773 1.6045239e-38
-0.046529427 -0.046889313 0.773 1.5595994e-38
-0.043757077 -0.046767998 0.77100003 1.5595994e-38
-0.040891882 -0.046525363 0.76700002 1.5319782e-38
-0.038203832 -0.0464647 0.76599997 1.4951e-38
-0.035336919 -0.046161406 0.76099998 1.4858444e-38
-0.032633364 -0.046040088 0.759 1.4766248e-38
-0.029943593 -0.045918774 0.75700003 1.3844652e-38
-0.027303692 -0.045858111 0.75599998 1.347587e-38
-0.024703326 -0.045858111 0.75599998 1.4487138e-38
-0.022102984 -0.045858111 0.75599998 1.3472986e-38
-0.01950264 -0.045858111 0.75599998 1.2552827e-38
-0.016902274 -0.045858111 0.75599998 1.3106001e-38
-0.014301931 -0.045858111 0.75599998 1.2369878e-38
-0.011670634 -0.045736797 0.75400001 1.1724509e-38
-0.0090771457 -0.045736797 0.75400001 1.1537597e-38
-0.0064836829 -0.045736797 0.75400001 1.1076618e-38
-0.003905698 -0.045918774 0.75700003 1.098407e-38
-0.0013019157 -0.045918774 0.75700003 1.0523091e-38
0.0013053057 -0.046040088 0.759 1.0247581e-38
0.0039314949 -0.046222065 0.76200002 1.006319e-38
0.0065696728 -0.046343386 0.764 9.971347e-39
0.0092216088 -0.0464647 0.76599997 9.971347e-39
0.011871826 -0.046525363 0.76700002 1.0153946e-38
0.01454784 -0.046646677 0.76899999 9.7851635e-39
0.017237613 -0.046767998 0.77100003 7.4853384e-39
0.019941144 -0.046889313 0.773 1.2556098e-38
0.02268772 -0.047071289 0.77600002 2.1667415e-38
-0.049188241 -0.04956872 0.773 1.6964699e-38
-0.046529427 -0.04956872 0.773 1.5410539e-38
-0.043757077 -0.049440473 0.77100003 1.5226148e-38
-0.040891882 -0.049183972 0.76700002 1.4950277e-38
-0.038203832 -0.049119845 0.76599997 1.4950277e-38
-0.035383355 -0.048863344 0.76200002 1.393757e-38
-0.032719351 -0.048799217 0.76099998 1.3660983e-38
-0.030022701 -0.04867097 0.759 1.4027255e-38
-0.027339811 -0.048542719 0.75700003 1.3566277e-38
-0.024736004 -0.048542719 0.75700003 1.3196412e-38
-0.022102984 -0.048478592 0.75599998 1.2366651e-38
-0.01950264 -0.048478592 0.75599998 1.3102801e-38
-0.016924633 -0.048542719 0.75700003 1.1719866e-38
-0.014301931 -0.048478592 0.75599998 1.2549611e-38
-0.011670634 -0.048350345 0.75400001 1.1351068e-38
-0.0090771457 -0.048350345 0.75400001 1.1074481e-38
-0.0064836829 -0.048350345 0.75400001 1.0613503e-38
-0.003905698 -0.048542719 0.75700003 9.7869712e-39
-0.0013019157 -0.048542719 0.75700003 9.9713624e-39
0.0013104652 -0.048863344 0.76200002 9.8795409e-39
0.0039418135 -0.048991594 0.764 9.9717366e-39
0.0065868706 -0.049119845 0.76599997 9.8770228e-39
0.009233648 -0.049183972 0.76700002 9.8770228e-39
0.011933739 -0.049440473 0.77100003 9.9681464e-39
0.014585676 -0.049440473 0.77100003 9.1383858e-39
0.017282328 -0.04956872 0.773 1.070255e-38
0.019941144 -0.04956872 0.773 1.8446983e-38
-0.049188241 -0.052248091 0.773 1.6781021e-38
-0.046529427 -0.052248091 0.773 1.1907479e-38
-0.040838569 -0.051774949 0.76599997 1.3474089e-38
-0.038203832 -0.051774949 0.76599997 1.365848e-38
-0.035383355 -0.051504582 0.76200002 1.3381899e-38
-0.032762352 -0.051504582 0.76200002 1.3013116e-38
-0.030101812 -0.05143699 0.76099998 1.209116e-38
-0.02741204 -0.051301811 0.759 1.1077008e-38
-0.024801355 -0.051301811 0.759 1.0984106e-38
-0.022132222 -0.051166628 0.75700003 1.0338737e-38
-0.019528439 -0.051166628 0.75700003 1.0429878e-38
-0.016969347 -0.051301811 0.759 8.9547484e-39
-0.014320851 -0.051166628 0.75700003 8.4958778e-39
-0.011717069 -0.051166628 0.75700003 8.2192909e-39
-0.009137339 -0.051301811 0.759 7.8494392e-39
-0.006552475 -0.051504582 0.76200002 8.4948086e-39
-0.0039314949 -0.051504582 0.76200002 8.7699592e-39
-0.001310515 -0.051504582 0.76200002 8.4011767e-39
0.0013173441 -0.051774949 0.76599997 8.3075363e-39
0.0039521325 -0.051774949 0.76599997 7.5699712e-39
0.00659547 -0.051842544 0.76700002 6.0069868e-39
0.0092577254 -0.051977724 0.76899999 5.0850319e-39
0.011933739 -0.052112907 0.77100003 1.1285722e-39
0.014585676 -0.052112907 0.77100003 1.1285722e-39
0.017282328 -0.052248091 0.773 1.0428148e-38
0.019941144 -0.052248091 0.773 1.4484756e-38
-0.040838569 -0.054430094 0.76599997 1.2364141e-38
-0.038203832 -0.054430094 0.76599997 1.1534381e-38
-0.035383355 -0.054145861 0.76200002 1.0796416e-38
-0.032762352 -0.054145861 0.76200002 9.1369144e-39
-0.03014137 -0.054145861 0.76200002 7.1136636e-39
-0.02752039 -0.054145861 0.76200002 6.5604983e-39
-0.024899386 -0.054145861 0.76200002 5.2697791e-39
-0.022249166 -0.054074802 0.76099998 4.8088079e-39
-0.019631626 -0.054074802 0.76099998 3.7024772e-39
-0.017014062 -0.054074802 0.76099998 3.7024772e-39
-0.014396521 -0.054074802 0.76099998 3.8857894e-39
-0.01177898 -0.054074802 0.76099998 3.7935952e-39
-0.0091734556 -0.054145861 0.76200002 3.5184474e-39
-0.0065696728 -0.054287981 0.764 3.7028359e-39
-0.0039418135 -0.054287981 0.764 5.0832382e-39
-0.0013139545 -0.054287981 0.764 5.4520151e-39
0.0013190639 -0.054501154 0.76700002 7.294113e-39
0.0039572921 -0.054501154 0.76700002 7.8472868e-39
0.00659547 -0.054501154 0.76700002 9.0451714e-39
0.0092818029 -0.054785382 0.77100003 1.1442258e-38
0.011933739 -0.054785382 0.77100003 1.4021596e-38
0.014585676 -0.054785382 0.77100003 1.5957704e-38
