# .PCD v0.7 - Point Cloud Data file format
VERSION 0.7
FIELDS x y z rgb
SIZE 4 4 4 4
TYPE F F F F
COUNT 1 1 1 1
WIDTH 512
HEIGHT 1
VIEWPOINT 0 0 0 1 0 0 0
POINTS 512
DATA ascii
-0.012289765 0.01788917 0.79400003 2.0202252e-38
-0.0094864592 0.017753985 0.78799999 1.9100525e-38
-0.0067760497 0.017753985 0.78799999 1.8455155e-38
-0.0040656403 0.017753985 0.78799999 1.7992393e-38
-0.0013552306 0.017753985 0.78799999 1.6517263e-38
-0.014907304 0.015022624 0.78799999 1.9193441e-38
-0.012196895 0.015022624 0.78799999 1.8732821e-38
-0.0094744209 0.015003561 0.787 1.8732093e-38
-0.0067674508 0.015003561 0.787 1.8086723e-38
-0.0040604807 0.015003561 0.787 1.8176755e-38
-0.0013535108 0.015003561 0.787 1.6978212e-38
0.0013534593 0.015003561 0.787 1.7157263e-38
0.0040604807 0.015003561 0.787 1.678848e-38
-0.023009323 0.012275627 0.787 1.80714e-38
-0.020302353 0.012275627 0.787 1.9187019e-38
-0.017595356 0.012275627 0.787 1.8910432e-38
-0.014888387 0.012275627 0.787 1.8455869e-38
-0.012181417 0.012275627 0.787 1.7626108e-38
-0.0094503444 0.012244431 0.78500003 1.7348414e-38
-0.006750253 0.012244431 0.78500003 1.7348414e-38
-0.0040501622 0.012244431 0.78500003 1.6610509e-38
-0.0013500712 0.012244431 0.78500003 1.5965139e-38
0.0013500198 0.012244431 0.78500003 1.55031e-38
0.0040604807 0.012275627 0.787 1.5042122e-38
0.0067674508 0.012275627 0.787 1.7336703e-38
-0.023009323 0.0095477309 0.787 1.8900795e-38
-0.020302353 0.0095477309 0.787 1.8361892e-38
-0.017595356 0.0095477309 0.787 1.7716523e-38
-0.014888387 0.0095477309 0.787 1.744172e-38
-0.012150461 0.0095234681 0.78500003 1.6888546e-38
-0.0094503444 0.0095234681 0.78500003 1.6519035e-38
-0.0067330543 0.0094992034 0.78299999 1.4582926e-38
-0.0040398431 0.0094992034 0.78299999 1.4119146e-38
-0.0013466314 0.0094992034 0.78299999 1.4119146e-38
0.0013500198 0.0095234681 0.78500003 1.4027579e-38
0.0040501622 0.0095234681 0.78500003 1.3658797e-38
0.0067674508 0.0095477309 0.787 1.6140632e-38
0.0094864592 0.0095598623 0.78799999 1.7339175e-38
-0.025748968 0.0068284618 0.78799999 1.7796956e-38
-0.023009323 0.0068197967 0.787 1.9456477e-38
-0.020302353 0.0068197967 0.787 1.7441012e-38
-0.017550642 0.0068024658 0.78500003 1.7533208e-38
-0.014850551 0.0068024658 0.78500003 1.7072944e-38
-0.012150461 0.0068024658 0.78500003 1.6335379e-38
-0.009426266 0.0067851343 0.78299999 1.5689274e-38
-0.0067330543 0.0067851343 0.78299999 1.3476579e-38
-0.0040398431 0.0067851343 0.78299999 1.8628149e-38
-0.0013466314 0.0067851343 0.78299999 1.4755932e-38
0.0013465802 0.0067851343 0.78299999 1.3379338e-38
0.0040501622 0.0068024658 0.78500003 1.2826165e-38
0.0067674508 0.0068197967 0.787 1.3009511e-38
0.0094744209 0.0068197967 0.787 1.725051e-38
0.012181391 0.0068197967 0.787 1.7793368e-38
-0.028423289 0.0040918626 0.787 1.8254725e-38
-0.025748968 0.0040970617 0.78799999 1.807603e-38
-0.023038559 0.0040970617 0.78799999 1.8629204e-38
-0.020302353 0.0040918626 0.787 1.7533213e-38
-0.017550642 0.0040814639 0.78500003 1.7441018e-38
-0.014850551 0.0040814639 0.78500003 1.7256621e-38
-0.012119504 0.0040710652 0.78299999 1.6334664e-38
-0.0094021894 0.0040606665 0.78100002 1.5320501e-38
-0.006715857 0.0040606665 0.78100002 1.4214154e-38
-0.0040295245 0.0040606665 0.78100002 6.2943188e-39
-0.0013431918 0.0040606665 0.78100002 6.386513e-39
0.0013431407 0.0040606665 0.78100002 1.1356498e-38
0.0040501622 0.0040814639 0.78500003 1.2923824e-38
0.006750253 0.0040814639 0.78500003 1.4659318e-38
0.0094503444 0.0040814639 0.78500003 1.7240796e-38
0.012150435 0.0040814639 0.78500003 1.834436e-38
-0.028423289 0.0013639672 0.787 1.7978132e-38
-0.025716294 0.0013639672 0.787 1.8078879e-38
-0.023009323 0.0013639672 0.787 1.8539857e-38
-0.020250758 0.0013605009 0.78500003 1.771832e-38
-0.017505927 0.0013570347 0.78299999 1.7626125e-38
-0.014812714 0.0013570347 0.78299999 1.6887108e-38
-0.012119504 0.0013570347 0.78299999 1.6241739e-38
-0.0094021894 0.0013535684 0.78100002 1.4860592e-38
-0.006715857 0.0013535684 0.78100002 1.3569853e-38
-0.0040295245 0.0013535684 0.78100002 1.3657779e-38
-0.0013431918 0.0013535684 0.78100002 1.3381192e-38
0.0013431407 0.0013535684 0.78100002 1.530758e-38
0.0040398431 0.0013570347 0.78299999 1.4477819e-38
0.006715857 0.0013535684 0.78100002 2.1257454e-38
0.0094021894 0.0013535684 0.78100002 2.2363801e-38
0.012073043 0.0013518352 0.77999997 2.023753e-38
0.0147181 0.0013483689 0.778 1.369174e-38
0.017394114 0.0013483689 0.778 1.0685248e-38
-0.025716294 -0.0013639672 0.787 1.8633104e-38
-0.023009323 -0.0013639672 0.787 1.8448712e-38
-0.020147571 -0.0013535684 0.78100002 1.7533926e-38
-0.017461212 -0.0013535684 0.78100002 1.725734e-38
-0.014755961 -0.0013518352 0.77999997 1.6794912e-38
-0.012073068 -0.0013518352 0.77999997 1.5227587e-38
-0.0093901502 -0.0013518352 0.77999997 1.4397438e-38
-0.0067072571 -0.0013518352 0.77999997 1.3752068e-38
-0.0040243645 -0.0013518352 0.77999997 1.2000759e-38
-0.0013414719 -0.0013518352 0.77999997 1.4397846e-38
0.0013414208 -0.0013518352 0.77999997 2.2194892e-38
0.0040295245 -0.0013535684 0.78100002 2.0996349e-38
0.0067072571 -0.0013518352 0.77999997 2.1624503e-38
0.0093901502 -0.0013518352 0.77999997 1.6277156e-38
0.012073043 -0.0013518352 0.77999997 7.992558e-39
0.0147181 -0.0013483689 0.778 1.1864765e-38
0.017394114 -0.0013483689 0.778 1.4750559e-38
-0.028351057 -0.0040814639 0.78500003 1.8162514e-38
-0.025650941 -0.0040814639 0.78500003 1.8264299e-38
-0.02295085 -0.0040814639 0.78500003 1.8264299e-38
-0.020147571 -0.0040606665 0.78100002 1.7164404e-38
-0.017438853 -0.004055467 0.77999997 1.6426839e-38
-0.014755961 -0.004055467 0.77999997 1.5504544e-38
-0.012042113 -0.0040450683 0.778 1.4306e-38
-0.0093660736 -0.0040450683 0.778 1.3567677e-38
-0.0067072571 -0.004055467 0.77999997 1.2922308e-38
-0.0040243645 -0.004055467 0.77999997 1.6407811e-38
-0.0013414719 -0.004055467 0.77999997 1.4932681e-38
0.0013379814 -0.0040450683 0.778 1.7108307e-38
0.0040140459 -0.0040450683 0.778 1.259079e-38
0.0066900598 -0.0040450683 0.778 8.2680645e-39
0.0093660736 -0.0040450683 0.778 7.1631687e-39
0.012073043 -0.004055467 0.77999997 7.5362504e-39
0.014774854 -0.0040606665 0.78100002 2.1918757e-38
0.017505901 -0.0040710652 0.78299999 1.8713898e-38
-0.025520235 -0.0067678038 0.78100002 1.7159045e-38
-0.022833904 -0.0067678038 0.78100002 1.6974654e-38
-0.020121772 -0.0067591374 0.77999997 1.605876e-38
-0.017438853 -0.0067591374 0.77999997 1.5505586e-38
-0.014718127 -0.0067418064 0.778 1.504247e-38
-0.012042113 -0.0067418064 0.778 1.4304905e-38
-0.0093660736 -0.0067418064 0.778 1.2646099e-38
-0.0067072571 -0.0067591374 0.77999997 1.1631947e-38
-0.0040243645 -0.0067591374 0.77999997 1.3370716e-38
-0.0013414719 -0.0067591374 0.77999997 7.7468263e-39
0.0013379814 -0.0067418064 0.778 1.3519548e-38
0.0040140459 -0.0067418064 0.778 1.26898e-38
0.0066900598 -0.0067418064 0.778 1.1947224e-38
0.0093660736 -0.0067418064 0.778 1.1486253e-38
0.012073043 -0.0067591374 0.77999997 1.0020831e-38
0.014774854 -0.0067678038 0.78100002 1.2233512e-38
0.017505901 -0.0067851343 0.78299999 1.6127723e-38
-0.025520235 -0.0094749015 0.78100002 1.6787058e-38
-0.022833904 -0.0094749015 0.78100002 1.6141689e-38
-0.020121772 -0.0094627691 0.77999997 1.5319757e-38
-0.017438853 -0.0094627691 0.77999997 1.504317e-38
-0.014718127 -0.0094385063 0.778 1.4121923e-38
-0.012042113 -0.0094385063 0.778 1.3568749e-38
-0.0093660736 -0.0094385063 0.778 1.2370231e-38
-0.0067072571 -0.0094627691 0.77999997 1.1356079e-38
-0.0040243645 -0.0094627691 0.77999997 1.1260683e-38
-0.0013414719 -0.0094627691 0.77999997 8.2182273e-39
0.0013414208 -0.0094627691 0.77999997 1.1047523e-38
0.0040243645 -0.0094627691 0.77999997 1.0586552e-38
0.0067072571 -0.0094627691 0.77999997 1.2426132e-38
0.0094021894 -0.0094749015 0.78100002 1.3901241e-38
0.012088522 -0.0094749015 0.78100002 1.3816018e-38
0.014812689 -0.0094991652 0.78299999 1.4276996e-38
-0.025520235 -0.012182039 0.78100002 1.7153016e-38
-0.022833904 -0.012182039 0.78100002 1.5954472e-38
-0.020147571 -0.012182039 0.78100002 1.4398504e-38
-0.017461212 -0.012182039 0.78100002 1.4029722e-38
-0.01477488 -0.012182039 0.78100002 1.3385074e-38
-0.012088547 -0.012182039 0.78100002 1.2555313e-38
-0.0094021894 -0.012182039 0.78100002 1.1540818e-38
-0.0067072571 -0.01216644 0.77999997 1.1172036e-38
-0.0040243645 -0.01216644 0.77999997 1.0156467e-38
-0.0013414719 -0.01216644 0.77999997 9.2345106e-39
0.0013414208 -0.01216644 0.77999997 8.9561217e-39
0.0040295245 -0.012182039 0.78100002 8.4029479e-39
0.006715857 -0.012182039 0.78100002 3.3376463e-39
0.0094021894 -0.012182039 0.78100002 1.1635239e-38
-0.023097035 -0.015060714 0.79000002 1.7241627e-38
-0.017550642 -0.014965395 0.78500003 1.2740446e-38
-0.014850551 -0.014965395 0.78500003 1.2280166e-38
-0.012150461 -0.014965395 0.78500003 1.1542601e-38
-0.0094503444 -0.014965395 0.78500003 1.0895827e-38
-0.0067330543 -0.014927265 0.78299999 9.8816751e-39
-0.0040295245 -0.014889137 0.78100002 9.3263279e-39
-0.0013431918 -0.014889137 0.78100002 8.865354e-39
0.0013500198 -0.014965395 0.78500003 8.0356059e-39
0.0040501622 -0.014965395 0.78500003 6.9292752e-39
0.006750253 -0.014965395 0.78500003 1.1716748e-38
-0.028459404 -0.017753985 0.78799999 1.6703748e-38
-0.025814323 -0.017799048 0.79000002 1.7522808e-38
-0.023097035 -0.017799048 0.79000002 1.7430613e-38
-0.020379744 -0.017799048 0.79000002 1.5039245e-38
-0.017595356 -0.017731456 0.787 1.3656311e-38
-0.014888387 -0.017731456 0.787 1.2556067e-38
-0.012150461 -0.017686397 0.78500003 1.1910698e-38
-0.0094503444 -0.017686397 0.78500003 1.0435915e-38
-0.0067330543 -0.017641334 0.78299999 9.6983502e-39
-0.0040295245 -0.017596275 0.78100002 8.7731597e-39
-0.0013431918 -0.017596275 0.78100002 7.7590232e-39
0.0013500198 -0.017686397 0.78500003 5.826173e-39
0.0040501622 -0.017686397 0.78500003 4.627648e-39
0.0067674508 -0.017731456 0.787 1.7887019e-38
-0.031407151 -0.020641329 0.79400003 1.7348792e-38
-0.028459404 -0.020485347 0.78799999 1.7440988e-38
-0.025748968 -0.020485347 0.78799999 1.7349524e-38
-0.023038559 -0.020485347 0.78799999 1.6704155e-38
-0.020328149 -0.020485347 0.78799999 1.4491454e-38
-0.017595356 -0.020459352 0.787 1.4860236e-38
-0.014888387 -0.020459352 0.787 1.5318723e-38
-0.012181417 -0.020459352 0.787 1.412018e-38
-0.0094744209 -0.020459352 0.787 1.1818502e-38
-0.006750253 -0.02040736 0.78500003 1.0619959e-38
-0.0040398431 -0.020355364 0.78299999 9.8809759e-39
-0.0013466314 -0.020355364 0.78299999 8.1292589e-39
0.0013500198 -0.02040736 0.78500003 5.8243794e-39
0.0040501622 -0.02040736 0.78500003 6.7463216e-39
0.0067674508 -0.020459352 0.787 1.5676773e-38
0.0094744209 -0.020459352 0.787 1.7336294e-38
-0.036869273 -0.023393527 0.79400003 1.762791e-38
-0.034138199 -0.023393527 0.79400003 1.6705954e-38
-0.031407151 -0.023393527 0.79400003 1.6981092e-38
-0.028423289 -0.023187285 0.787 1.7073287e-38
-0.025716294 -0.023187285 0.787 1.7257323e-38
-0.02295085 -0.023128361 0.78500003 1.6980736e-38
-0.020250758 -0.023128361 0.78500003 1.6242795e-38
-0.017550642 -0.023128361 0.78500003 1.5413035e-38
-0.014850551 -0.023128361 0.78500003 1.4307015e-38
-0.012150461 -0.023128361 0.78500003 1.2370907e-38
-0.0094503444 -0.023128361 0.78500003 1.2095058e-38
-0.0067330543 -0.023069434 0.78299999 1.0527733e-38
-0.0040295245 -0.023010509 0.78100002 9.6068539e-39
-0.0013431918 -0.023010509 0.78100002 9.6990481e-39
0.0013431407 -0.023010509 0.78100002 8.7735325e-39
0.0040398431 -0.023069434 0.78299999 9.4189019e-39
0.0067330543 -0.023069434 0.78299999 1.0891874e-38
0.0094503444 -0.023128361 0.78500003 1.4026525e-38
0.012196869 -0.023216747 0.78799999 1.6322881e-38
0.014945115 -0.023275675 0.79000002 1.6599468e-38
-0.04211811 -0.026014008 0.79000002 1.8458014e-38
-0.03940082 -0.026014008 0.79000002 1.8181427e-38
-0.03668353 -0.026014008 0.79000002 1.771939e-38
-0.033966217 -0.026014008 0.79000002 1.7350607e-38
-0.031248927 -0.026014008 0.79000002 1.7719017e-38
-0.028206594 -0.025717646 0.78100002 1.7350234e-38
-0.025520235 -0.025717646 0.78100002 1.7349521e-38
-0.022833904 -0.025717646 0.78100002 1.7533912e-38
-0.020121772 -0.025684714 0.77999997 1.7257335e-38
-0.017438853 -0.025684714 0.77999997 1.7349531e-38
-0.014718127 -0.025618857 0.778 1.7071487e-38
-0.012042113 -0.025618857 0.778 1.6610509e-38
-0.0093901502 -0.025684714 0.77999997 1.4675122e-38
-0.0066900598 -0.025618857 0.778 1.3384383e-38
-0.0040140459 -0.025618857 0.778 1.2184346e-38
-0.0013380323 -0.025618857 0.778 1.0340462e-38
0.0013379814 -0.025618857 0.778 9.2355658e-39
0.0040243645 -0.025684714 0.77999997 9.9731196e-39
0.0067072571 -0.025684714 0.77999997 1.1351776e-38
0.0093901502 -0.025684714 0.77999997 1.2826906e-38
0.012088522 -0.025717646 0.78100002 1.3105319e-38
0.014945115 -0.026014008 0.79000002 1.4580449e-38
0.017662404 -0.026014008 0.79000002 1.6872844e-38
-0.044665135 -0.028643116 0.787 1.928205e-38
-0.041958164 -0.028643116 0.787 1.7536784e-38
-0.039251193 -0.028643116 0.787 1.7813371e-38
-0.036590658 -0.028679509 0.78799999 1.7443506e-38
-0.033837229 -0.028643116 0.787 1.7535702e-38
-0.03113026 -0.028643116 0.787 1.7994525e-38
-0.028206594 -0.028424744 0.78100002 1.7441351e-38
-0.025487557 -0.028388346 0.77999997 1.7441714e-38
-0.022746192 -0.028315555 0.778 1.6243171e-38
-0.020070178 -0.028315555 0.778 1.6335369e-38
-0.017304709 -0.028169975 0.77399999 1.7349521e-38
-0.014642454 -0.028169975 0.77399999 1.7440282e-38
-0.011980199 -0.028169975 0.77399999 1.6518326e-38
-0.0093179187 -0.028169975 0.77399999 1.6334653e-38
-0.0066556633 -0.028169975 0.77399999 1.5504892e-38
-0.0039934083 -0.028169975 0.77399999 1.4765895e-38
-0.0013311529 -0.028169975 0.77399999 1.3936135e-38
0.0013311022 -0.028169975 0.77399999 1.2737932e-38
0.0039934083 -0.028169975 0.77399999 1.1170606e-38
0.0066728615 -0.028242767 0.77600002 1.1169554e-38
0.0093660736 -0.028315555 0.778 1.1999315e-38
0.012073043 -0.028388346 0.77999997 1.264505e-38
0.014812689 -0.028497534 0.78299999 1.264505e-38
0.017617688 -0.028679509 0.78799999 1.5494562e-38
0.020379692 -0.028752301 0.79000002 1.6139932e-38
-0.044665135 -0.03137105 0.787 1.9743385e-38
-0.041958164 -0.03137105 0.787 1.8455869e-38
-0.039251193 -0.03137105 0.787 1.8455869e-38
-0.036451355 -0.031291328 0.78500003 1.8272544e-38
-0.033751238 -0.031291328 0.78500003 1.8364739e-38
-0.030892927 -0.03113188 0.78100002 1.8547359e-38
-0.028170476 -0.031092016 0.77999997 1.790199e-38
-0.025422206 -0.031012295 0.778 1.7810146e-38
-0.02268772 -0.030932572 0.77600002 1.7810146e-38
-0.01996699 -0.030852847 0.77399999 1.7347737e-38
-0.017304709 -0.030852847 0.77399999 1.5503825e-38
-0.014623537 -0.030812988 0.773 1.7163701e-38
-0.011964721 -0.030812988 0.773 1.6426136e-38
-0.0093179187 -0.030852847 0.77399999 1.5689637e-38
-0.0066470644 -0.030812988 0.773 1.4952072e-38
-0.0039882488 -0.030812988 0.773 1.4398192e-38
-0.0013294332 -0.030812988 0.773 1.3568431e-38
0.0013311022 -0.030852847 0.77399999 1.375281e-38
0.0039934083 -0.030852847 0.77399999 1.310744e-38
0.0066556633 -0.030852847 0.77399999 1.1908198e-38
0.0093419962 -0.030932572 0.77600002 1.1908198e-38
0.012042088 -0.031012295 0.778 1.2552125e-38
0.014755935 -0.031092016 0.77999997 1.2367734e-38
0.017505901 -0.031211603 0.78299999 1.3009523e-38
0.020328097 -0.03141091 0.78799999 1.5959783e-38
-0.047432322 -0.034142271 0.78799999 1.7991312e-38
-0.044721887 -0.034142271 0.78799999 1.8544485e-38
-0.042011477 -0.034142271 0.78799999 1.8455869e-38
-0.039251193 -0.034098946 0.787 1.8179282e-38
-0.036451355 -0.034012292 0.78500003 1.808672e-38
-0.033665247 -0.033925634 0.78299999 1.7533547e-38
-0.030892927 -0.03383898 0.78100002 1.7808341e-38
-0.028170476 -0.033795647 0.77999997 1.762395e-38
-0.025356853 -0.033622339 0.77600002 1.7349531e-38
-0.022629244 -0.033535682 0.77399999 1.5597814e-38
-0.019941194 -0.033492357 0.773 1.7440285e-38
-0.017282352 -0.033492357 0.773 1.4213438e-38
-0.014623537 -0.033492357 0.773 1.5872959e-38
-0.011964721 -0.033492357 0.773 1.5965155e-38
-0.0093058804 -0.033492357 0.773 1.4860242e-38
-0.0066470644 -0.033492357 0.773 1.4399264e-38
-0.0039882488 -0.033492357 0.773 1.3937204e-38
-0.0013294332 -0.033492357 0.773 1.3476226e-38
0.0013293825 -0.033492357 0.773 1.3567327e-38
0.0039882488 -0.033492357 0.773 1.2921957e-38
0.0066470644 -0.033492357 0.773 1.2369542e-38
0.0093179187 -0.033535682 0.77399999 1.0986607e-38
0.01201113 -0.033622339 0.77600002 1.2090071e-38
0.0147181 -0.033708993 0.778 1.1352506e-38
0.017438829 -0.033795647 0.77999997 9.878773e-39
0.020199113 -0.033925634 0.78299999 1.5133902e-38
-0.047432322 -0.036873672 0.78799999 1.7899129e-38
-0.044721887 -0.036873672 0.78799999 1.7991324e-38
-0.042011477 -0.036873672 0.78799999 1.8085288e-38
-0.039251193 -0.036826879 0.787 1.8177484e-38
-0.036451355 -0.036733292 0.78500003 1.7164404e-38
-0.03357926 -0.036546115 0.78100002 1.6795621e-38
-0.030853368 -0.036499318 0.77999997 1.7440308e-38
-0.028098246 -0.036405731 0.778 1.6241765e-38
-0.025291501 -0.036218554 0.77399999 1.7993095e-38
-0.022600008 -0.036171764 0.773 1.6517965e-38
-0.019941194 -0.036171764 0.773 1.5503798e-38
-0.017282352 -0.036171764 0.773 1.2461342e-38
-0.014623537 -0.036171764 0.773 1.458257e-38
-0.011933764 -0.036078177 0.77100003 1.4859157e-38
-0.0092818029 -0.036078177 0.77100003 1.4306346e-38
-0.0066470644 -0.036171764 0.773 1.3753173e-38
-0.0039779302 -0.036078177 0.77100003 1.3752457e-38
-0.0013259934 -0.036078177 0.77100003 1.28305e-38
0.0013293825 -0.036171764 0.773 1.2736846e-38
0.0039882488 -0.036171764 0.773 1.2275868e-38
0.0066470644 -0.036171764 0.773 1.0432673e-38
0.0093179187 -0.036218554 0.77399999 9.8794989e-39
0.01201113 -0.036312144 0.77600002 1.1076253e-38
0.0147181 -0.036405731 0.778 1.0891861e-38
0.017394114 -0.036405731 0.778 9.6951104e-39
0.020199113 -0.036639702 0.78299999 1.329074e-38
-0.044948906 -0.039806075 0.792 1.7160124e-38
-0.042011477 -0.039605033 0.78799999 1.6702717e-38
-0.039151445 -0.039454255 0.78500003 1.7255891e-38
-0.036358483 -0.039353732 0.78299999 1.7531398e-38
-0.033536259 -0.039202951 0.77999997 1.6793833e-38
-0.030853368 -0.039202951 0.77999997 1.6886775e-38
-0.028098246 -0.039102431 0.778 1.6333601e-38
-0.025258824 -0.038851131 0.773 1.633503e-38
-0.022600008 -0.038851131 0.773 1.48599e-38
-0.019889599 -0.038750611 0.77100003 1.6330717e-38
-0.017237637 -0.038750611 0.77100003 1.2089718e-38
-0.014585701 -0.038750611 0.77100003 1.3567716e-38
-0.011933764 -0.038750611 0.77100003 1.4028695e-38
-0.0092818029 -0.038750611 0.77100003 1.3936838e-38
-0.0066470644 -0.038851131 0.773 1.3199273e-38
-0.0039779302 -0.038750611 0.77100003 1.2921617e-38
-0.0013259934 -0.038750611 0.77100003 1.1907465e-38
0.001325943 -0.038750611 0.77100003 1.1814174e-38
0.0039779302 -0.038750611 0.77100003 1.1261e-38
0.0066470644 -0.038851131 0.773 1.0800408e-38
0.0093058804 -0.038851131 0.773 1.0431626e-38
0.011980173 -0.038901389 0.77399999 1.0523442e-38
0.014680265 -0.039001912 0.77600002 1.0431246e-38
0.017394114 -0.039102431 0.778 8.9568307e-39
0.020199113 -0.039353732 0.78299999 1.2921225e-38
-0.044948906 -0.042551339 0.792 1.7433847e-38
-0.041851539 -0.042175259 0.78500003 1.6518328e-38
-0.039151445 -0.042175259 0.78500003 1.7071502e-38
-0.036265619 -0.041960351 0.78100002 1.578183e-38
-0.033536259 -0.041906621 0.77999997 1.5597438e-38
-0.030853368 -0.041906621 0.77999997 1.7346658e-38
-0.028098246 -0.041799169 0.778 1.5687137e-38
-0.025258824 -0.041530538 0.773 1.6147748e-38
-0.022600008 -0.041530538 0.773 1.4764813e-38
-0.019889599 -0.041423086 0.77100003 1.3752836e-38
-0.017237637 -0.041423086 0.77100003 1.0618185e-38
-0.014585701 -0.041423086 0.77100003 1.3107453e-38
-0.011933764 -0.041423086 0.77100003 1.3199649e-38
-0.0092818029 -0.041423086 0.77100003 1.2831197e-38
-0.0066298665 -0.041423086 0.77100003 1.255461e-38
-0.0039779302 -0.041423086 0.77100003 1.2092572e-38
-0.0013259934 -0.041423086 0.77100003 1.1355007e-38
0.001325943 -0.041423086 0.77100003 1.1077002e-38
0.0039779302 -0.041423086 0.77100003 1.0431633e-38
0.0066470644 -0.041530538 0.773 1.0524533e-38
0.0093058804 -0.041530538 0.773 1.0063555e-38
0.011980173 -0.041584261 0.77399999 9.9709967e-39
0.014680265 -0.041691717 0.77600002 9.6022142e-39
0.017394114 -0.041799169 0.778 8.0348884e-39
0.020199113 -0.042067803 0.78299999 1.3105626e-38
-0.041851539 -0.044896223 0.78500003 1.6609456e-38
-0.039051697 -0.044781834 0.78299999 1.6425065e-38
-0.036265619 -0.044667449 0.78100002 1.614956e-38
-0.033536259 -0.044610251 0.77999997 1.5319799e-38
-0.03077426 -0.044495869 0.778 1.5597075e-38
-0.028026015 -0.044381484 0.77600002 1.5597075e-38
-0.025258824 -0.044209909 0.773 1.4029384e-38
-0.022600008 -0.044209909 0.773 1.5504514e-38
-0.019941194 -0.044209909 0.773 1.3016327e-38
-0.017237637 -0.044095524 0.77100003 1.1541196e-38
-0.014585701 -0.044095524 0.77100003 1.3199636e-38
-0.011933764 -0.044095524 0.77100003 1.3199636e-38
-0.0092818029 -0.044095524 0.77100003 1.2922699e-38
-0.0066298665 -0.044095524 0.77100003 1.2369525e-38
-0.0039779302 -0.044095524 0.77100003 1.1724862e-38
-0.0013259934 -0.044095524 0.77100003 1.1356079e-38
0.001325943 -0.044095524 0.77100003 1.0710018e-38
0.0039779302 -0.044095524 0.77100003 1.0341235e-38
0.0066470644 -0.044209909 0.773 1.0708562e-38
0.0093179187 -0.044267096 0.77399999 1.0247584e-38
0.01201113 -0.044381484 0.77600002 9.5100297e-39
0.0147181 -0.044495869 0.778 9.1412472e-39
0.017438829 -0.044610251 0.77999997 5.2773349e-39
0.020250708 -0.044896223 0.78500003 1.4496898e-38
-0.039051697 -0.047495902 0.78299999 1.5871175e-38
-0.036265619 -0.047374588 0.78100002 1.5870828e-38
-0.033536259 -0.047313921 0.77999997 1.5409849e-38
-0.03077426 -0.047192607 0.778 1.5134302e-38
-0.028026015 -0.047071289 0.77600002 1.4857715e-38
-0.025258824 -0.046889313 0.773 1.5317994e-38
-0.022600008 -0.046889313 0.773 1.4027255e-38
-0.019941194 -0.046889313 0.773 1.2368033e-38
-0.017237637 -0.046767998 0.77100003 1.3658771e-38
-0.014585701 -0.046767998 0.77100003 1.2923781e-38
-0.011933764 -0.046767998 0.77100003 1.3015976e-38
-0.0092818029 -0.046767998 0.77100003 1.2554644e-38
-0.0066298665 -0.046767998 0.77100003 1.1817078e-38
-0.0039882488 -0.046889313 0.773 1.2091846e-38
-0.0013294332 -0.046889313 0.773 1.1446477e-38
0.0013293825 -0.046889313 0.773 1.1353226e-38
0.0039882488 -0.046889313 0.773 1.0615661e-38
0.0066556633 -0.046949971 0.77399999 1.0799325e-38
0.0093179187 -0.046949971 0.77399999 1.0522738e-38
0.01201113 -0.047071289 0.77600002 9.601875e-39
0.0147181 -0.047192607 0.778 8.9565056e-39
0.017461188 -0.047374588 0.78100002 9.7827729e-39
0.020250708 -0.047617223 0.78500003 2.0200879e-38
-0.039251193 -0.050466474 0.787 1.4394243e-38
-0.036358483 -0.050209973 0.78299999 1.3843605e-38
-0.03357926 -0.050081722 0.78100002 1.375141e-38
-0.030853368 -0.050017592 0.77999997 1.384325e-38
-0.028098246 -0.049889345 0.778 1.3658858e-38
-0.025291501 -0.049632844 0.77399999 1.3289703e-38
-0.022629244 -0.049632844 0.77399999 1.1537986e-38
-0.01996699 -0.049632844 0.77399999 1.2092251e-38
-0.017282352 -0.04956872 0.773 1.2829817e-38
-0.014623537 -0.04956872 0.773 1.2829438e-38
-0.011964721 -0.04956872 0.773 1.2552851e-38
-0.0093058804 -0.04956872 0.773 1.2459226e-38
-0.0066470644 -0.04956872 0.773 1.1813857e-38
-0.0039882488 -0.04956872 0.773 1.1169191e-38
-0.0013311529 -0.049632844 0.77399999 1.0708213e-38
0.0013311022 -0.049632844 0.77399999 1.070643e-38
0.0039934083 -0.049632844 0.77399999 1.070643e-38
0.0066556633 -0.049632844 0.77399999 1.042913e-38
0.0093179187 -0.049632844 0.77399999 9.8759564e-39
0.01201113 -0.049761094 0.77600002 9.1383914e-39
0.014755935 -0.050017592 0.77999997 7.3866744e-39
0.017505901 -0.050209973 0.78299999 1.5124371e-38
0.020199113 -0.050209973 0.78299999 1.6599501e-38
-0.039251193 -0.05319437 0.787 1.3372923e-38
-0.036451355 -0.053059187 0.78500003 1.0524133e-38
-0.03357926 -0.05278882 0.78100002 9.049025e-39
-0.030853368 -0.052721225 0.77999997 6.2885791e-39
-0.028170476 -0.052721225 0.77999997 6.8417445e-39
-0.025356853 -0.052450862 0.77600002 6.4744025e-39
-0.022629244 -0.052315678 0.77399999 7.4885418e-39
-0.01996699 -0.052315678 0.77399999 8.0381745e-39
-0.017282352 -0.052248091 0.773 7.5771963e-39
-0.014623537 -0.052248091 0.773 7.8537706e-39
-0.011980199 -0.052315678 0.77399999 7.3927925e-39
-0.0093058804 -0.052248091 0.773 6.3807789e-39
-0.0066470644 -0.052248091 0.773 5.7354137e-39
-0.0040037273 -0.052450862 0.77600002 4.5393999e-39
-0.0013311529 -0.052315678 0.77399999 3.2486807e-39
0.0013311022 -0.052315678 0.77399999 2.0512319e-39
0.0039934083 -0.052315678 0.77399999 9.4490116e-40
0.0066556633 -0.052315678 0.77399999 5.7361312e-40
0.0093179187 -0.052315678 0.77399999 1.0345843e-39
0.012042088 -0.052586045 0.778 4.1641658e-39
0.014755935 -0.052721225 0.77999997 6.6534324e-39
0.017505901 -0.052924003 0.78299999 1.5121814e-38
0.020199113 -0.052924003 0.78299999 1.7057922e-38
-0.033364285 -0.055140667 0.77600002 1.9548659e-38
-0.030695148 -0.055140667 0.77600002 1.8996201e-38
-0.028026015 -0.055140667 0.77600002 1.8074245e-38
-0.025487557 -0.055424895 0.77999997 1.7337407e-38
-0.017304709 -0.054998551 0.77399999 1.5954827e-38
-0.014642454 -0.054998551 0.77399999 1.5402364e-38
-0.011980199 -0.054998551 0.77399999 1.5402364e-38
-0.0066728615 -0.055140667 0.77600002 1.5494565e-38
-0.0040037273 -0.055140667 0.77600002 1.5861557e-38
-0.0013294332 -0.054927498 0.773 1.6322535e-38
0.0013293825 -0.054927498 0.773 1.6967924e-38
0.0039934083 -0.054998551 0.77399999 1.7797684e-38
0.012150435 -0.055780191 0.78500003 1.9549045e-38
0.014850526 -0.055780191 0.78500003 1.9917828e-38
