# .PCD v0.7 - Point Cloud Data file format
VERSION 0.7
FIELDS x y z rgb
SIZE 4 4 4 4
TYPE F F F F
COUNT 1 1 1 1
WIDTH 742
HEIGHT 1
VIEWPOINT 0 0 0 1 0 0 0
POINTS 742
DATA ascii
0.016518764 0.0088128699 0.565 1.7517831e-38
0.01846214 0.0088128699 0.565 1.7978809e-38
0.014575349 0.0068544699 0.565 1.8730648e-38
0.016518764 0.0068544699 0.565 1.780479e-38
0.01846214 0.0068544699 0.565 1.6606247e-38
0.020405518 0.0068544699 0.565 1.7611123e-38
0.0067898012 0.0048873764 0.56400001 1.9370694e-38
0.0087297391 0.0048873764 0.56400001 1.8729932e-38
0.010631841 0.004870045 0.56199998 1.8545541e-38
0.012542542 0.0048613795 0.56099999 1.8176388e-38
0.014472161 0.0048613795 0.56099999 1.771541e-38
0.016401816 0.0048613795 0.56099999 1.7255152e-38
0.018331436 0.0048613795 0.56099999 1.6978565e-38
0.020333288 0.004878711 0.56300002 1.7248752e-38
0.022348896 0.0048960419 0.565 1.6695579e-38
0.024292273 0.0048960419 0.565 1.7517861e-38
0.00095963193 0.0029012191 0.55800003 1.7337036e-38
0.004832665 0.002922016 0.56199998 1.7900911e-38
0.0067657232 0.002922016 0.56199998 1.7808715e-38
0.0086678267 0.0029116175 0.56 1.744172e-38
0.010556171 0.0029012191 0.55800003 1.7165133e-38
0.012475471 0.0029012191 0.55800003 1.6980013e-38
0.014394771 0.0029012191 0.55800003 1.661123e-38
0.016343344 0.0029064182 0.55900002 1.6793441e-38
0.018266084 0.0029064182 0.55900002 1.6701245e-38
0.020261055 0.0029168166 0.56099999 1.6330325e-38
0.022269787 0.0029272155 0.56300002 1.6330325e-38
0.02424928 0.0029324149 0.56400001 1.7427094e-38
0.0028789688 0.00096708216 0.55800003 1.7894488e-38
0.0048068678 0.00096881529 0.55900002 1.7071502e-38
0.0067296079 0.00096881529 0.55900002 1.7071502e-38
0.0086368704 0.00096708216 0.55800003 1.7071499e-38
0.010537251 0.00096534897 0.55699998 1.6241739e-38
0.012453112 0.00096534897 0.55699998 1.6516861e-38
0.014394771 0.00096708216 0.55800003 1.6148079e-38
0.01628487 0.00096534897 0.55699998 1.5411953e-38
0.018200729 0.00096534897 0.55699998 1.5319757e-38
0.020188823 0.00096881529 0.55900002 1.476587e-38
0.022190675 0.0009722815 0.56099999 1.4304892e-38
0.024163287 0.00097401458 0.56199998 1.6048074e-38
0.026142783 0.00097574777 0.56300002 1.7154421e-38
0.00096307148 -0.00097054837 0.56 1.725232e-38
0.0047982694 -0.00096708216 0.55800003 1.6794196e-38
0.00670553 -0.00096534897 0.55699998 1.6517609e-38
0.0086213909 -0.00096534897 0.55699998 1.651759e-38
0.010518334 -0.00096361584 0.55599999 1.5687829e-38
0.012430754 -0.00096361584 0.55599999 1.5226858e-38
0.014343176 -0.00096361584 0.55599999 1.5134662e-38
0.016255634 -0.00096361584 0.55599999 1.4582561e-38
0.018200729 -0.00096534897 0.55699998 1.4213778e-38
0.02011659 -0.00096534897 0.55699998 1.3843914e-38
0.02207201 -0.00096708216 0.55800003 1.4028305e-38
0.024034303 -0.00096881529 0.55900002 1.3381159e-38
0.026049912 -0.0009722815 0.56099999 1.651581e-38
0.027979568 -0.0009722815 0.56099999 1.7516431e-38
0.0028892877 -0.0029116175 0.56 1.6149557e-38
0.0047982694 -0.0029012191 0.55800003 1.6149549e-38
0.0066814534 -0.0028856208 0.55500001 1.5596375e-38
0.0085904347 -0.0028856208 0.55500001 1.5319054e-38
0.010499417 -0.0028856208 0.55500001 1.4858076e-38
0.01238604 -0.0028804217 0.55400002 1.4489286e-38
0.014291582 -0.0028804217 0.55400002 1.4028308e-38
0.01619716 -0.0028804217 0.55400002 1.3936472e-38
0.018102702 -0.0028804217 0.55400002 1.3383299e-38
0.020080475 -0.0028908201 0.55599999 1.3014166e-38
0.021992896 -0.0028908201 0.55599999 1.3106361e-38
0.023948312 -0.0028960195 0.55699998 1.2090755e-38
0.02591061 -0.0029012191 0.55800003 1.5409798e-38
0.027929695 -0.0029116175 0.56 1.7702255e-38
0.029909188 -0.0029168166 0.56099999 1.7149081e-38
0.00096307148 -0.004852714 0.56 1.5965171e-38
0.0028841281 -0.004844049 0.55900002 1.5411998e-38
0.0047810706 -0.0048180521 0.55599999 1.5503448e-38
0.0066814534 -0.0048093866 0.55500001 1.5134665e-38
0.0085749561 -0.0048007211 0.55400002 1.458221e-38
0.010480498 -0.0048007211 0.55400002 1.4213428e-38
0.012363683 -0.0047920551 0.55299997 1.3384005e-38
0.014265784 -0.0047920551 0.55299997 1.3291809e-38
0.016167922 -0.0047920551 0.55299997 1.3106364e-38
0.018070025 -0.0047920551 0.55299997 1.2460995e-38
0.02004436 -0.0048093866 0.55500001 1.2643581e-38
0.021992896 -0.0048180521 0.55599999 1.2366994e-38
0.023905318 -0.0048180521 0.55599999 1.2182616e-38
0.025864171 -0.0048267171 0.55699998 1.2551398e-38
0.027929695 -0.004852714 0.56 1.7610056e-38
0.029909188 -0.0048613795 0.56099999 1.7425665e-38
-0.00096310809 -0.0067937835 0.56 1.6605143e-38
0.00096135167 -0.0067816516 0.55900002 1.5320148e-38
0.0028738091 -0.0067573879 0.55699998 1.5412344e-38
0.0047724722 -0.0067331246 0.55500001 1.485917e-38
0.0066694147 -0.0067209932 0.55400002 1.4398192e-38
0.0085749561 -0.0067209932 0.55400002 1.4029037e-38
0.01046158 -0.0067088609 0.55299997 1.310708e-38
0.012341325 -0.0066967295 0.55199999 1.264644e-38
0.014239988 -0.0066967295 0.55199999 1.2738635e-38
0.016138688 -0.0066967295 0.55199999 1.2091846e-38
0.018037349 -0.0066967295 0.55199999 1.1723064e-38
0.019972127 -0.0067088609 0.55299997 1.2091496e-38
0.021953342 -0.0067331246 0.55500001 1.1814909e-38
0.023905318 -0.006745256 0.55599999 1.2090417e-38
0.025864171 -0.0067573879 0.55699998 1.1260656e-38
0.027879819 -0.0067816516 0.55900002 1.632361e-38
0.029855875 -0.0067937835 0.56 1.6692392e-38
-0.0028841281 -0.0087192822 0.55900002 1.5687137e-38
-0.00096138823 -0.0087192822 0.55900002 1.5594941e-38
0.00095963193 -0.0087036844 0.55800003 1.5043198e-38
0.0028686498 -0.0086724879 0.55599999 1.4951003e-38
0.0047724722 -0.0086568901 0.55500001 1.4674779e-38
0.0066694147 -0.0086412923 0.55400002 1.3845018e-38
0.0085594775 -0.0086256936 0.55299997 1.3199288e-38
0.010442663 -0.0086100958 0.55199999 1.2369528e-38
0.012318968 -0.008594498 0.551 1.20922e-38
0.014214191 -0.008594498 0.551 1.1815613e-38
0.01610945 -0.008594498 0.551 1.1170966e-38
0.018037349 -0.0086100958 0.55199999 1.1355358e-38
0.019972127 -0.0086256936 0.55299997 1.1446477e-38
0.021913785 -0.0086412923 0.55400002 1.1446477e-38
0.023862323 -0.0086568901 0.55500001 1.1721991e-38
0.025817739 -0.0086724879 0.55599999 1.1353208e-38
0.027829947 -0.0087036844 0.55800003 1.4298495e-38
0.029802559 -0.0087192822 0.55900002 1.6695581e-38
0.031725299 -0.0087192822 0.55900002 1.7332387e-38
-0.0028841281 -0.010656885 0.55900002 1.5319436e-38
-0.00096138823 -0.010656885 0.55900002 1.5227241e-38
0.00095963193 -0.010637822 0.55800003 1.4675498e-38
0.0028634905 -0.010580628 0.55500001 1.4583302e-38
0.0047724722 -0.010580628 0.55500001 1.4029765e-38
0.0066694147 -0.010561564 0.55400002 1.32922e-38
0.0085594775 -0.0105425 0.55299997 1.2370241e-38
0.010442663 -0.010523436 0.55199999 1.1448285e-38
0.012318968 -0.010504371 0.551 1.1445751e-38
0.014214191 -0.010504371 0.551 1.1076969e-38
0.01610945 -0.010504371 0.551 1.0985514e-38
0.018004673 -0.010504371 0.551 1.0432341e-38
0.019972127 -0.0105425 0.55299997 1.1076969e-38
0.021913785 -0.010561564 0.55400002 1.126136e-38
0.023862323 -0.010580628 0.55500001 1.1262086e-38
0.025817739 -0.010599692 0.55599999 1.1354281e-38
0.027730197 -0.010599692 0.55599999 1.1997143e-38
0.029802559 -0.010656885 0.55900002 1.605375e-38
0.031725299 -0.010656885 0.55900002 1.724092e-38
-0.0028841281 -0.012594515 0.55900002 1.5135394e-38
-0.00095966842 -0.012571986 0.55800003 1.4858807e-38
0.00095791207 -0.012549454 0.55699998 1.4582939e-38
0.0028634905 -0.012504394 0.55500001 1.4121961e-38
0.0047724722 -0.012504394 0.55500001 1.3476586e-38
0.0066694147 -0.012481864 0.55400002 1.2646825e-38
0.0085439999 -0.012436802 0.55199999 1.1909613e-38
0.010423744 -0.012414272 0.551 1.0895461e-38
0.012318968 -0.012414272 0.551 1.0709272e-38
0.014214191 -0.012414272 0.551 1.0248294e-38
0.01610945 -0.012414272 0.551 1.0247944e-38
0.018004673 -0.012414272 0.551 9.9713568e-39
0.019936012 -0.012436802 0.55199999 1.0157546e-38
0.021874228 -0.012459333 0.55299997 1.0341937e-38
0.023776332 -0.012459333 0.55299997 1.0801123e-38
0.025817739 -0.012526924 0.55599999 1.0985514e-38
0.027730197 -0.012526924 0.55599999 1.0893268e-38
0.029802559 -0.012594515 0.55900002 1.4488898e-38
0.031725299 -0.012594515 0.55900002 1.7425315e-38
-0.0028789688 -0.014506122 0.55800003 1.4859523e-38
-0.00095966842 -0.014506122 0.55800003 1.4398545e-38
0.00095791207 -0.014480124 0.55699998 1.4213072e-38
0.0028686498 -0.014454128 0.55599999 1.3659898e-38
0.0047724722 -0.014428132 0.55500001 1.2923036e-38
0.0066814534 -0.014428132 0.55500001 1.1816689e-38
0.0085439999 -0.014350142 0.55199999 1.153902e-38
0.010423744 -0.014324145 0.551 1.1078042e-38
0.012318968 -0.014324145 0.551 1.0249726e-38
0.014214191 -0.014324145 0.551 1.0157531e-38
0.01610945 -0.014324145 0.551 9.511801e-39
0.018004673 -0.014324145 0.551 9.6039966e-39
0.019936012 -0.014350142 0.55199999 9.4192396e-39
0.021874228 -0.014376138 0.55299997 9.6958265e-39
0.023776332 -0.014376138 0.55299997 1.0156104e-38
0.025678433 -0.014376138 0.55299997 1.0617082e-38
0.027680323 -0.014428132 0.55500001 1.0064955e-38
0.029802559 -0.014532119 0.55900002 1.1908859e-38
0.031782053 -0.014558115 0.56 1.7608977e-38
-0.0028789688 -0.016440287 0.55800003 1.4766962e-38
-0.00095966842 -0.016440287 0.55800003 1.4121592e-38
0.00095791207 -0.016410822 0.55699998 1.3568065e-38
0.0028686498 -0.016381361 0.55599999 1.3014892e-38
0.0047724722 -0.016351897 0.55500001 1.2095089e-38
0.0066814534 -0.016351897 0.55500001 1.1173133e-38
0.0085594775 -0.016292971 0.55299997 1.0803266e-38
0.010423744 -0.016234046 0.551 1.0342288e-38
0.012318968 -0.016234046 0.551 9.7905361e-39
0.014188394 -0.016204583 0.55000001 9.6983404e-39
0.016080214 -0.016204583 0.55000001 8.9604195e-39
0.018004673 -0.016234046 0.551 8.7760296e-39
0.019899895 -0.016234046 0.551 9.1430129e-39
0.021834675 -0.016263509 0.55199999 9.1430129e-39
0.023776332 -0.016292971 0.55299997 9.2337792e-39
0.025678433 -0.016292971 0.55299997 1.0247931e-38
0.027680323 -0.016351897 0.55500001 9.9735176e-39
0.029855875 -0.016499212 0.56 9.9735176e-39
0.031782053 -0.016499212 0.56 1.7149807e-38
-0.0028841281 -0.01840738 0.55900002 1.3936841e-38
-0.00095966842 -0.018374451 0.55800003 1.3844645e-38
0.00095963193 -0.018374451 0.55800003 1.2646842e-38
0.0028686498 -0.018308591 0.55599999 1.2278059e-38
0.0047810706 -0.018308591 0.55599999 1.1725585e-38
0.0066934917 -0.018308591 0.55599999 1.0895824e-38
0.0084975651 -0.018078089 0.54900002 1.0803268e-38
0.010385909 -0.018078089 0.54900002 1.0250095e-38
0.012318968 -0.018143946 0.551 9.6979719e-39
0.014188394 -0.018111017 0.55000001 9.5135834e-39
0.016080214 -0.018111017 0.55000001 9.511801e-39
0.018004673 -0.018143946 0.551 8.9586272e-39
0.019899895 -0.018143946 0.551 8.7753121e-39
0.021834675 -0.018176876 0.55199999 8.4987295e-39
0.023776332 -0.018209804 0.55299997 8.6809739e-39
0.025678433 -0.018209804 0.55299997 9.1419521e-39
0.027680323 -0.018275663 0.55500001 8.9579209e-39
-0.00096138823 -0.020344982 0.55900002 1.2646479e-38
0.00095963193 -0.020308588 0.55800003 1.2185484e-38
0.0028738091 -0.02027219 0.55699998 1.2093288e-38
0.0047896695 -0.02027219 0.55699998 1.1080569e-38
0.00670553 -0.02027219 0.55699998 1.1080569e-38
0.0084975651 -0.01998103 0.54900002 1.0251511e-38
0.010385909 -0.01998103 0.54900002 1.006712e-38
0.012318968 -0.020053819 0.551 9.237728e-39
0.014214191 -0.020053819 0.551 9.0533368e-39
0.01610945 -0.020053819 0.551 8.5923586e-39
0.018004673 -0.020053819 0.551 8.6845528e-39
0.019899895 -0.020053819 0.551 8.4987295e-39
0.021795118 -0.020053819 0.551 8.314341e-39
0.023776332 -0.020126611 0.55299997 7.9434117e-39
0.025678433 -0.020126611 0.55299997 8.1278001e-39
0.027680323 -0.020199401 0.55500001 7.4820818e-39
-0.00096310809 -0.022322474 0.56 1.2185867e-38
0.00096135167 -0.022282613 0.55900002 1.2186569e-38
0.0028686498 -0.022163028 0.55599999 1.1356808e-38
0.0047724722 -0.022123167 0.55500001 1.0712858e-38
0.0066814534 -0.022123167 0.55500001 1.0159684e-38
0.0085904347 -0.022123167 0.55500001 9.6075713e-39
0.010423744 -0.021963719 0.551 9.2387944e-39
0.012318968 -0.021963719 0.551 8.9625705e-39
0.014214191 -0.021963719 0.551 8.6859878e-39
0.01610945 -0.021963719 0.551 8.5923586e-39
0.018004673 -0.021963719 0.551 8.3157759e-39
0.019899895 -0.021963719 0.551 8.4976533e-39
0.021795118 -0.021963719 0.551 7.9444879e-39
0.023776332 -0.022043442 0.55299997 7.9437704e-39
0.025724869 -0.022083305 0.55400002 7.4827993e-39
0.027680323 -0.022123167 0.55500001 3.6192513e-39
0.029855875 -0.022322474 0.56 1.182465e-38
0.031782053 -0.022322474 0.56 1.6320043e-38
-0.00096482789 -0.024306871 0.56099999 1.2918409e-38
0.00095963193 -0.02417689 0.55800003 1.1081635e-38
0.0028686498 -0.024090232 0.55599999 1.0620657e-38
0.0047724722 -0.024046905 0.55500001 1.0160738e-38
0.0066814534 -0.024046905 0.55500001 9.5153771e-39
0.0086059133 -0.024090232 0.55599999 9.3306299e-39
0.010518334 -0.024090232 0.55599999 8.8696588e-39
0.014214191 -0.023873594 0.551 8.3161347e-39
0.01610945 -0.023873594 0.551 7.9462815e-39
0.018037349 -0.023916923 0.55199999 7.9462815e-39
0.019936012 -0.023916923 0.55199999 7.8526524e-39
0.021834675 -0.023916923 0.55199999 7.8526524e-39
0.023862323 -0.024046905 0.55500001 7.5764284e-39
0.025771305 -0.024046905 0.55500001 5.3637669e-39
0.027680323 -0.024046905 0.55500001 8.0343181e-39
0.029642617 -0.024090232 0.55599999 1.4672403e-38
0.031555038 -0.024090232 0.55599999 1.6504427e-38
0.00095963193 -0.026111053 0.55800003 1.0621386e-38
0.0028738091 -0.026064256 0.55699998 1.0160407e-38
0.0047810706 -0.026017463 0.55599999 9.7912423e-39
0.0066934917 -0.026017463 0.55599999 9.3302712e-39
0.0086059133 -0.026017463 0.55599999 8.501958e-39
0.010518334 -0.026017463 0.55599999 8.0409869e-39
0.012430754 -0.026017463 0.55599999 7.9477165e-39
0.014317379 -0.025970669 0.55500001 7.6711338e-39
0.016167922 -0.025877083 0.55299997 7.3949098e-39
0.018070025 -0.025877083 0.55299997 7.0261329e-39
0.019972127 -0.025877083 0.55299997 7.3009219e-39
0.021874228 -0.025877083 0.55299997 7.2087277e-39
0.023862323 -0.025970669 0.55500001 6.5637268e-39
0.025771305 -0.025970669 0.55500001 5.826173e-39
0.027680323 -0.025970669 0.55500001 1.5676867e-38
0.029642617 -0.026017463 0.55599999 1.5861258e-38
0.031555038 -0.026017463 0.55599999 1.6411516e-38
0.0028789688 -0.02804519 0.55800003 9.700511e-39
0.0047896695 -0.027994927 0.55699998 9.5146877e-39
0.00670553 -0.027994927 0.55699998 8.684927e-39
0.0086213909 -0.027994927 0.55699998 7.8569572e-39
0.010518334 -0.027944667 0.55599999 7.6725687e-39
0.012430754 -0.027944667 0.55599999 6.9353736e-39
0.014317379 -0.027894408 0.55500001 6.290014e-39
0.016226398 -0.027894408 0.55500001 6.1967436e-39
0.018135378 -0.027894408 0.55500001 5.7357725e-39
0.02004436 -0.027894408 0.55500001 6.1045494e-39
0.021992896 -0.027944667 0.55599999 6.4733263e-39
0.023862323 -0.027894408 0.55500001 4.0798637e-39
0.025771305 -0.027894408 0.55500001 1.2838449e-38
0.0028789688 -0.029979356 0.55800003 1.0896214e-38
0.0047982694 -0.029979356 0.55800003 1.0343759e-38
0.00670553 -0.029925626 0.55699998 9.0530201e-39
0.0086213909 -0.029925626 0.55699998 9.0533298e-39
0.010537251 -0.029925626 0.55699998 8.2235817e-39
0.012453112 -0.029925626 0.55699998 5.9248244e-39
0.014368972 -0.029925626 0.55699998 6.2936013e-39
0.018200729 -0.029925626 0.55699998 1.0803585e-38
0.02011659 -0.029925626 0.55699998 5.7361312e-39
0.0028841281 -0.031970683 0.55900002 1.2002512e-38
0.0048068678 -0.031970683 0.55900002 1.0988723e-38
0.0067175697 -0.031913493 0.55800003 9.4213976e-39
0.0086213909 -0.031856295 0.55699998 8.9636467e-39
0.010537251 -0.031856295 0.55699998 7.7651217e-39
0.012453112 -0.031856295 0.55699998 9.5193666e-39
0.014394771 -0.031913493 0.55800003 1.7448191e-38
0.018200729 -0.031856295 0.55699998 1.8452646e-38
0.02011659 -0.031856295 0.55699998 1.688459e-38
0.0028892877 -0.03396897 0.56 1.2370909e-38
0.0048068678 -0.033908315 0.55900002 1.1269982e-38
0.0063082548 -0.03178525 0.52399999 1.6064155e-38
0.008110608 -0.03178525 0.52399999 1.7991312e-38
0.0099318791 -0.031845909 0.52499998 1.5594225e-38
0.011760032 -0.031906571 0.52600002 1.6610933e-38
0.013569265 -0.031906571 0.52600002 1.5320194e-38
0.015349293 -0.031845909 0.52499998 1.4857282e-38
0.017155087 -0.031845909 0.52499998 1.4396304e-38
0.018996999 -0.031906571 0.52600002 1.467404e-38
0.020766672 -0.031845909 0.52499998 1.467404e-38
0.022572465 -0.031845909 0.52499998 1.5778282e-38
0.024424696 -0.031906571 0.52600002 1.6331455e-38
0.026283838 -0.03196723 0.52700001 1.6972509e-38
0.02809651 -0.03196723 0.52700001 1.5128596e-38
0.029909182 -0.03196723 0.52700001 1.5951587e-38
0.031721853 -0.03196723 0.52700001 1.6135978e-38
0.0048154672 -0.03591007 0.56 1.7162998e-38
0.0062962165 -0.03353744 0.523 1.6333238e-38
0.0080951303 -0.03353744 0.523 1.4676526e-38
0.0099129621 -0.033601563 0.52399999 1.7073612e-38
0.011737673 -0.033665687 0.52499998 1.679275e-38
0.013543465 -0.033665687 0.52499998 1.4026881e-38
0.015320057 -0.033601563 0.52399999 1.2647831e-38
0.01712241 -0.033601563 0.52399999 1.2740027e-38
0.01896088 -0.033665687 0.52499998 1.2647181e-38
0.020727118 -0.033601563 0.52399999 1.3384746e-38
0.022529472 -0.033601563 0.52399999 1.5503111e-38
0.024378259 -0.033665687 0.52499998 1.4673351e-38
0.026184086 -0.033665687 0.52499998 1.5225425e-38
0.028043197 -0.033729818 0.52600002 1.4948838e-38
0.029909182 -0.033793941 0.52700001 1.4485029e-38
0.031721853 -0.033793941 0.52700001 1.4946007e-38
0.033598162 -0.033858065 0.528 1.5768265e-38
0.0062962165 -0.035350259 0.523 1.3197456e-38
0.0080951303 -0.035350259 0.523 1.2648961e-38
0.0098940451 -0.035350259 0.523 1.5046047e-38
0.011715315 -0.035417847 0.52399999 1.4490706e-38
0.013491873 -0.035350259 0.523 1.2370206e-38
0.015290821 -0.035350259 0.523 1.2002134e-38
0.01712241 -0.035417847 0.52399999 1.2002134e-38
0.01896088 -0.035485439 0.52499998 1.2001096e-38
0.020727118 -0.035417847 0.52399999 1.2369878e-38
0.022529472 -0.035417847 0.52399999 1.3108497e-38
0.024331825 -0.035417847 0.52399999 1.1909954e-38
0.026134213 -0.035417847 0.52399999 1.1633333e-38
0.028043197 -0.035553034 0.52600002 1.3200658e-38
0.029909182 -0.035620626 0.52700001 1.4394935e-38
0.031721853 -0.035620626 0.52700001 1.4671522e-38
0.033534527 -0.035620626 0.52700001 1.5220792e-38
0.0026983882 -0.037163105 0.523 1.5503801e-38
0.0044973022 -0.037163105 0.523 1.3386516e-38
0.0062962165 -0.037163105 0.523 1.2095777e-38
0.0080951303 -0.037163105 0.523 1.3936502e-38
0.0098940451 -0.037163105 0.523 1.4674067e-38
0.011692959 -0.037163105 0.523 1.3201033e-38
0.013491873 -0.037163105 0.523 1.1264925e-38
0.015290821 -0.037163105 0.523 1.1722316e-38
0.017089736 -0.037163105 0.523 1.1537924e-38
0.01888865 -0.037163105 0.523 1.1354279e-38
0.020727118 -0.037234161 0.52399999 1.1723061e-38
0.022486478 -0.037163105 0.523 1.2461698e-38
0.024285393 -0.037163105 0.523 1.1724133e-38
0.026084341 -0.037163105 0.523 1.1079467e-38
0.027883254 -0.037163105 0.523 1.144825e-38
0.029795673 -0.037305217 0.52499998 1.3197811e-38
0.031721853 -0.037447337 0.52700001 1.6424659e-38
0.033534527 -0.037447337 0.52700001 1.5500237e-38
0.0026983882 -0.038975924 0.523 1.5503047e-38
0.0044973022 -0.038975924 0.523 1.2373456e-38
0.0062962165 -0.038975924 0.523 1.2373456e-38
0.0080951303 -0.038975924 0.523 1.4581868e-38
0.0098751262 -0.0389014 0.52200001 1.3475521e-38
0.011648244 -0.038826879 0.52100003 1.2462364e-38
0.013440279 -0.038826879 0.52100003 1.1263839e-38
0.015261584 -0.0389014 0.52200001 1.1355723e-38
0.017089736 -0.038975924 0.523 1.080255e-38
0.01888865 -0.038975924 0.523 1.0894733e-38
0.020687563 -0.038975924 0.523 1.1263515e-38
0.022486478 -0.038975924 0.523 1.1540102e-38
0.024285393 -0.038975924 0.523 1.1540102e-38
0.026084341 -0.038975924 0.523 1.0525572e-38
0.027883254 -0.038975924 0.523 1.0802159e-38
0.029795673 -0.039124969 0.52499998 1.1170591e-38
0.031721853 -0.039274022 0.52700001 1.3198895e-38
0.033534527 -0.039274022 0.52700001 1.596232e-38
0.035414275 -0.039348543 0.528 1.4763777e-38
0.0026983882 -0.04078877 0.523 1.3567337e-38
0.0044973022 -0.04078877 0.523 1.2094034e-38
0.0062962165 -0.04078877 0.523 1.3384773e-38
0.0080951303 -0.04078877 0.523 1.4213454e-38
0.0098751262 -0.040710781 0.52200001 1.2922716e-38
0.011625885 -0.040554799 0.51999998 1.1080168e-38
0.01341448 -0.040554799 0.51999998 1.1264556e-38
0.015203109 -0.040554799 0.51999998 1.1724862e-38
0.017024383 -0.040632792 0.52100003 1.1079492e-38
0.01888865 -0.04078877 0.523 1.0341196e-38
0.020687563 -0.04078877 0.523 1.0617783e-38
0.022486478 -0.04078877 0.523 1.0985846e-38
0.024285393 -0.04078877 0.523 1.1723411e-38
0.026084341 -0.04078877 0.523 1.0802906e-38
0.027883254 -0.04078877 0.523 1.0434123e-38
0.029682169 -0.04078877 0.523 1.1262086e-38
0.031601466 -0.040944748 0.52499998 1.1446477e-38
0.033534527 -0.041100729 0.52700001 1.3657044e-38
0.035414275 -0.041178718 0.528 1.5224369e-38
0.0026983882 -0.042601589 0.523 1.2645383e-38
0.0044973022 -0.042601589 0.523 1.2831969e-38
0.0062962165 -0.042601589 0.523 1.366173e-38
0.0080951303 -0.042601589 0.523 1.3016324e-38
0.0098751262 -0.042520136 0.52200001 1.1264607e-38
0.011625885 -0.042357221 0.51999998 1.1079499e-38
0.01341448 -0.042357221 0.51999998 1.190926e-38
0.015203109 -0.042357221 0.51999998 1.190926e-38
0.017024383 -0.042438678 0.52100003 1.1079499e-38
0.018852532 -0.042520136 0.52200001 1.043378e-38
0.020687563 -0.042601589 0.523 1.0249388e-38
0.022486478 -0.042601589 0.523 1.0801123e-38
0.024285393 -0.042601589 0.523 1.107771e-38
0.026084341 -0.042601589 0.523 1.1353556e-38
0.027883254 -0.042601589 0.523 1.0892577e-38
0.029682169 -0.042601589 0.523 1.1076616e-38
0.031601466 -0.0427645 0.52499998 1.1445398e-38
0.033534527 -0.042927414 0.52700001 1.190708e-38
0.035414275 -0.043008871 0.528 1.3290014e-38
0.037300896 -0.043090325 0.52899998 1.4765183e-38
0.044133712 -0.044475086 0.546 1.3932535e-38
0.046011735 -0.044475086 0.546 1.5121487e-38
-0.0045488966 -0.044923969 0.52899998 1.5043551e-38
-0.0027293449 -0.044923969 0.52899998 1.4490731e-38
-0.00090635347 -0.044754125 0.52700001 1.4214144e-38
0.00090459926 -0.044669203 0.52600002 1.2923387e-38
0.0027138668 -0.044669203 0.52600002 1.2370213e-38
0.0045059011 -0.044499356 0.52399999 1.4211666e-38
0.0063082548 -0.044499356 0.52399999 1.3474101e-38
0.0080796517 -0.044329513 0.52200001 1.2369866e-38
0.0098751262 -0.044329513 0.52200001 1.1355714e-38
0.011670601 -0.044329513 0.52200001 1.1816362e-38
0.01341448 -0.044159669 0.51999998 1.1816362e-38
0.015203109 -0.044159669 0.51999998 1.1723061e-38
0.016991705 -0.044159669 0.51999998 1.0985496e-38
0.018780299 -0.044159669 0.51999998 1.0524531e-38
0.020568894 -0.044159669 0.51999998 9.8791612e-39
0.02235749 -0.044159669 0.51999998 1.0709265e-38
0.024238955 -0.044329513 0.52200001 1.0893656e-38
0.026034465 -0.044329513 0.52200001 1.1078042e-38
0.027883254 -0.044414435 0.523 1.070926e-38
0.02973892 -0.044499356 0.52399999 1.0801088e-38
0.031661663 -0.044669203 0.52600002 1.1077675e-38
0.033534527 -0.044754125 0.52700001 1.1446474e-38
0.035414275 -0.044839047 0.528 1.2091844e-38
0.037300896 -0.044923969 0.52899998 1.1724872e-38
0.04202351 -0.046112884 0.54299998 1.310384e-38
0.043891218 -0.046112884 0.54299998 1.310384e-38
0.046011735 -0.046367653 0.546 1.4572257e-38
-0.0063804863 -0.046845973 0.52999997 1.4675132e-38
-0.0045488966 -0.046757586 0.52899998 1.4398545e-38
-0.0027293449 -0.046757586 0.52899998 1.4398545e-38
-0.00090635347 -0.04658081 0.52700001 1.3568784e-38
0.00090459926 -0.046492424 0.52600002 1.1911421e-38
0.0027138668 -0.046492424 0.52600002 1.2648986e-38
0.0045230999 -0.046492424 0.52600002 1.3383701e-38
0.0062841778 -0.046138868 0.52200001 1.2646136e-38
0.0080796517 -0.046138868 0.52200001 1.1725222e-38
0.0098751262 -0.046138868 0.52200001 1.071107e-38
0.011670601 -0.046138868 0.52200001 1.1726328e-38
0.013440279 -0.046050481 0.52100003 1.1080958e-38
0.015203109 -0.045962092 0.51999998 1.1354284e-38
0.016991705 -0.045962092 0.51999998 1.1077697e-38
0.018780299 -0.045962092 0.51999998 1.0617096e-38
0.020568894 -0.045962092 0.51999998 1.0340509e-38
0.02235749 -0.045962092 0.51999998 1.0341196e-38
0.024192523 -0.046050481 0.52100003 1.0525587e-38
0.025984593 -0.046050481 0.52100003 1.1168814e-38
0.027829939 -0.046138868 0.52200001 1.1076618e-38
0.029795673 -0.04640403 0.52499998 1.0342275e-38
0.031661663 -0.046492424 0.52600002 1.0250079e-38
0.033598162 -0.0466692 0.528 1.1261363e-38
0.035481345 -0.046757586 0.52899998 1.1445754e-38
0.037300896 -0.046757586 0.52899998 1.153795e-38
0.03912048 -0.046757586 0.52899998 1.0615993e-38
0.041868728 -0.047818255 0.54100001 1.1353226e-38
0.043729555 -0.047818255 0.54100001 1.1261031e-38
0.045927469 -0.048171811 0.54500002 1.4202381e-38
-0.0063804863 -0.048683081 0.52999997 1.430527e-38
-0.0045488966 -0.04859123 0.52899998 1.4028683e-38
-0.0027293449 -0.04859123 0.52899998 1.3844289e-38
-0.00090635347 -0.048407521 0.52700001 1.3106724e-38
0.00090459926 -0.048315667 0.52600002 1.2462453e-38
0.0027087068 -0.048223808 0.52499998 1.3015627e-38
0.0045145 -0.048223808 0.52499998 1.3291484e-38
0.0063202931 -0.048223808 0.52499998 1.2369528e-38
0.0080796517 -0.047948249 0.52200001 1.1448275e-38
0.0098751262 -0.047948249 0.52200001 1.2001449e-38
0.011670601 -0.047948249 0.52200001 1.1909629e-38
0.013440279 -0.047856394 0.52100003 1.1172064e-38
0.015203109 -0.047764536 0.51999998 1.0894043e-38
0.016991705 -0.047764536 0.51999998 1.0525261e-38
0.018780299 -0.047764536 0.51999998 1.0433054e-38
0.020568894 -0.047764536 0.51999998 1.0156467e-38
0.02235749 -0.047764536 0.51999998 1.0064959e-38
0.024192523 -0.047856394 0.52100003 1.0433742e-38
0.025984593 -0.047856394 0.52100003 1.080112e-38
0.027829939 -0.047948249 0.52200001 1.080112e-38
0.029625414 -0.047948249 0.52200001 1.0248997e-38
0.03178205 -0.048499376 0.528 1.0341193e-38
0.033598162 -0.048499376 0.528 1.0432673e-38
0.035481345 -0.04859123 0.52899998 1.0893651e-38
0.037441924 -0.048774943 0.53100002 1.1169164e-38
0.039638147 -0.049234219 0.53600001 1.0892577e-38
0.041559167 -0.04932607 0.537 1.0522729e-38
0.043648727 -0.049601637 0.54000002 9.8773591e-39
0.045927469 -0.050060913 0.54500002 1.3833233e-38
-0.0063804863 -0.050520193 0.52999997 1.4120523e-38
-0.0045488966 -0.050424874 0.52899998 1.3751741e-38
-0.0027241856 -0.050329551 0.528 1.310782e-38
-0.00090635347 -0.050234232 0.52700001 1.2554646e-38
0.00090459926 -0.050138913 0.52600002 1.2371341e-38
0.0027087068 -0.050043587 0.52499998 1.2555732e-38
0.0044973022 -0.049852949 0.523 1.2737942e-38
0.0062962165 -0.049852949 0.523 1.1908181e-38
0.0080796517 -0.049757626 0.52200001 1.1540471e-38
0.0098562092 -0.049662307 0.52100003 1.1817057e-38
0.011648244 -0.049662307 0.52100003 1.1447906e-38
0.01341448 -0.049566984 0.51999998 1.1355711e-38
0.015203109 -0.049566984 0.51999998 1.0802552e-38
0.016991705 -0.049566984 0.51999998 1.0618161e-38
0.018780299 -0.049566984 0.51999998 1.0340502e-38
0.020568894 -0.049566984 0.51999998 1.0340502e-38
0.02235749 -0.049566984 0.51999998 9.8816723e-39
0.024192523 -0.049662307 0.52100003 9.8816723e-39
0.025984593 -0.049662307 0.52100003 1.0891874e-38
0.027776627 -0.049662307 0.52100003 1.0799678e-38
0.029568661 -0.049662307 0.52100003 1.0616366e-38
0.03178205 -0.050329551 0.528 1.052417e-38
0.033598162 -0.050329551 0.528 1.0616363e-38
0.035414275 -0.050329551 0.528 1.0616363e-38
0.037441924 -0.050615519 0.53100002 1.1168085e-38
0.039564192 -0.050996803 0.53500003 1.1352477e-38
0.041559167 -0.051187444 0.537 9.9702582e-39
0.043567896 -0.051378082 0.53899997 9.232696e-39
-0.0045488966 -0.052258488 0.52899998 1.3382965e-38
-0.0027241856 -0.052159704 0.528 1.2922696e-38
-0.00090635347 -0.052060917 0.52700001 1.2646109e-38
0.0009028794 -0.051863339 0.52499998 1.2646123e-38
0.0027035475 -0.051764552 0.52399999 1.2369536e-38
0.0044973022 -0.051665768 0.523 1.2185131e-38
0.0062962165 -0.051665768 0.523 1.1447566e-38
0.0080951303 -0.051665768 0.523 1.1539762e-38
0.0098562092 -0.051468194 0.52100003 1.1724153e-38
0.011648244 -0.051468194 0.52100003 1.1355723e-38
0.01341448 -0.051369406 0.51999998 1.1171332e-38
0.015203109 -0.051369406 0.51999998 1.0802552e-38
0.016991705 -0.051369406 0.51999998 1.0618161e-38
0.018780299 -0.051369406 0.51999998 1.0616729e-38
0.020568894 -0.051369406 0.51999998 1.0524533e-38
0.02235749 -0.051369406 0.51999998 1.0432328e-38
0.024192523 -0.051468194 0.52100003 1.0432328e-38
0.025984593 -0.051468194 0.52100003 1.0432701e-38
0.027776627 -0.051468194 0.52100003 1.0432701e-38
0.029568661 -0.051468194 0.52100003 1.0524168e-38
0.031481083 -0.051665768 0.523 1.0431972e-38
0.03340726 -0.051863339 0.52499998 1.0524536e-38
0.035347201 -0.052060917 0.52700001 1.0524536e-38
0.037441924 -0.05245607 0.53100002 1.0983707e-38
0.039564192 -0.052851219 0.53500003 1.0983707e-38
0.041404385 -0.052851219 0.53500003 9.6022142e-39
0.043487061 -0.053147577 0.53799999 7.8505e-39
-0.0064406805 -0.054705661 0.53500003 1.3106741e-38
-0.004557495 -0.054194383 0.52999997 1.292235e-38
-0.0027345042 -0.054194383 0.52999997 1.2738675e-38
-0.00091151294 -0.054194383 0.52999997 1.2646479e-38
0.0009028794 -0.053683117 0.52499998 1.2369536e-38
0.0027035475 -0.053580865 0.52399999 1.1908558e-38
0.0044973022 -0.053478613 0.523 1.1908897e-38
0.0062962165 -0.053478613 0.523 1.1447919e-38
0.0080796517 -0.053376362 0.52200001 1.1540471e-38
0.0098751262 -0.053376362 0.52200001 1.1448275e-38
0.011670601 -0.053376362 0.52200001 1.1263528e-38
0.01341448 -0.053171851 0.51999998 1.1079136e-38
0.015203109 -0.053171851 0.51999998 1.1169537e-38
0.016991705 -0.053171851 0.51999998 1.0985146e-38
0.018780299 -0.053171851 0.51999998 1.0708925e-38
0.020568894 -0.053171851 0.51999998 1.0708925e-38
0.022400487 -0.05327411 0.52100003 1.0617067e-38
0.024238955 -0.053376362 0.52200001 1.0524871e-38
0.026034465 -0.053376362 0.52200001 1.0340502e-38
0.027829939 -0.053376362 0.52200001 1.0156111e-38
0.029682169 -0.053478613 0.523 1.0524168e-38
0.031481083 -0.053478613 0.523 1.0431972e-38
0.033343628 -0.053580865 0.52399999 1.0431986e-38
0.035347201 -0.053887628 0.52700001 1.0524182e-38
0.037300896 -0.054092132 0.52899998 1.0523822e-38
0.039564192 -0.054705661 0.53500003 1.0616017e-38
0.041404385 -0.054705661 0.53500003 9.1419787e-39
0.043487061 -0.055012416 0.53799999 8.1278268e-39
-0.0064406805 -0.056560073 0.53500003 1.2921637e-38
-0.0045660948 -0.056137193 0.53100002 1.2552854e-38
-0.0027396639 -0.056137193 0.53100002 1.2370241e-38
-0.00091323286 -0.056137193 0.53100002 1.218585e-38
0.00091319816 -0.056137193 0.53100002 1.2092589e-38
0.0026983882 -0.055291433 0.523 1.2000394e-38
0.0044973022 -0.055291433 0.523 1.1632679e-38
0.0062841778 -0.055185713 0.52200001 1.1263896e-38
0.0080796517 -0.055185713 0.52200001 1.1447559e-38
0.0098751262 -0.055185713 0.52200001 1.1355363e-38
0.011670601 -0.055185713 0.52200001 1.1263165e-38
0.01341448 -0.054974273 0.51999998 1.1078774e-38
0.015203109 -0.054974273 0.51999998 1.1077697e-38
0.016991705 -0.054974273 0.51999998 1.080111e-38
0.018780299 -0.054974273 0.51999998 1.0892577e-38
0.020608453 -0.055079997 0.52100003 1.0892577e-38
0.02235749 -0.054974273 0.51999998 1.0892212e-38
0.024146084 -0.054974273 0.51999998 1.0892212e-38
0.026034465 -0.055185713 0.52200001 1.0340858e-38
0.027883254 -0.055291433 0.523 1.0340858e-38
0.029682169 -0.055291433 0.523 1.0340142e-38
0.031541273 -0.055397149 0.52399999 1.0340142e-38
0.033343628 -0.055397149 0.52399999 1.0431626e-38
0.035347201 -0.055714313 0.52700001 1.0523822e-38
0.037300896 -0.055925749 0.52899998 1.0431273e-38
0.039564192 -0.056560073 0.53500003 1.0523468e-38
0.041636553 -0.056877229 0.53799999 9.4200075e-39
0.043487061 -0.056877229 0.53799999 1.1724898e-38
-0.0045660948 -0.05797777 0.53100002 1.2368823e-38
-0.0027396639 -0.05797777 0.53100002 1.2185511e-38
-0.00091323286 -0.05797777 0.53100002 1.1816728e-38
0.00091319816 -0.05797777 0.53100002 1.2000391e-38
0.0027396639 -0.05797777 0.53100002 1.1723804e-38
0.0044973022 -0.057104278 0.523 1.1631957e-38
0.0062721395 -0.056885909 0.52100003 1.1539762e-38
0.0080641741 -0.056885909 0.52100003 1.1355363e-38
0.0098562092 -0.056885909 0.52100003 1.1170972e-38
0.011670601 -0.056995094 0.52200001 1.1170243e-38
0.013466075 -0.056995094 0.52200001 1.1078048e-38
0.015203109 -0.056776721 0.51999998 1.0616729e-38
0.016991705 -0.056776721 0.51999998 1.0524533e-38
0.018780299 -0.056776721 0.51999998 1.0616729e-38
0.020648006 -0.056995094 0.52200001 1.0432338e-38
0.02235749 -0.056776721 0.51999998 1.0433029e-38
0.024146084 -0.056776721 0.51999998 1.0248637e-38
0.026034465 -0.056995094 0.52200001 1.0615978e-38
0.027883254 -0.057104278 0.523 1.0615978e-38
0.029682169 -0.057104278 0.523 1.033979e-38
0.031601466 -0.057322647 0.52499998 1.0431986e-38
0.033470895 -0.057431839 0.52600002 1.0431626e-38
0.035347201 -0.057541024 0.52700001 1.0523822e-38
0.037300896 -0.057759393 0.52899998 1.0890103e-38
0.039638147 -0.0585237 0.53600001 1.1074494e-38
0.041636553 -0.058742069 0.53799999 1.0982724e-38
0.043567896 -0.058851253 0.53899997 1.6883245e-38
0.045590382 -0.05906963 0.54100001 2.0006073e-38
-0.0045832926 -0.060043618 0.53299999 1.2276617e-38
-0.0027448232 -0.059930969 0.53200001 1.1908198e-38
-0.00091323286 -0.05981832 0.53100002 1.1631611e-38
0.00091319816 -0.05981832 0.53100002 1.1631611e-38
0.0044801044 -0.058691796 0.52100003 1.1446477e-38
0.0062721395 -0.058691796 0.52100003 1.1262086e-38
0.0080641741 -0.058691796 0.52100003 1.1078045e-38
0.0098562092 -0.058691796 0.52100003 1.1078045e-38
0.011692959 -0.058917098 0.523 1.0801438e-38
0.013466075 -0.058804449 0.52200001 1.0617047e-38
0.015232348 -0.058691796 0.52100003 1.0524533e-38
0.017024383 -0.058691796 0.52100003 1.0432338e-38
0.018816419 -0.058691796 0.52100003 9.7880474e-39
0.020687563 -0.058917098 0.523 1.015683e-38
0.022486478 -0.058917098 0.523 9.8795115e-39
0.024285393 -0.058917098 0.523 1.0432685e-38
0.026084341 -0.058917098 0.523 1.0340502e-38
0.027883254 -0.058917098 0.523 1.0156111e-38
0.029682169 -0.058917098 0.523 9.8787982e-39
0.031601466 -0.0591424 0.52499998 9.8787982e-39
0.033470895 -0.059255056 0.52600002 1.0245805e-38
0.035414275 -0.059480358 0.528 1.0338001e-38
0.037371404 -0.05970566 0.52999997 1.0429846e-38
0.039638147 -0.06038158 0.53600001 1.0522042e-38
0.041636553 -0.060606882 0.53799999 1.4664115e-38
0.043729555 -0.06094484 0.54100001 1.623144e-38
0.045590382 -0.06094484 0.54100001 1.6782809e-38
-0.0027499825 -0.061891127 0.53299999 1.1723482e-38
-0.00091667246 -0.061891127 0.53299999 1.1631286e-38
0.0062962165 -0.060729943 0.523 1.0802566e-38
0.0080951303 -0.060729943 0.523 1.0433732e-38
0.0098940451 -0.060729943 0.523 1.0157149e-38
0.011692959 -0.060729943 0.523 1.0339404e-38
0.013491873 -0.060729943 0.523 9.7862299e-39
0.015290821 -0.060729943 0.523 9.7866194e-39
0.017089736 -0.060729943 0.523 9.6022282e-39
0.01888865 -0.060729943 0.523 9.3256413e-39
0.020727118 -0.060846061 0.52399999 9.6022282e-39
0.022400487 -0.060497709 0.52100003 9.5103983e-39
0.024146084 -0.060381588 0.51999998 9.5103983e-39
0.025934713 -0.060381588 0.51999998 9.6025883e-39
0.027776627 -0.060497709 0.52100003 9.8791752e-39
0.029682169 -0.060729943 0.523 9.601875e-39
0.031601466 -0.060962178 0.52499998 1.0062853e-38
0.033598162 -0.061310537 0.528 9.6937302e-39
0.035414275 -0.061310537 0.528 9.970317e-39
0.037371404 -0.061542768 0.52999997 1.0244048e-38
0.043891218 -0.063052312 0.54299998 1.5770796e-38
0.045758922 -0.063052312 0.54299998 1.7055777e-38
0.0063323327 -0.062901519 0.52600002 1.0338724e-38
0.0080951303 -0.062542766 0.523 9.6947727e-39
0.0098940451 -0.062542766 0.523 9.2337946e-39
0.011692959 -0.062542766 0.523 9.0497831e-39
0.013491873 -0.062542766 0.523 9.0497831e-39
0.015290821 -0.062542766 0.523 8.7717767e-39
0.017089736 -0.062542766 0.523 8.4951898e-39
0.018924765 -0.062662348 0.52399999 8.4033571e-39
0.020727118 -0.062662348 0.52399999 8.3111614e-39
0.022400487 -0.062303599 0.52100003 8.8629031e-39
0.024146084 -0.06218401 0.51999998 8.6785118e-39
0.025934713 -0.06218401 0.51999998 9.4157111e-39
0.027776627 -0.062303599 0.52100003 9.3235155e-39
0.033725422 -0.063379854 0.52999997 9.3206723e-39
0.035548415 -0.063379854 0.52999997 7.7533466e-39
0.037441924 -0.063499443 0.53100002 5.8212138e-39
0.0063323327 -0.064724766 0.52600002 8.3104454e-39
0.0081415661 -0.064724766 0.52600002 8.3090231e-39
0.0099318791 -0.064601704 0.52499998 8.4934143e-39
0.011715315 -0.064478658 0.52399999 8.4008684e-39
0.013517669 -0.064478658 0.52399999 8.2164771e-39
0.015349293 -0.064601704 0.52499998 8.0317257e-39
0.017155087 -0.064601704 0.52499998 7.5707476e-39
0.018996999 -0.064724766 0.52600002 7.6614985e-39
0.020806231 -0.064724766 0.52600002 7.6614985e-39
0.033789061 -0.06534002 0.53100002 1.5873909e-39
0.035615493 -0.06534002 0.53100002 4.445454e-39
