# .PCD v0.7 - Point Cloud Data file format
VERSION 0.7
FIELDS x y z rgb
SIZE 4 4 4 4
TYPE F F F F
COUNT 1 1 1 1
WIDTH 514
HEIGHT 1
VIEWPOINT 0 0 0 1 0 0 0
POINTS 514
DATA ascii
-0.020663513 0.020823343 0.801 1.899686e-38
-0.017908363 0.020823343 0.801 1.8167099e-38
-0.028928913 0.018046882 0.801 1.9733043e-38
-0.02610841 0.018001821 0.79900002 2.0019988e-38
-0.023360165 0.018001821 0.79900002 1.9651564e-38
-0.020611919 0.018001821 0.79900002 1.9283115e-38
-0.017863648 0.018001821 0.79900002 1.8637746e-38
-0.015115402 0.018001821 0.79900002 1.7526418e-38
-0.012398113 0.018046882 0.801 1.7157636e-38
-0.034224186 0.015175139 0.796 1.8531659e-38
-0.031565368 0.015213267 0.79799998 1.9924584e-38
-0.028820563 0.015213267 0.79799998 1.9740192e-38
-0.026010379 0.015175139 0.796 1.9008314e-38
-0.023272453 0.015175139 0.796 1.8639531e-38
-0.020534527 0.015175139 0.796 1.7901603e-38
-0.017796574 0.015175139 0.796 1.7532821e-38
-0.015058648 0.015175139 0.796 1.6610521e-38
-0.012367156 0.015232331 0.79900002 1.5688565e-38
-0.0096188849 0.015232331 0.79900002 1.7613254e-38
-0.034224186 0.012416008 0.796 2.010077e-38
-0.031486258 0.012416008 0.796 1.8363323e-38
-0.028748332 0.012416008 0.796 1.799454e-38
-0.02594503 0.012384812 0.79400003 1.8085639e-38
-0.023213983 0.012384812 0.79400003 1.7348074e-38
-0.020482935 0.012384812 0.79400003 1.6703398e-38
-0.017751861 0.012384812 0.79400003 1.6611202e-38
-0.015020813 0.012384812 0.79400003 1.6516514e-38
-0.012320722 0.012416008 0.796 1.5133579e-38
-0.0096068457 0.012447204 0.79799998 1.5222908e-38
-0.0068620401 0.012447204 0.79799998 1.7804385e-38
-0.036776401 0.0096083898 0.792 1.8261144e-38
-0.034138199 0.0096326536 0.79400003 1.9090905e-38
-0.031407151 0.0096326536 0.79400003 1.7625377e-38
-0.028676102 0.0096326536 0.79400003 1.734879e-38
-0.025879676 0.0096083898 0.792 1.7072937e-38
-0.023155507 0.0096083898 0.792 1.6150981e-38
-0.020431338 0.0096083898 0.792 1.6701255e-38
-0.017707145 0.0096083898 0.792 1.5594908e-38
-0.014982977 0.0096083898 0.792 1.4767292e-38
-0.012289765 0.0096326536 0.79400003 1.439851e-38
-0.0095827691 0.0096569173 0.796 1.2463115e-38
-0.0068448423 0.0096569173 0.796 1.5321179e-38
-0.0041172346 0.0096811801 0.79799998 1.8162524e-38
-0.001372429 0.0096811801 0.79799998 1.7885937e-38
-0.036776401 0.0068631242 0.792 1.890898e-38
-0.034052204 0.0068631242 0.792 1.8540197e-38
-0.031328037 0.0068631242 0.792 1.7072944e-38
-0.028603869 0.0068631242 0.792 1.6427575e-38
-0.025814323 0.0068457937 0.79000002 1.6518319e-38
-0.023097035 0.0068457937 0.79000002 1.5965145e-38
-0.020431338 0.0068631242 0.792 1.5043536e-38
-0.017707145 0.0068631242 0.792 1.4582558e-38
-0.014982977 0.0068631242 0.792 1.3936425e-38
-0.012258808 0.0068631242 0.792 1.3291055e-38
-0.0095586926 0.0068804557 0.79400003 1.2552827e-38
-0.0068276445 0.0068804557 0.79400003 1.2829414e-38
-0.0040965974 0.0068804557 0.79400003 1.8347258e-38
-0.0013689892 0.0068977866 0.796 1.8347258e-38
-0.033966217 0.0041074604 0.79000002 1.8541967e-38
-0.031248927 0.0041074604 0.79000002 1.6889636e-38
-0.028459404 0.0040970617 0.78799999 1.6059875e-38
-0.025748968 0.0040970617 0.78799999 1.587261e-38
-0.023038559 0.0040970617 0.78799999 1.4950654e-38
-0.020328149 0.0040970617 0.78799999 1.4489662e-38
-0.01766243 0.0041074604 0.79000002 1.347551e-38
-0.014945141 0.0041074604 0.79000002 1.3290355e-38
-0.012258808 0.0041178591 0.792 1.2460594e-38
-0.0095346142 0.0041178591 0.792 1.1537937e-38
-0.0068104463 0.0041178591 0.792 1.126135e-38
-0.0040965974 0.0041282577 0.79400003 1.6783859e-38
-0.0013689892 0.0041386564 0.796 1.7705815e-38
0.0013689372 0.0041386564 0.796 1.7886646e-38
-0.036869273 0.001376099 0.79400003 1.8085651e-38
-0.033966217 0.0013691665 0.79000002 1.7532477e-38
-0.031169813 0.0013657002 0.78799999 1.6980755e-38
-0.028459404 0.0013657002 0.78799999 1.6150995e-38
-0.025716294 0.0013639672 0.787 1.5320518e-38
-0.023009323 0.0013639672 0.787 1.4398562e-38
-0.020302353 0.0013639672 0.787 1.4304554e-38
-0.017595356 0.0013639672 0.787 1.2737229e-38
-0.014907304 0.0013657002 0.78799999 1.1999278e-38
-0.012258808 0.0013726327 0.792 1.1077322e-38
-0.0095346142 0.0013726327 0.792 1.1076616e-38
-0.0068104463 0.0013726327 0.792 1.0892224e-38
-0.0040965974 0.001376099 0.79400003 1.4204864e-38
-0.0013655497 0.001376099 0.79400003 1.789269e-38
0.0013654978 0.001376099 0.79400003 1.7794094e-38
-0.03668353 -0.0013691665 0.79000002 1.7441714e-38
-0.033966217 -0.0013691665 0.79000002 1.7072931e-38
-0.031169813 -0.0013657002 0.78799999 1.7164431e-38
-0.028459404 -0.0013657002 0.78799999 1.5781496e-38
-0.025716294 -0.0013639672 0.787 1.5319796e-38
-0.023009323 -0.0013639672 0.787 1.4121253e-38
-0.020302353 -0.0013639672 0.787 1.2923399e-38
-0.017595356 -0.0013639672 0.787 1.1632661e-38
-0.014888387 -0.0013639672 0.787 1.1078042e-38
-0.012196895 -0.0013657002 0.78799999 1.006389e-38
-0.0095105376 -0.0013691665 0.79000002 1.0432328e-38
-0.0067932485 -0.0013691665 0.79000002 9.6025673e-39
-0.0040862779 -0.0013726327 0.792 1.1719869e-38
-0.0013655497 -0.001376099 0.79400003 1.7435998e-38
0.0013654978 -0.001376099 0.79400003 1.7793025e-38
-0.03668353 -0.0041074604 0.79000002 1.6886735e-38
-0.033966217 -0.0041074604 0.79000002 1.6702344e-38
-0.031169813 -0.0040970617 0.78799999 1.6702344e-38
-0.028423289 -0.0040918626 0.787 1.5503801e-38
-0.025716294 -0.0040918626 0.787 1.4581857e-38
-0.023009323 -0.0040918626 0.787 1.3014531e-38
-0.020250758 -0.0040814639 0.78500003 1.2278043e-38
-0.017550642 -0.0040814639 0.78500003 1.0618521e-38
-0.014888387 -0.0040918626 0.787 9.9731196e-39
-0.012181417 -0.0040918626 0.787 9.5121485e-39
-0.0094864592 -0.0040970617 0.78799999 9.5103548e-39
-0.0067932485 -0.0041074604 0.79000002 9.2337722e-39
-0.0040862779 -0.0041178591 0.792 9.7848272e-39
-0.0013655497 -0.0041282577 0.79400003 1.7068282e-38
0.0013654978 -0.0041282577 0.79400003 1.7701548e-38
-0.036776401 -0.0068631242 0.792 1.5781467e-38
-0.033966217 -0.0068457937 0.79000002 1.5136097e-38
-0.031169813 -0.0068284618 0.78799999 1.5228999e-38
-0.028423289 -0.0068197967 0.787 1.4491434e-38
-0.025716294 -0.0068197967 0.787 1.3108875e-38
-0.023009323 -0.0068197967 0.787 1.2463506e-38
-0.020250758 -0.0068024658 0.78500003 1.1541181e-38
-0.017550642 -0.0068024658 0.78500003 1.0527029e-38
-0.014850551 -0.0068024658 0.78500003 9.5143009e-39
-0.012181417 -0.0068197967 0.787 8.9611355e-39
-0.0094864592 -0.0068284618 0.78799999 9.0511774e-39
-0.0067932485 -0.0068457937 0.79000002 7.9448466e-39
-0.0040862779 -0.0068631242 0.792 1.0153317e-38
-0.0013655497 -0.0068804557 0.79400003 1.6699207e-38
0.0013689372 -0.0068977866 0.796 1.7885577e-38
-0.036869273 -0.0096326144 0.79400003 1.4950264e-38
-0.034052204 -0.0096083507 0.792 1.4304895e-38
-0.031169813 -0.0095598232 0.78799999 1.4397806e-38
-0.028459404 -0.0095598232 0.78799999 1.4029024e-38
-0.025716294 -0.0095476927 0.787 1.3016667e-38
-0.023009323 -0.0095476927 0.787 1.2002515e-38
-0.020250758 -0.009523429 0.78500003 1.1634421e-38
-0.017550642 -0.009523429 0.78500003 1.0435884e-38
-0.014850551 -0.009523429 0.78500003 9.3309886e-39
-0.012181417 -0.0095476927 0.787 8.9622117e-39
-0.0094864592 -0.0095598232 0.78799999 8.1317462e-39
-0.0067932485 -0.0095840879 0.79000002 5.9190847e-39
-0.0040862779 -0.0096083507 0.792 1.3558153e-38
-0.0013655497 -0.0096326144 0.79400003 1.7245978e-38
0.0013654978 -0.0096326144 0.79400003 1.7609353e-38
-0.03668353 -0.01232242 0.79000002 1.4393549e-38
-0.031248927 -0.01232242 0.79000002 1.3662049e-38
-0.028531637 -0.01232242 0.79000002 1.301668e-38
-0.025748968 -0.012291224 0.78799999 1.2463478e-38
-0.023009323 -0.012275627 0.787 1.1725913e-38
-0.020302353 -0.012275627 0.787 1.0621349e-38
-0.017617714 -0.012291224 0.78799999 9.8837953e-39
-0.014907304 -0.012291224 0.78799999 8.6867052e-39
-0.012227852 -0.01232242 0.79000002 8.5023168e-39
-0.0095346142 -0.012353616 0.792 6.7520614e-39
-0.0068104463 -0.012353616 0.792 7.2130339e-39
-0.0040965974 -0.012384812 0.79400003 1.7427498e-38
-0.0013655497 -0.012384812 0.79400003 1.7058715e-38
-0.028603869 -0.015098842 0.792 1.2278408e-38
-0.025814323 -0.015060714 0.79000002 1.1175238e-38
-0.023097035 -0.015060714 0.79000002 1.025329e-38
-0.020379744 -0.015060714 0.79000002 8.9632879e-39
-0.01766243 -0.015060714 0.79000002 8.3179283e-39
-0.014945141 -0.015060714 0.79000002 8.2242992e-39
-0.012258808 -0.015098842 0.792 7.763328e-39
-0.0095586926 -0.015136971 0.79400003 6.0137901e-39
-0.0068276445 -0.015136971 0.79400003 1.5141139e-38
-0.0040965974 -0.015136971 0.79400003 1.7701899e-38
-0.0013655497 -0.015136971 0.79400003 1.7425312e-38
0.0013293825 -0.014736623 0.773 1.770082e-38
0.0039882488 -0.014736623 0.773 1.7332037e-38
0.0066470644 -0.014736623 0.773 1.7426366e-38
0.0093058804 -0.014736623 0.773 1.8901496e-38
0.011980173 -0.014755686 0.77399999 1.6877484e-38
0.0147181 -0.014831943 0.778 1.6416506e-38
0.017394114 -0.014831943 0.778 1.7149081e-38
-0.037055008 -0.01797929 0.79799998 1.8256858e-38
-0.028603869 -0.017844107 0.792 1.3476612e-38
-0.025879676 -0.017844107 0.792 1.2646842e-38
-0.023155507 -0.017844107 0.792 1.1079516e-38
-0.020379744 -0.017799048 0.79000002 1.0066394e-38
-0.01766243 -0.017799048 0.79000002 8.5912824e-39
-0.014982977 -0.017844107 0.792 7.579657e-39
-0.012289765 -0.01788917 0.79400003 7.1186859e-39
-0.0095586926 -0.01788917 0.79400003 8.4990882e-39
-0.0068276445 -0.01788917 0.79400003 1.6243501e-38
-0.0040965974 -0.01788917 0.79400003 1.7794438e-38
-0.0013294332 -0.01741603 0.773 1.7517851e-38
0.0013293825 -0.01741603 0.773 1.6873897e-38
0.0039882488 -0.01741603 0.773 1.8256831e-38
0.0066470644 -0.01741603 0.773 1.9923848e-38
0.0093058804 -0.01741603 0.773 1.9831652e-38
0.011980173 -0.017438559 0.77399999 1.3940815e-38
0.014642429 -0.017438559 0.77399999 1.5139358e-38
0.017394114 -0.017528681 0.778 1.705937e-38
0.020070128 -0.017528681 0.778 1.7151565e-38
-0.03960032 -0.020641329 0.79400003 1.7794438e-38
-0.034310177 -0.020745313 0.79799998 1.6046972e-38
-0.031486258 -0.020693321 0.796 1.4306687e-38
-0.028676102 -0.020641329 0.79400003 1.4491078e-38
-0.02594503 -0.020641329 0.79400003 1.2098311e-38
-0.023038559 -0.020485347 0.78799999 9.8856156e-39
-0.020328149 -0.020485347 0.78799999 9.884154e-39
-0.017595356 -0.020459352 0.787 9.3309886e-39
-0.014888387 -0.020459352 0.787 9.5160946e-39
-0.012227852 -0.020537341 0.79000002 1.0530231e-38
-0.0095105376 -0.020537341 0.79000002 1.1175232e-38
-0.0068276445 -0.020641329 0.79400003 1.200498e-38
-0.0040965974 -0.020641329 0.79400003 1.4394606e-38
-0.0013259934 -0.020043407 0.77100003 1.4855584e-38
0.001325943 -0.020043407 0.77100003 1.9462151e-38
0.0039779302 -0.020043407 0.77100003 1.927776e-38
0.0066298665 -0.020043407 0.77100003 1.5595174e-38
0.0093058804 -0.020095399 0.773 1.6885893e-38
0.011964696 -0.020095399 0.773 1.2188292e-38
0.014623512 -0.020095399 0.773 1.2649263e-38
0.0173494 -0.020173388 0.77600002 1.4485029e-38
0.020121722 -0.020277373 0.77999997 1.6421137e-38
-0.042331368 -0.023393527 0.79400003 1.7615762e-38
-0.036869273 -0.023393527 0.79400003 1.7254112e-38
-0.034138199 -0.023393527 0.79400003 1.623996e-38
-0.03113026 -0.023187285 0.787 1.5874356e-38
-0.028423289 -0.023187285 0.787 1.5321182e-38
-0.025585586 -0.023069434 0.78299999 1.5322627e-38
-0.022892375 -0.023069434 0.78299999 1.6428975e-38
-0.020199163 -0.023069434 0.78299999 1.670665e-38
-0.017505927 -0.023069434 0.78299999 1.7812998e-38
-0.014812714 -0.023069434 0.78299999 1.7903751e-38
-0.012088547 -0.023010509 0.78100002 1.771936e-38
-0.0094021894 -0.023010509 0.78100002 1.7812645e-38
-0.006715857 -0.023010509 0.78100002 1.7628253e-38
-0.0039882488 -0.022774804 0.773 1.8180721e-38
-0.0013225537 -0.022656953 0.76899999 1.8088525e-38
0.0013225034 -0.022656953 0.76899999 1.8914323e-38
0.0039779302 -0.02271588 0.77100003 1.3659172e-38
0.0066298665 -0.02271588 0.77100003 1.2184705e-38
0.0092818029 -0.02271588 0.77100003 1.5042739e-38
0.011964696 -0.022774804 0.773 1.1543297e-38
0.014623512 -0.022774804 0.773 1.0344766e-38
0.0173494 -0.022863194 0.77600002 1.1538278e-38
0.020121722 -0.022981044 0.77999997 1.5318298e-38
-0.03960032 -0.026145725 0.79400003 1.7622179e-38
-0.03668353 -0.026014008 0.79000002 1.661266e-38
-0.033966217 -0.026014008 0.79000002 1.661266e-38
-0.03113026 -0.02591522 0.787 1.7166547e-38
-0.028206594 -0.025717646 0.78100002 1.8088503e-38
-0.025422206 -0.025618857 0.778 1.8550588e-38
-0.022746192 -0.025618857 0.778 1.8734262e-38
-0.020070178 -0.025618857 0.778 1.9101588e-38
-0.017349426 -0.025552999 0.77600002 1.9285262e-38
-0.014680291 -0.025552999 0.77600002 1.9101588e-38
-0.012042113 -0.025618857 0.778 1.9193425e-38
-0.0093179187 -0.02548714 0.77399999 1.8917916e-38
-0.0066470644 -0.025454212 0.773 1.9193427e-38
-0.0039882488 -0.025454212 0.773 1.88261e-38
-0.0013225537 -0.025322495 0.76899999 1.8365481e-38
0.0013225034 -0.025322495 0.76899999 1.6610113e-38
0.0039676107 -0.025322495 0.76899999 1.2276919e-38
0.0066126678 -0.025322495 0.76899999 1.1817029e-38
0.0092818029 -0.025388354 0.77100003 1.3199964e-38
0.011933739 -0.025388354 0.77100003 1.0896871e-38
0.014623512 -0.025454212 0.773 1.0989067e-38
0.017304683 -0.02548714 0.77399999 1.0617762e-38
0.020070128 -0.025618857 0.778 1.4213368e-38
0.022746192 -0.025618857 0.778 1.7240555e-38
-0.042011477 -0.028679509 0.78799999 1.7719017e-38
-0.039301068 -0.028679509 0.78799999 1.8179995e-38
-0.036544226 -0.028643116 0.787 1.882356e-38
-0.033837229 -0.028643116 0.787 1.9468929e-38
-0.03113026 -0.028643116 0.787 1.8732443e-38
-0.028170476 -0.028388346 0.77999997 1.8824639e-38
-0.025356853 -0.028242767 0.77600002 1.8824639e-38
-0.022629244 -0.028169975 0.77399999 1.8732443e-38
-0.01996699 -0.028169975 0.77399999 1.8732806e-38
-0.017282352 -0.02813358 0.773 1.8917197e-38
-0.014623537 -0.02813358 0.773 1.9284903e-38
-0.011964721 -0.02813358 0.773 1.9284903e-38
-0.0093058804 -0.02813358 0.773 1.9652617e-38
-0.0066298665 -0.028060792 0.77100003 2.0111801e-38
-0.0039779302 -0.028060792 0.77100003 1.9836295e-38
-0.0013225537 -0.027988 0.76899999 1.7070426e-38
0.0013225034 -0.027988 0.76899999 1.3755245e-38
0.0039676107 -0.027988 0.76899999 1.0620632e-38
0.0066126678 -0.027988 0.76899999 1.1724509e-38
0.0092818029 -0.028060792 0.77100003 1.1816704e-38
0.011933739 -0.028060792 0.77100003 1.0985852e-38
0.014623512 -0.02813358 0.773 1.1354635e-38
0.017304683 -0.028169975 0.77399999 1.0156791e-38
0.020018535 -0.028242767 0.77600002 1.246166e-38
-0.044665135 -0.03137105 0.787 1.9000116e-38
-0.041958164 -0.03137105 0.787 1.7718291e-38
-0.03890207 -0.031092016 0.77999997 1.8455856e-38
-0.03621918 -0.031092016 0.77999997 1.8640966e-38
-0.033364285 -0.030932572 0.77600002 1.7534619e-38
-0.030695148 -0.030932572 0.77600002 1.8364389e-38
-0.028026015 -0.030932572 0.77600002 1.8456585e-38
-0.025291501 -0.030852847 0.77399999 1.8272544e-38
-0.022600008 -0.030812988 0.773 1.8456935e-38
-0.019889599 -0.030733265 0.77100003 1.8456935e-38
-0.017237637 -0.030733265 0.77100003 1.8456935e-38
-0.014585701 -0.030733265 0.77100003 1.9100875e-38
-0.011933764 -0.030733265 0.77100003 1.8824288e-38
-0.0092818029 -0.030733265 0.77100003 1.8915405e-38
-0.0066126678 -0.03065354 0.76899999 1.7993449e-38
-0.0039572921 -0.030573819 0.76700002 1.6794177e-38
-0.001319114 -0.030573819 0.76700002 1.4581482e-38
0.0013190639 -0.030573819 0.76700002 1.1728756e-38
0.0039572921 -0.030573819 0.76700002 1.006926e-38
0.00659547 -0.030573819 0.76700002 1.2091123e-38
0.0092577254 -0.03065354 0.76899999 1.153795e-38
0.011933739 -0.030733265 0.77100003 1.1168811e-38
0.014623512 -0.030812988 0.773 1.1168811e-38
0.017282328 -0.030812988 0.773 1.0708209e-38
0.019966939 -0.030852847 0.77399999 1.1169187e-38
0.022804664 -0.031092016 0.77999997 1.7241992e-38
-0.04455163 -0.034012292 0.78500003 1.872528e-38
-0.041744906 -0.033925634 0.78299999 1.7717209e-38
-0.03890207 -0.033795647 0.77999997 1.7164035e-38
-0.036126312 -0.033708993 0.778 1.8086723e-38
-0.033364285 -0.033622339 0.77600002 1.8455506e-38
-0.030616036 -0.033535682 0.77399999 1.7903048e-38
-0.027953781 -0.033535682 0.77399999 1.8087439e-38
-0.025258824 -0.033492357 0.773 1.7720099e-38
-0.022541536 -0.033405703 0.77100003 1.8826088e-38
-0.019838003 -0.033319045 0.76899999 1.8270752e-38
-0.017192923 -0.033319045 0.76899999 1.7625382e-38
-0.014585701 -0.033405703 0.77100003 1.5689249e-38
-0.011933764 -0.033405703 0.77100003 1.6519009e-38
-0.0092577254 -0.033319045 0.76899999 1.5874013e-38
-0.0066126678 -0.033319045 0.76899999 1.5320839e-38
-0.0039572921 -0.033232391 0.76700002 1.4674378e-38
-0.0013173942 -0.033189062 0.76599997 1.356803e-38
0.0013173441 -0.033189062 0.76599997 1.0621e-38
0.0039521325 -0.033189062 0.76599997 1.0621e-38
0.00659547 -0.033232391 0.76700002 1.1539003e-38
0.0092577254 -0.033319045 0.76899999 1.0709243e-38
0.011933739 -0.033405703 0.77100003 1.0708176e-38
0.014585676 -0.033405703 0.77100003 1.0800372e-38
0.017282328 -0.033492357 0.773 1.0431986e-38
0.019966939 -0.033535682 0.77399999 1.0155399e-38
0.022804664 -0.033795647 0.77999997 1.6781014e-38
-0.04455163 -0.036733292 0.78500003 1.8359374e-38
-0.041744906 -0.036639702 0.78299999 1.7164398e-38
-0.03890207 -0.036499318 0.77999997 1.7440985e-38
-0.036126312 -0.036405731 0.778 1.7347723e-38
-0.03327829 -0.036218554 0.77399999 1.7347723e-38
-0.030576481 -0.036171764 0.773 1.6887101e-38
-0.027917666 -0.036171764 0.773 1.7255884e-38
-0.025193471 -0.036078177 0.77100003 1.8270422e-38
-0.02248306 -0.035984587 0.76899999 1.6887488e-38
-0.01978641 -0.035891 0.76700002 1.7069324e-38
-0.017148206 -0.035891 0.76700002 1.273613e-38
-0.014547865 -0.035984587 0.76899999 1.3386195e-38
-0.011902807 -0.035984587 0.76899999 1.4492543e-38
-0.0092577254 -0.035984587 0.76899999 1.4398507e-38
-0.0066126678 -0.035984587 0.76899999 1.4029725e-38
-0.0039521325 -0.035844203 0.76599997 1.3292878e-38
-0.0013173942 -0.035844203 0.76599997 1.2278726e-38
0.0013173441 -0.035844203 0.76599997 1.0895101e-38
0.0039521325 -0.035844203 0.76599997 1.0987297e-38
0.00659547 -0.035891 0.76700002 1.1078751e-38
0.0092577254 -0.035984587 0.76899999 1.0433382e-38
0.011933739 -0.036078177 0.77100003 1.0340142e-38
0.014585676 -0.036078177 0.77100003 1.0155751e-38
0.017282328 -0.036171764 0.773 1.024723e-38
0.019966939 -0.036218554 0.77399999 9.4174698e-39
0.022804664 -0.036499318 0.77999997 1.6689179e-38
-0.044665135 -0.039554775 0.787 1.7068282e-38
-0.041744906 -0.039353732 0.78299999 1.6517953e-38
-0.03890207 -0.039202951 0.77999997 1.6978931e-38
-0.036126312 -0.039102431 0.778 1.6610161e-38
-0.03327829 -0.038901389 0.77399999 1.6610161e-38
-0.030576481 -0.038851131 0.773 1.679385e-38
-0.027917666 -0.038851131 0.773 1.5871894e-38
-0.025193471 -0.038750611 0.77100003 1.6608377e-38
-0.02248306 -0.038650092 0.76899999 1.4948856e-38
-0.01978641 -0.038549572 0.76700002 1.2278693e-38
-0.017148206 -0.038549572 0.76700002 1.2094304e-38
-0.014510029 -0.038549572 0.76700002 1.4397117e-38
-0.011902807 -0.038650092 0.76899999 1.4489313e-38
-0.0092577254 -0.038650092 0.76899999 1.384463e-38
-0.00659547 -0.038549572 0.76700002 1.3568043e-38
-0.0039521325 -0.038499311 0.76599997 1.2556405e-38
-0.0013173942 -0.038499311 0.76599997 1.1726644e-38
0.0013173441 -0.038499311 0.76599997 1.1170972e-38
0.0039521325 -0.038499311 0.76599997 1.1078776e-38
0.00659547 -0.038549572 0.76700002 1.034194e-38
0.0092577254 -0.038650092 0.76899999 9.6965706e-39
0.011933739 -0.038750611 0.77100003 1.0063558e-38
0.014585676 -0.038750611 0.77100003 9.6025799e-39
0.017282328 -0.038851131 0.773 9.5092786e-39
0.020018535 -0.039001912 0.77600002 9.1405017e-39
0.022804664 -0.039202951 0.77999997 1.6505151e-38
-0.044665135 -0.042282708 0.787 1.6974651e-38
-0.041744906 -0.042067803 0.78299999 1.6609082e-38
-0.03890207 -0.041906621 0.77999997 1.5410539e-38
-0.036126312 -0.041799169 0.778 1.5413776e-38
-0.033364285 -0.041691717 0.77600002 1.4676211e-38
-0.030616036 -0.041584261 0.77399999 1.4490002e-38
-0.027917666 -0.041530538 0.773 1.4397806e-38
-0.025193471 -0.041423086 0.77100003 1.4029384e-38
-0.02248306 -0.041315634 0.76899999 1.3015232e-38
-0.01978641 -0.041208182 0.76700002 1.2831952e-38
-0.017148206 -0.041208182 0.76700002 1.3108539e-38
-0.014510029 -0.041208182 0.76700002 1.366098e-38
-0.011871851 -0.041208182 0.76700002 1.366098e-38
-0.009233648 -0.041208182 0.76700002 1.3107796e-38
-0.00659547 -0.041208182 0.76700002 1.2831209e-38
-0.0039521325 -0.041154452 0.76599997 1.2739008e-38
-0.0013173942 -0.041154452 0.76599997 1.1817052e-38
0.0013173441 -0.041154452 0.76599997 1.1816341e-38
0.0039521325 -0.041154452 0.76599997 1.1355363e-38
0.00659547 -0.041208182 0.76700002 1.0525975e-38
0.0092577254 -0.041315634 0.76899999 9.7884103e-39
0.011933739 -0.041423086 0.77100003 1.0247581e-38
0.014585676 -0.041423086 0.77100003 9.7866026e-39
0.017282328 -0.041530538 0.773 8.6809655e-39
0.020018535 -0.041691717 0.77600002 9.0497424e-39
0.022833904 -0.041960351 0.78100002 1.6688466e-38
-0.044721887 -0.045067795 0.78799999 1.5959443e-38
-0.041744906 -0.044781834 0.78299999 1.5688216e-38
-0.038802326 -0.044495869 0.778 1.5503825e-38
-0.036033444 -0.044381484 0.77600002 1.5596725e-38
-0.033364285 -0.044381484 0.77600002 1.5135747e-38
-0.030616036 -0.044267096 0.77399999 1.4950284e-38
-0.027917666 -0.044209909 0.773 1.4581501e-38
-0.025193471 -0.044095524 0.77100003 1.3568774e-38
-0.022541536 -0.044095524 0.77100003 1.3107796e-38
-0.019838003 -0.043981135 0.76899999 1.3383688e-38
-0.017148206 -0.043866754 0.76700002 1.3475884e-38
-0.014510029 -0.043866754 0.76700002 1.3568774e-38
-0.011871851 -0.043866754 0.76700002 1.3568774e-38
-0.009233648 -0.043866754 0.76700002 1.3107457e-38
-0.00659547 -0.043866754 0.76700002 1.283087e-38
-0.0039521325 -0.043809559 0.76599997 1.2554957e-38
-0.0013173942 -0.043809559 0.76599997 1.2278371e-38
0.0013173441 -0.043809559 0.76599997 1.1539749e-38
0.0039521325 -0.043809559 0.76599997 1.1263162e-38
0.00659547 -0.043866754 0.76700002 1.0895101e-38
0.0092577254 -0.043981135 0.76899999 1.0618514e-38
0.011933739 -0.044095524 0.77100003 1.0156817e-38
0.014585676 -0.044095524 0.77100003 9.6958391e-39
0.017282328 -0.044209909 0.773 7.3923987e-39
0.020018535 -0.044381484 0.77600002 1.2924128e-38
0.022833904 -0.044667449 0.78100002 1.6688103e-38
-0.041851539 -0.047617223 0.78500003 1.4673327e-38
-0.038802326 -0.047192607 0.778 1.5410892e-38
-0.036033444 -0.047071289 0.77600002 1.4949587e-38
-0.033364285 -0.047071289 0.77600002 1.4580805e-38
-0.030616036 -0.046949971 0.77399999 1.3844292e-38
-0.027917666 -0.046889313 0.773 1.4213075e-38
-0.025258824 -0.046889313 0.773 1.2554632e-38
-0.022541536 -0.046767998 0.77100003 1.2923415e-38
-0.019838003 -0.046646677 0.76899999 1.3291861e-38
-0.017148206 -0.046525363 0.76700002 1.3384057e-38
-0.014510029 -0.046525363 0.76700002 1.3476589e-38
-0.011871851 -0.046525363 0.76700002 1.2923415e-38
-0.009233648 -0.046525363 0.76700002 1.2554279e-38
-0.0066126678 -0.046646677 0.76899999 1.2554279e-38
-0.0039572921 -0.046525363 0.76700002 1.2002162e-38
-0.001319114 -0.046525363 0.76700002 1.1725575e-38
0.0013190639 -0.046525363 0.76700002 1.1356086e-38
0.0039676107 -0.046646677 0.76899999 1.0710717e-38
0.0066126678 -0.046646677 0.76899999 1.0709615e-38
0.0092818029 -0.046767998 0.77100003 1.0709615e-38
0.011933739 -0.046767998 0.77100003 1.0431986e-38
0.014623512 -0.046889313 0.773 9.0490516e-39
0.017304683 -0.046949971 0.77399999 7.5750636e-39
0.020070128 -0.047192607 0.778 1.8915126e-38
-0.038453206 -0.049440473 0.77100003 1.3655932e-38
-0.035801269 -0.049440473 0.77100003 1.2736549e-38
-0.03327829 -0.049632844 0.77399999 1.2828745e-38
-0.030695148 -0.049761094 0.77600002 1.1447906e-38
-0.027953781 -0.049632844 0.77399999 1.1447906e-38
-0.025258824 -0.04956872 0.773 1.2829088e-38
-0.022541536 -0.049440473 0.77100003 1.319787e-38
-0.019889599 -0.049440473 0.77100003 1.3013479e-38
-0.017192923 -0.049312219 0.76899999 1.2829088e-38
-0.014547865 -0.049312219 0.76899999 1.2736161e-38
-0.011871851 -0.049183972 0.76700002 1.2736161e-38
-0.009233648 -0.049183972 0.76700002 1.2551785e-38
-0.0066126678 -0.049312219 0.76899999 1.2275198e-38
-0.0039676107 -0.049312219 0.76899999 1.1630529e-38
-0.0013225537 -0.049312219 0.76899999 1.1169551e-38
0.0013225034 -0.049312219 0.76899999 1.0800408e-38
0.0039676107 -0.049312219 0.76899999 1.0523822e-38
0.0066126678 -0.049312219 0.76899999 1.0430197e-38
0.0092818029 -0.049440473 0.77100003 1.0061414e-38
0.011933739 -0.049440473 0.77100003 9.5975843e-39
0.014642429 -0.049632844 0.77399999 7.8458673e-39
0.0173494 -0.049761094 0.77600002 1.5399519e-38
0.020070128 -0.049889345 0.778 1.770441e-38
-0.038453206 -0.052112907 0.77100003 1.0610946e-38
-0.035801269 -0.052112907 0.77100003 8.0366821e-39
-0.03327829 -0.052315678 0.77399999 7.9444879e-39
-0.030695148 -0.052450862 0.77600002 6.8431794e-39
-0.027953781 -0.052315678 0.77399999 8.5026937e-39
-0.025193471 -0.052112907 0.77100003 9.1430899e-39
-0.022541536 -0.052112907 0.77100003 9.4196768e-39
-0.019889599 -0.052112907 0.77100003 9.0519313e-39
-0.017192923 -0.051977724 0.76899999 9.1441269e-39
-0.014547865 -0.051977724 0.76899999 8.406929e-39
-0.011902807 -0.051977724 0.76899999 8.5913202e-39
-0.0092577254 -0.051977724 0.76899999 7.7619505e-39
-0.0066126678 -0.051977724 0.76899999 6.655603e-39
-0.0039779302 -0.052112907 0.77100003 6.563029e-39
-0.0013259934 -0.052112907 0.77100003 4.9035133e-39
0.001325943 -0.052112907 0.77100003 3.6156639e-39
0.0039676107 -0.051977724 0.76899999 2.048362e-39
0.0066126678 -0.051977724 0.76899999 5.7433058e-40
0.0092818029 -0.052112907 0.77100003 1.8654085e-41
0.011933739 -0.052112907 0.77100003 1.9443296e-40
