# .PCD v0.7 - Point Cloud Data file format
VERSION 0.7
FIELDS x y z rgb
SIZE 4 4 4 4
TYPE F F F F
COUNT 1 1 1 1
WIDTH 556
HEIGHT 1
VIEWPOINT 0 0 0 1 0 0 0
POINTS 556
DATA ascii
-0.0013689892 0.02069336 0.796 1.8628803e-38
0.0013689372 0.02069336 0.796 1.8350083e-38
0.0041172346 0.020745352 0.79799998 1.8165692e-38
-0.0040862779 0.017844107 0.792 1.9744468e-38
-0.00136211 0.017844107 0.792 1.8730675e-38
0.0013654978 0.01788917 0.79400003 1.6980052e-38
0.0041069156 0.017934229 0.796 1.59659e-38
0.0068706395 0.018001821 0.79900002 1.706331e-38
-0.014888387 0.015003561 0.787 1.817003e-38
-0.012181417 0.015003561 0.787 2.0382726e-38
-0.0094744209 0.015003561 0.787 1.9377116e-38
-0.0067674508 0.015003561 0.787 1.8547714e-38
-0.0040759593 0.015060754 0.79000002 1.8360777e-38
-0.0013586703 0.015060754 0.79000002 1.7623212e-38
0.0013654978 0.01513701 0.79400003 1.6611243e-38
0.0040965974 0.01513701 0.79400003 1.6334656e-38
0.0068448423 0.015175139 0.796 1.7065778e-38
0.0096068457 0.015213267 0.79799998 1.6789191e-38
0.012398086 0.015270459 0.801 1.8347271e-38
-0.01766243 0.01232242 0.79000002 1.8623858e-38
-0.014888387 0.012275627 0.787 1.9558665e-38
-0.012181417 0.012275627 0.787 1.8728905e-38
-0.0094744209 0.012275627 0.787 1.826967e-38
-0.0067674508 0.012275627 0.787 1.76243e-38
-0.0040759593 0.01232242 0.79000002 1.6610852e-38
-0.0013586703 0.01232242 0.79000002 1.5873287e-38
0.0013586186 0.01232242 0.79000002 1.5410889e-38
0.0040862779 0.012353616 0.792 1.5042107e-38
0.0068104463 0.012353616 0.792 1.4581126e-38
0.0095586926 0.012384812 0.79400003 1.4396734e-38
0.012320695 0.012416008 0.796 1.7612918e-38
0.015058622 0.012416008 0.796 1.7889504e-38
0.017796548 0.012416008 0.796 1.7886646e-38
-0.01766243 0.0095841261 0.79000002 1.9455398e-38
-0.014945141 0.0095841261 0.79000002 1.8087083e-38
-0.012181417 0.0095477309 0.787 1.753391e-38
-0.0094744209 0.0095477309 0.787 1.6703426e-38
-0.0067760497 0.0095598623 0.78799999 1.5504883e-38
-0.0040604807 0.0095477309 0.787 1.4951696e-38
-0.0013535108 0.0095477309 0.787 1.4582914e-38
0.001355179 0.0095598623 0.78799999 1.4029037e-38
0.0040656403 0.0095598623 0.78799999 1.310708e-38
0.0067760497 0.0095598623 0.78799999 1.264644e-38
0.0095346142 0.0096083898 0.792 1.2369853e-38
0.01228974 0.0096326536 0.79400003 1.4483602e-38
0.015020788 0.0096326536 0.79400003 1.7433862e-38
0.017796548 0.0096569173 0.796 1.7793731e-38
0.020663461 0.0097175753 0.801 1.7885927e-38
0.023418637 0.0097175753 0.801 1.7793378e-38
-0.020431338 0.0068631242 0.792 1.8352611e-38
-0.014945141 0.0068457937 0.79000002 1.753391e-38
-0.012227852 0.0068457937 0.79000002 1.688854e-38
-0.0094864592 0.0068284618 0.78799999 1.559817e-38
-0.0067760497 0.0068284618 0.78799999 1.4584018e-38
-0.0040604807 0.0068197967 0.787 1.4765892e-38
-0.0013535108 0.0068197967 0.787 1.439711e-38
0.0013534593 0.0068197967 0.787 1.3660983e-38
0.0040656403 0.0068284618 0.78799999 1.32922e-38
0.0067760497 0.0068284618 0.78799999 1.2461372e-38
0.0095105376 0.0068457937 0.79000002 1.3198937e-38
0.012258783 0.0068631242 0.792 7.8505e-39
0.015020788 0.0068804557 0.79400003 1.6424671e-38
0.017796548 0.0068977866 0.796 1.8162514e-38
0.020663461 0.0069411141 0.801 1.7793731e-38
0.023418637 0.0069411141 0.801 1.7701173e-38
0.026239114 0.0069584455 0.80299997 1.7608977e-38
0.029001119 0.0069584455 0.80299997 1.7609355e-38
-0.017707145 0.0041178591 0.792 1.8540204e-38
-0.014945141 0.0041074604 0.79000002 1.6796713e-38
-0.012227852 0.0041074604 0.79000002 1.6151344e-38
-0.0094864592 0.0040970617 0.78799999 1.5319785e-38
-0.0067674508 0.0040918626 0.787 1.5319785e-38
-0.0040604807 0.0040918626 0.787 1.4858804e-38
-0.0013535108 0.0040918626 0.787 1.4582217e-38
0.0013534593 0.0040918626 0.787 1.3753176e-38
0.0040604807 0.0040918626 0.787 1.3384393e-38
0.0067760497 0.0040970617 0.78799999 1.2554283e-38
0.0095105376 0.0041074604 0.79000002 1.1908914e-38
0.012258783 0.0041178591 0.792 5.000371e-39
0.015020788 0.0041282577 0.79400003 1.1915024e-38
0.017796548 0.0041386564 0.796 1.6860921e-38
0.020611865 0.0041542542 0.79900002 1.7414094e-38
0.023418637 0.0041646529 0.801 1.9335087e-38
0.026239114 0.0041750516 0.80299997 1.9519478e-38
0.029001119 0.0041750516 0.80299997 1.8985801e-38
-0.017707145 0.0013726327 0.792 1.7988456e-38
-0.014945141 0.0013691665 0.79000002 1.6611966e-38
-0.012196895 0.0013657002 0.78799999 1.6150988e-38
-0.0094744209 0.0013639672 0.787 1.5780775e-38
-0.0067674508 0.0013639672 0.787 1.5780775e-38
-0.0040501622 0.0013605009 0.78500003 1.4861325e-38
-0.0013500712 0.0013605009 0.78500003 1.4584738e-38
0.0013534593 0.0013639672 0.787 1.4305636e-38
0.0040604807 0.0013639672 0.787 1.3475875e-38
0.0067760497 0.0013657002 0.78799999 1.2460629e-38
0.0095105376 0.0013691665 0.79000002 1.1907455e-38
0.012258783 0.0013726327 0.792 1.1997154e-38
0.015020788 0.001376099 0.79400003 1.3380088e-38
0.017796548 0.0013795652 0.796 1.6106009e-38
0.020611865 0.0013847646 0.79900002 1.592162e-38
0.023418637 0.0013882307 0.801 1.8668793e-38
0.026239114 0.0013916971 0.80299997 2.3465104e-38
0.029001119 0.0013916971 0.80299997 1.797633e-38
-0.017595356 -0.0013639672 0.787 1.7529986e-38
-0.014888387 -0.0013639672 0.787 1.6796364e-38
-0.012181417 -0.0013639672 0.787 1.6058799e-38
-0.0094744209 -0.0013639672 0.787 1.6057353e-38
-0.0067674508 -0.0013639672 0.787 1.5596375e-38
-0.0040501622 -0.0013605009 0.78500003 1.4675498e-38
-0.0013500712 -0.0013605009 0.78500003 1.3753541e-38
0.0013534593 -0.0013639672 0.787 1.3565875e-38
0.0040604807 -0.0013639672 0.787 1.282831e-38
0.0067674508 -0.0013639672 0.787 1.1630145e-38
0.0094864592 -0.0013657002 0.78799999 1.1076971e-38
0.012258783 -0.0013726327 0.792 1.1352111e-38
0.015020788 -0.001376099 0.79400003 1.5316523e-38
0.017796548 -0.0013795652 0.796 1.9883954e-38
0.020611865 -0.0013847646 0.79900002 1.6288325e-38
0.023360165 -0.0013847646 0.79900002 1.4464965e-38
0.026075732 -0.0013830314 0.79799998 1.9443529e-38
0.028820537 -0.0013830314 0.79799998 1.7517157e-38
-0.017595356 -0.0040918626 0.787 1.7251575e-38
-0.014888387 -0.0040918626 0.787 1.6242455e-38
-0.012181417 -0.0040918626 0.787 1.6058063e-38
-0.0094503444 -0.0040814639 0.78500003 1.5596357e-38
-0.006750253 -0.0040814639 0.78500003 1.46744e-38
-0.0040501622 -0.0040814639 0.78500003 1.3935772e-38
-0.0013500712 -0.0040814639 0.78500003 1.227625e-38
0.0013500198 -0.0040814639 0.78500003 1.1263505e-38
0.0040501622 -0.0040814639 0.78500003 1.0618136e-38
0.0067674508 -0.0040918626 0.787 1.043053e-38
0.0094864592 -0.0040970617 0.78799999 1.043053e-38
0.012227826 -0.0041074604 0.79000002 1.1072675e-38
0.014982951 -0.0041178591 0.792 4.7112327e-39
0.017751835 -0.0041282577 0.79400003 6.7065023e-39
0.020534474 -0.0041386564 0.796 1.7216797e-38
0.023213983 -0.0041282577 0.79400003 1.6870365e-38
0.02594503 -0.0041282577 0.79400003 1.7515735e-38
0.028820537 -0.0041490546 0.79799998 1.7793381e-38
-0.017617714 -0.0068284618 0.78799999 1.6328569e-38
-0.014888387 -0.0068197967 0.787 1.5688555e-38
-0.012181417 -0.0068197967 0.787 1.5596359e-38
-0.0094503444 -0.0068024658 0.78500003 1.4858792e-38
-0.006750253 -0.0068024658 0.78500003 1.3660248e-38
-0.0040501622 -0.0068024658 0.78500003 1.2922333e-38
-0.0013500712 -0.0068024658 0.78500003 1.1908181e-38
0.0013500198 -0.0068024658 0.78500003 1.0802932e-38
0.0040501622 -0.0068024658 0.78500003 9.3278021e-39
0.0067674508 -0.0068197967 0.787 9.3248916e-39
0.0094864592 -0.0068284618 0.78799999 9.1405017e-39
0.012227826 -0.0068457937 0.79000002 8.9543336e-39
0.014982951 -0.0068631242 0.792 4.1602197e-39
0.017751835 -0.0068804557 0.79400003 7.0759967e-39
0.020534474 -0.0068977866 0.796 6.5228314e-39
0.023213983 -0.0068804557 0.79400003 2.9398121e-39
0.02594503 -0.0068804557 0.79400003 1.2067175e-38
-0.017617714 -0.0095598232 0.78799999 1.4758432e-38
-0.014888387 -0.0095476927 0.787 1.3940425e-38
-0.012181417 -0.0095476927 0.787 1.3940425e-38
-0.0094744209 -0.0095476927 0.787 1.3385081e-38
-0.0067674508 -0.0095476927 0.787 1.2924103e-38
-0.0040604807 -0.0095476927 0.787 1.2002152e-38
-0.0013500712 -0.009523429 0.78500003 1.163337e-38
0.0013500198 -0.009523429 0.78500003 1.0157546e-38
0.0040501622 -0.009523429 0.78500003 9.6043722e-39
0.0067674508 -0.0095476927 0.787 8.1278001e-39
0.0095105376 -0.0095840879 0.79000002 7.8512175e-39
0.012258783 -0.0096083507 0.792 7.2037055e-39
0.014982951 -0.0096083507 0.792 3.4237421e-39
0.017751835 -0.0096326144 0.79400003 9.7792458e-39
0.020534474 -0.0096568782 0.796 1.5403179e-38
0.023272453 -0.0096568782 0.796 1.7425324e-38
0.026010379 -0.0096568782 0.796 1.7701911e-38
-0.020379744 -0.01232242 0.79000002 1.7796611e-38
-0.01766243 -0.01232242 0.79000002 1.5122938e-38
-0.014945141 -0.01232242 0.79000002 1.3294671e-38
-0.012227852 -0.01232242 0.79000002 1.3110279e-38
-0.0094864592 -0.012291224 0.78799999 1.2648588e-38
-0.0067760497 -0.012291224 0.78799999 1.218761e-38
-0.0040656403 -0.012291224 0.78799999 1.1448622e-38
-0.0013535108 -0.012275627 0.787 1.0250079e-38
0.0013534593 -0.012275627 0.787 9.5121513e-39
0.0040604807 -0.012275627 0.787 8.7745947e-39
0.0067760497 -0.012291224 0.78799999 8.0359674e-39
0.0095105376 -0.01232242 0.79000002 7.0218281e-39
0.012258783 -0.012353616 0.792 8.5809072e-40
0.014982951 -0.012353616 0.792 9.4322843e-39
-0.017707145 -0.015098842 0.792 1.7241274e-38
-0.012258808 -0.015098842 0.792 1.20025e-38
-0.0095346142 -0.015098842 0.792 1.1451461e-38
-0.0068104463 -0.015098842 0.792 1.0621708e-38
-0.0040862779 -0.015098842 0.792 9.5146596e-39
-0.0013586703 -0.015060714 0.79000002 8.8693e-39
0.0013586186 -0.015060714 0.79000002 9.0497438e-39
0.0040759593 -0.015060714 0.79000002 8.4043828e-39
0.0068104463 -0.015098842 0.792 7.6654011e-39
0.0095586926 -0.015136971 0.79400003 4.9917614e-39
0.012320695 -0.015175099 0.796 1.272876e-38
0.015058622 -0.015175099 0.796 1.6969759e-38
-0.042224735 -0.017844107 0.792 1.8640613e-38
-0.039301068 -0.017753985 0.78799999 1.5782549e-38
-0.036590658 -0.017753985 0.78799999 1.623426e-38
-0.034138199 -0.01788917 0.79400003 1.7340607e-38
-0.015020813 -0.01788917 0.79400003 1.43031e-38
-0.012289765 -0.01788917 0.79400003 1.4395295e-38
-0.0095586926 -0.01788917 0.79400003 1.3567376e-38
-0.0068104463 -0.017844107 0.792 1.1262485e-38
-0.0040862779 -0.017844107 0.792 9.9746078e-39
-0.00136211 -0.017844107 0.792 8.7760646e-39
0.0013620582 -0.017844107 0.792 8.3129061e-39
0.0040862779 -0.017844107 0.792 7.6675465e-39
0.0068276445 -0.01788917 0.79400003 6.5604983e-39
0.0095586926 -0.01788917 0.79400003 5.0853906e-39
0.012320695 -0.017934229 0.796 1.8345849e-38
0.015058622 -0.017934229 0.796 1.7792675e-38
-0.04211811 -0.020537341 0.79000002 1.8824641e-38
-0.039301068 -0.020485347 0.78799999 1.6335359e-38
-0.036590658 -0.020485347 0.78799999 1.4952435e-38
-0.033880223 -0.020485347 0.78799999 1.5321217e-38
-0.031248927 -0.020537341 0.79000002 1.6511891e-38
-0.022833904 -0.020303372 0.78100002 1.6880686e-38
-0.020199163 -0.020355364 0.78299999 1.69754e-38
-0.017505927 -0.020355364 0.78299999 1.6422226e-38
-0.012289765 -0.020641329 0.79400003 1.4399601e-38
-0.0095586926 -0.020641329 0.79400003 1.2464994e-38
-0.0068104463 -0.020589333 0.792 1.0528886e-38
-0.0040759593 -0.020537341 0.79000002 1.0344073e-38
-0.0013586703 -0.020537341 0.79000002 9.790899e-39
0.0013620582 -0.020589333 0.792 9.0515361e-39
0.0040862779 -0.020589333 0.792 8.4061765e-39
0.0068104463 -0.020589333 0.792 7.0229043e-39
0.0095346142 -0.020589333 0.792 4.9946313e-39
0.012258783 -0.020589333 0.792 1.0242603e-38
0.015020788 -0.020641329 0.79400003 1.6235319e-38
0.017796548 -0.020693321 0.796 1.7793366e-38
-0.042011477 -0.023216747 0.78799999 1.7902682e-38
-0.039251193 -0.023187285 0.787 1.6427552e-38
-0.036451355 -0.023128361 0.78500003 1.6886733e-38
-0.033751238 -0.023128361 0.78500003 1.6610146e-38
-0.03113026 -0.023187285 0.787 1.6334275e-38
-0.028278824 -0.023069434 0.78299999 1.6242079e-38
-0.025520235 -0.023010509 0.78100002 1.6150953e-38
-0.022833904 -0.023010509 0.78100002 1.6519735e-38
-0.020199163 -0.023069434 0.78299999 1.6335369e-38
-0.017505927 -0.023069434 0.78299999 1.6704152e-38
-0.014850551 -0.023128361 0.78500003 1.6151681e-38
-0.012150461 -0.023128361 0.78500003 1.5321921e-38
-0.0094503444 -0.023128361 0.78500003 1.4951706e-38
-0.006750253 -0.023128361 0.78500003 1.2831207e-38
-0.0040398431 -0.023069434 0.78299999 1.1174514e-38
-0.0013466314 -0.023069434 0.78299999 1.0160378e-38
0.0013500198 -0.023128361 0.78500003 1.0710315e-38
0.0040501622 -0.023128361 0.78500003 1.126348e-38
0.006750253 -0.023128361 0.78500003 1.23695e-38
0.0094744209 -0.023187285 0.787 1.2646087e-38
0.012181391 -0.023187285 0.787 1.1629782e-38
0.014982951 -0.0233346 0.792 9.0483075e-39
0.017707119 -0.0233346 0.792 1.4113741e-38
-0.047432322 -0.025948148 0.78799999 1.7807999e-38
-0.044721887 -0.025948148 0.78799999 1.7992391e-38
-0.041958164 -0.02591522 0.787 1.744208e-38
-0.039151445 -0.025849363 0.78500003 1.6520123e-38
-0.036451355 -0.025849363 0.78500003 1.7165133e-38
-0.033751238 -0.025849363 0.78500003 1.744172e-38
-0.031051148 -0.025849363 0.78500003 1.7994893e-38
-0.028206594 -0.025717646 0.78100002 1.7533915e-38
-0.025487557 -0.025684714 0.77999997 1.7442783e-38
-0.022804664 -0.025684714 0.77999997 1.7166196e-38
-0.020147571 -0.025717646 0.78100002 1.6889249e-38
-0.017461212 -0.025717646 0.78100002 1.6797054e-38
-0.01477488 -0.025717646 0.78100002 1.6336057e-38
-0.012088547 -0.025717646 0.78100002 1.6428253e-38
-0.0094021894 -0.025717646 0.78100002 1.6704843e-38
-0.006715857 -0.025717646 0.78100002 1.6889234e-38
-0.0040243645 -0.025684714 0.77999997 1.6981427e-38
-0.0013414719 -0.025684714 0.77999997 1.6981427e-38
0.0013414208 -0.025684714 0.77999997 1.670306e-38
0.0040243645 -0.025684714 0.77999997 1.6334278e-38
0.0067072571 -0.025684714 0.77999997 1.5228306e-38
0.0094021894 -0.025717646 0.78100002 1.4214154e-38
0.012181391 -0.02591522 0.787 1.421164e-38
0.014945115 -0.026014008 0.79000002 1.4396031e-38
0.017662404 -0.026014008 0.79000002 1.2553565e-38
0.020431288 -0.026079865 0.792 1.3475521e-38
0.023155507 -0.026079865 0.792 1.6690251e-38
-0.044721887 -0.028679509 0.78799999 1.7716523e-38
-0.041851539 -0.028570326 0.78500003 1.7349168e-38
-0.039051697 -0.028497534 0.78299999 1.688819e-38
-0.036265619 -0.028424744 0.78100002 1.7441364e-38
-0.03357926 -0.028424744 0.78100002 1.7994537e-38
-0.030892927 -0.028424744 0.78100002 1.8179279e-38
-0.028170476 -0.028388346 0.77999997 1.8732453e-38
-0.025422206 -0.028315555 0.778 1.8731737e-38
-0.022746192 -0.028315555 0.778 1.8270759e-38
-0.020070178 -0.028315555 0.778 1.8455503e-38
-0.017349426 -0.028242767 0.77600002 1.8547699e-38
-0.014680291 -0.028242767 0.77600002 1.8639541e-38
-0.012042113 -0.028315555 0.778 1.8547345e-38
-0.0093660736 -0.028315555 0.778 1.9193431e-38
-0.0066900598 -0.028315555 0.778 1.900904e-38
-0.0040037273 -0.028242767 0.77600002 1.9008311e-38
-0.0013345927 -0.028242767 0.77600002 1.9284898e-38
0.0013345419 -0.028242767 0.77600002 1.7810149e-38
0.0040037273 -0.028242767 0.77600002 1.7625758e-38
0.0066900598 -0.028315555 0.778 1.743919e-38
0.0093901502 -0.028388346 0.77999997 1.6056256e-38
0.012088522 -0.028424744 0.78100002 1.421344e-38
0.014888361 -0.028643116 0.787 1.3844658e-38
0.017617688 -0.028679509 0.78799999 1.3106025e-38
0.020379692 -0.028752301 0.79000002 1.2645047e-38
0.023155507 -0.028825091 0.792 1.4666206e-38
-0.044948906 -0.031570356 0.792 1.7072581e-38
-0.041851539 -0.031291328 0.78500003 1.7349168e-38
-0.038951948 -0.03113188 0.78100002 1.7441364e-38
-0.03621918 -0.031092016 0.77999997 1.7349521e-38
-0.033536259 -0.031092016 0.77999997 1.7441717e-38
-0.030853368 -0.031092016 0.77999997 1.882323e-38
-0.028098246 -0.031012295 0.778 1.9099817e-38
-0.025356853 -0.030932572 0.77600002 1.8916131e-38
-0.02268772 -0.030932572 0.77600002 1.8455153e-38
-0.01996699 -0.030852847 0.77399999 1.8640623e-38
-0.017282352 -0.030812988 0.773 1.8364036e-38
-0.014623537 -0.030812988 0.773 1.9101601e-38
-0.011964721 -0.030812988 0.773 1.891721e-38
-0.0093058804 -0.030812988 0.773 1.9283103e-38
-0.0066556633 -0.030852847 0.77399999 1.7715777e-38
-0.0039934083 -0.030852847 0.77399999 1.7532105e-38
-0.0013311529 -0.030852847 0.77399999 1.531941e-38
0.0013311022 -0.030852847 0.77399999 1.5872937e-38
0.0039934083 -0.030852847 0.77399999 1.5411958e-38
0.0066556633 -0.030852847 0.77399999 1.5317214e-38
0.0093660736 -0.031012295 0.778 1.5409409e-38
0.012042088 -0.031012295 0.778 1.5224353e-38
0.014774854 -0.03113188 0.78100002 1.3841418e-38
0.017595332 -0.03137105 0.787 1.2554267e-38
0.020379692 -0.031490635 0.79000002 1.2185484e-38
0.023097035 -0.031490635 0.79000002 1.1813102e-38
0.025814323 -0.031490635 0.79000002 1.5593122e-38
-0.047432322 -0.034142271 0.78799999 1.7256246e-38
-0.044721887 -0.034142271 0.78799999 1.697966e-38
-0.041958164 -0.034098946 0.787 1.7255896e-38
-0.038951948 -0.03383898 0.78100002 1.7624679e-38
-0.03621918 -0.033795647 0.77999997 1.6979297e-38
-0.033536259 -0.033795647 0.77999997 1.7071492e-38
-0.03077426 -0.033708993 0.778 1.7810502e-38
-0.028098246 -0.033708993 0.778 1.827148e-38
-0.025258824 -0.033492357 0.773 1.891794e-38
-0.022600008 -0.033492357 0.773 1.8456962e-38
-0.019941194 -0.033492357 0.773 1.8362954e-38
-0.017282352 -0.033492357 0.773 1.8731737e-38
-0.014585701 -0.033405703 0.77100003 1.7626458e-38
-0.011933764 -0.033405703 0.77100003 1.716548e-38
-0.0092818029 -0.033405703 0.77100003 1.6426811e-38
-0.0066298665 -0.033405703 0.77100003 1.476729e-38
-0.0039882488 -0.033492357 0.773 1.5687826e-38
-0.0013311529 -0.033535682 0.77399999 1.3936109e-38
0.0013311022 -0.033535682 0.77399999 1.4397771e-38
0.0039934083 -0.033535682 0.77399999 1.421338e-38
0.0066556633 -0.033535682 0.77399999 1.5316901e-38
0.0093419962 -0.033622339 0.77600002 1.4487141e-38
0.012042088 -0.033708993 0.778 1.2552787e-38
0.014755935 -0.033795647 0.77999997 1.2368396e-38
0.017505901 -0.033925634 0.78299999 1.1907452e-38
0.020328097 -0.034142271 0.78799999 1.1815257e-38
0.023097035 -0.034228928 0.79000002 1.0708562e-38
0.025814323 -0.034228928 0.79000002 1.3474431e-38
0.028603842 -0.034315582 0.792 1.7056895e-38
-0.047432322 -0.036873672 0.78799999 1.6979306e-38
-0.044665135 -0.036826879 0.787 1.7071502e-38
-0.041958164 -0.036826879 0.787 1.6979304e-38
-0.038951948 -0.036546115 0.78100002 1.6979304e-38
-0.03621918 -0.036499318 0.77999997 1.6703801e-38
-0.033536259 -0.036499318 0.77999997 1.6242823e-38
-0.03077426 -0.036405731 0.778 1.5414835e-38
-0.028098246 -0.036405731 0.778 1.7443139e-38
-0.025258824 -0.036171764 0.773 1.7716869e-38
-0.022600008 -0.036171764 0.773 1.6794912e-38
-0.019941194 -0.036171764 0.773 1.6426107e-38
-0.017237637 -0.036078177 0.77100003 1.5965129e-38
-0.014585701 -0.036078177 0.77100003 1.5780372e-38
-0.011933764 -0.036078177 0.77100003 1.5042807e-38
-0.0092818029 -0.036078177 0.77100003 1.3291753e-38
-0.0066298665 -0.036078177 0.77100003 1.4582472e-38
-0.0039882488 -0.036171764 0.773 1.2096115e-38
-0.0013294332 -0.036171764 0.773 1.4769788e-38
0.0013293825 -0.036171764 0.773 1.264497e-38
0.0039882488 -0.036171764 0.773 1.4581078e-38
0.0066470644 -0.036171764 0.773 1.1817723e-38
0.0093179187 -0.036218554 0.77399999 1.1448945e-38
0.012042088 -0.036405731 0.778 1.1538278e-38
0.014755935 -0.036499318 0.77999997 1.0985104e-38
0.017461188 -0.036546115 0.78100002 1.1536502e-38
0.020328097 -0.036873672 0.78799999 1.1259915e-38
0.023038559 -0.036873672 0.78799999 9.9713442e-39
0.025814323 -0.036967263 0.79000002 1.2552822e-38
0.028603842 -0.037060849 0.792 1.650444e-38
-0.047432322 -0.039605033 0.78799999 1.679385e-38
-0.044665135 -0.039554775 0.787 1.6609459e-38
-0.041958164 -0.039554775 0.787 1.6426117e-38
-0.038951948 -0.039253216 0.78100002 1.6426117e-38
-0.03621918 -0.039202951 0.77999997 1.614918e-38
-0.033536259 -0.039202951 0.77999997 1.614918e-38
-0.03077426 -0.039102431 0.778 1.5874052e-38
-0.028098246 -0.039102431 0.778 1.5781856e-38
-0.025258824 -0.038851131 0.773 1.6425784e-38
-0.022600008 -0.038851131 0.773 1.5596023e-38
-0.019889599 -0.038750611 0.77100003 1.5135747e-38
-0.017237637 -0.038750611 0.77100003 1.4674769e-38
-0.014585701 -0.038750611 0.77100003 1.4121582e-38
-0.011933764 -0.038750611 0.77100003 1.3291822e-38
-0.0092818029 -0.038750611 0.77100003 1.2738658e-38
-0.0066298665 -0.038750611 0.77100003 1.4305984e-38
-0.0039779302 -0.038750611 0.77100003 1.1359298e-38
-0.0013294332 -0.038851131 0.773 1.1912472e-38
0.0013293825 -0.038851131 0.773 1.0435568e-38
0.0039882488 -0.038851131 0.773 1.080435e-38
0.0066470644 -0.038851131 0.773 1.1078751e-38
0.0093179187 -0.038901389 0.77399999 1.1631925e-38
0.01201113 -0.039001912 0.77600002 1.0616363e-38
0.0147181 -0.039102431 0.778 1.0339776e-38
0.017438829 -0.039202951 0.77999997 1.0430157e-38
0.020328097 -0.039605033 0.78799999 1.0337962e-38
0.023038559 -0.039605033 0.78799999 9.323814e-39
0.025814323 -0.039705556 0.79000002 1.2919437e-38
0.028603842 -0.039806075 0.792 1.6872504e-38
-0.047432322 -0.042336434 0.78799999 1.6700941e-38
-0.044721887 -0.042336434 0.78799999 1.6332159e-38
-0.041851539 -0.042175259 0.78500003 1.6057335e-38
-0.039051697 -0.042067803 0.78299999 1.614953e-38
-0.03621918 -0.041906621 0.77999997 1.5596372e-38
-0.033536259 -0.041906621 0.77999997 1.5504176e-38
-0.03077426 -0.041799169 0.778 1.5504179e-38
-0.028098246 -0.041799169 0.778 1.485881e-38
-0.025291501 -0.041584261 0.77399999 1.4214151e-38
-0.022600008 -0.041530538 0.773 1.4582933e-38
-0.019889599 -0.041423086 0.77100003 1.4950271e-38
-0.017237637 -0.041423086 0.77100003 1.3567337e-38
-0.014585701 -0.041423086 0.77100003 1.3660983e-38
-0.011933764 -0.041423086 0.77100003 1.3384396e-38
-0.0092818029 -0.041423086 0.77100003 1.0897266e-38
-0.0066298665 -0.041423086 0.77100003 1.1542636e-38
-0.0039779302 -0.041423086 0.77100003 1.1170982e-38
-0.0013294332 -0.041530538 0.773 1.2369525e-38
0.0013293825 -0.041530538 0.773 1.107881e-38
0.0039882488 -0.041530538 0.773 1.0894419e-38
0.0066470644 -0.041530538 0.773 1.0709265e-38
0.0093179187 -0.041584261 0.77399999 1.0340483e-38
0.01201113 -0.041691717 0.77600002 9.9713596e-39
0.0147181 -0.041799169 0.778 9.9713596e-39
0.017438829 -0.041906621 0.77999997 9.7858823e-39
0.020328097 -0.042336434 0.78799999 9.878078e-39
0.023097035 -0.04244389 0.79000002 7.8505e-39
0.025814323 -0.04244389 0.79000002 1.329002e-38
0.028603842 -0.042551339 0.792 1.668811e-38
-0.041851539 -0.044896223 0.78500003 1.5503435e-38
-0.039051697 -0.044781834 0.78299999 1.5503435e-38
-0.036265619 -0.044667449 0.78100002 1.5319785e-38
-0.03357926 -0.044667449 0.78100002 1.522759e-38
-0.030853368 -0.044610251 0.77999997 1.5043195e-38
-0.028098246 -0.044495869 0.778 1.4582217e-38
-0.025291501 -0.044267096 0.77399999 1.4490387e-38
-0.022600008 -0.044209909 0.773 1.4490387e-38
-0.019889599 -0.044095524 0.77100003 1.4674766e-38
-0.017237637 -0.044095524 0.77100003 1.4490375e-38
-0.014585701 -0.044095524 0.77100003 1.3660614e-38
-0.011933764 -0.044095524 0.77100003 1.310744e-38
-0.0092818029 -0.044095524 0.77100003 1.2093318e-38
-0.0066298665 -0.044095524 0.77100003 1.2185513e-38
-0.0039779302 -0.044095524 0.77100003 1.1631273e-38
-0.0013294332 -0.044209909 0.773 1.1354686e-38
0.0013293825 -0.044209909 0.773 1.0986588e-38
0.0039882488 -0.044209909 0.773 1.0156827e-38
0.0066470644 -0.044209909 0.773 1.1168811e-38
0.0093179187 -0.044267096 0.77399999 1.0800029e-38
0.01201113 -0.044381484 0.77600002 1.0155035e-38
0.014755935 -0.044610251 0.77999997 9.8784479e-39
0.017461188 -0.044667449 0.78100002 9.6940539e-39
0.020328097 -0.045067795 0.78799999 8.4955107e-39
0.023097035 -0.045182183 0.79000002 3.9887498e-39
0.025879676 -0.045296565 0.792 1.2931726e-38
0.028603842 -0.045296565 0.792 1.6595907e-38
-0.041958164 -0.047738541 0.787 1.5135397e-38
-0.039151445 -0.047617223 0.78500003 1.5411984e-38
-0.036358483 -0.047495902 0.78299999 1.5042859e-38
-0.033665247 -0.047495902 0.78299999 1.4581881e-38
-0.030853368 -0.047313921 0.77999997 1.4674779e-38
-0.028098246 -0.047192607 0.778 1.4490387e-38
-0.025356853 -0.047071289 0.77600002 1.4490392e-38
-0.022629244 -0.046949971 0.77399999 1.3752827e-38
-0.019889599 -0.046767998 0.77100003 1.4212359e-38
-0.017237637 -0.046767998 0.77100003 1.4120163e-38
-0.014585701 -0.046767998 0.77100003 1.4027979e-38
-0.011933764 -0.046767998 0.77100003 1.3751392e-38
-0.0092818029 -0.046767998 0.77100003 1.2553577e-38
-0.0066298665 -0.046767998 0.77100003 1.1262838e-38
-0.0039779302 -0.046767998 0.77100003 1.3010605e-38
-0.0013259934 -0.046767998 0.77100003 1.1535475e-38
0.0013293825 -0.046889313 0.773 1.1261735e-38
0.0039882488 -0.046889313 0.773 1.1353931e-38
0.0066556633 -0.046949971 0.77399999 1.0708562e-38
0.0093179187 -0.046949971 0.77399999 1.0339779e-38
0.012042088 -0.047192607 0.778 1.0155754e-38
0.014755935 -0.047313921 0.77999997 9.9713624e-39
0.017438829 -0.047313921 0.77999997 9.325291e-39
0.020199113 -0.047495902 0.78299999 8.4033347e-39
0.023097035 -0.047920514 0.79000002 1.3558503e-38
0.025879676 -0.048041832 0.792 1.6969741e-38
0.028748306 -0.048284467 0.796 1.6134926e-38
-0.038951948 -0.050081722 0.78100002 1.4487138e-38
-0.036265619 -0.050081722 0.78100002 1.43039e-38
-0.03357926 -0.050081722 0.78100002 1.43039e-38
-0.03077426 -0.049889345 0.778 1.439606e-38
-0.028098246 -0.049889345 0.778 1.4211669e-38
-0.025422206 -0.049889345 0.778 1.4211659e-38
-0.02268772 -0.049761094 0.77600002 1.3658486e-38
-0.019941194 -0.04956872 0.773 1.2830167e-38
-0.017282352 -0.04956872 0.773 1.2000406e-38
-0.014623537 -0.04956872 0.773 1.227663e-38
-0.011964721 -0.04956872 0.773 1.2184434e-38
-0.0093058804 -0.04956872 0.773 1.218121e-38
-0.0066470644 -0.04956872 0.773 1.1996819e-38
-0.0039779302 -0.049440473 0.77100003 1.1075583e-38
-0.0013259934 -0.049440473 0.77100003 1.1167778e-38
0.0013293825 -0.04956872 0.773 1.0614232e-38
0.0039882488 -0.04956872 0.773 1.0614232e-38
0.0066556633 -0.049632844 0.77399999 9.8756131e-39
0.0093419962 -0.049761094 0.77600002 9.5990262e-39
0.012042088 -0.049889345 0.778 9.1394872e-39
0.0147181 -0.049889345 0.778 8.4941178e-39
0.017394114 -0.049889345 0.778 8.3093636e-39
0.020199113 -0.050209973 0.78299999 7.1108204e-39
0.023155507 -0.050787095 0.792 1.613709e-38
0.025879676 -0.050787095 0.792 1.7151242e-38
0.028748306 -0.0510436 0.796 1.6044163e-38
-0.038951948 -0.05278882 0.78100002 9.8708823e-39
-0.036265619 -0.05278882 0.78100002 9.04759e-39
-0.03357926 -0.05278882 0.78100002 8.5866189e-39
-0.03077426 -0.052586045 0.778 7.3963448e-39
-0.028098246 -0.052586045 0.778 7.7651217e-39
-0.025422206 -0.052586045 0.778 7.6729429e-39
-0.022746192 -0.052586045 0.778 7.4885516e-39
-0.020018585 -0.052450862 0.77600002 7.4871041e-39
-0.017282352 -0.052248091 0.773 6.7495502e-39
-0.014623537 -0.052248091 0.773 5.6457306e-39
-0.011964721 -0.052248091 0.773 5.0925652e-39
-0.0093058804 -0.052248091 0.773 3.1589976e-39
-0.0066470644 -0.052248091 0.773 2.7902207e-39
-0.0039882488 -0.052248091 0.773 1.6846074e-39
-0.0013294332 -0.052248091 0.773 1.0392478e-39
0.0013293825 -0.052248091 0.773 8.523482e-40
0.0039882488 -0.052248091 0.773 2.069886e-40
0.0066470644 -0.052248091 0.773 4.7998396e-40
0.0093419962 -0.052450862 0.77600002 4.7998396e-40
0.012042088 -0.052586045 0.778 4.1616547e-39
0.0147181 -0.052586045 0.778 5.6367693e-39
0.017394114 -0.052586045 0.778 7.0211359e-39
