# .PCD v0.7 - Point Cloud Data file format
VERSION 0.7
FIELDS x y z rgb
SIZE 4 4 4 4
TYPE F F F F
COUNT 1 1 1 1
WIDTH 461
HEIGHT 1
VIEWPOINT 0 0 0 1 0 0 0
POINTS 461
DATA ascii
-0.015228909 0.018137002 0.80500001 1.900974e-38
-0.012460027 0.018137002 0.80500001 1.836473e-38
-0.0097392714 0.018227125 0.80900002 1.7531791e-38
-0.0069566299 0.018227125 0.80900002 1.6333248e-38
-0.0041739885 0.018227125 0.80900002 1.8256495e-38
-0.026369819 0.015384845 0.80699998 1.8076043e-38
-0.023652531 0.015422974 0.80900002 2.0473129e-38
-0.02086989 0.015422974 0.80900002 1.8916494e-38
-0.018087223 0.015422974 0.80900002 1.8639907e-38
-0.015191073 0.015308589 0.80299997 1.817961e-38
-0.012429069 0.015308589 0.80299997 1.753424e-38
-0.0096911173 0.015346716 0.80500001 1.7162609e-38
-0.0069222338 0.015346716 0.80500001 1.6240653e-38
-0.0041533508 0.015346716 0.80500001 1.6418629e-38
-0.0013913471 0.015422974 0.80900002 1.7893759e-38
-0.026369819 0.012587585 0.80699998 1.9094463e-38
-0.023594057 0.012587585 0.80699998 1.9002267e-38
-0.020818295 0.012587585 0.80699998 1.836367e-38
-0.017953077 0.012525194 0.80299997 1.8087083e-38
-0.015153238 0.012493998 0.801 1.7624648e-38
-0.012398113 0.012493998 0.801 1.6241713e-38
-0.0096429624 0.012493998 0.801 1.605587e-38
-0.0068878378 0.012493998 0.801 1.5041718e-38
-0.0041430318 0.012525194 0.80299997 1.3291797e-38
-0.0013913471 0.012618782 0.80900002 1.6426448e-38
0.0013912943 0.012618782 0.80900002 1.8439113e-38
-0.029073378 0.0097661028 0.80500001 1.8532378e-38
-0.026239114 0.00974184 0.80299997 1.7716535e-38
-0.023477111 0.00974184 0.80299997 1.8085318e-38
-0.020663513 0.0097175753 0.801 1.826967e-38
-0.017863648 0.0096933125 0.79900002 1.7255518e-38
-0.015115402 0.0096933125 0.79900002 1.6241328e-38
-0.012367156 0.0096933125 0.79900002 1.5595959e-38
-0.0096188849 0.0096933125 0.79900002 1.4398857e-38
-0.0068878378 0.0097175753 0.801 1.3200314e-38
-0.0041327132 0.0097175753 0.801 1.264644e-38
-0.0013844678 0.0097661028 0.80500001 1.3752787e-38
0.0013912943 0.0098146303 0.80900002 1.8714621e-38
-0.031921368 0.0069931075 0.80699998 1.798099e-38
-0.029073378 0.0069757765 0.80500001 1.8995142e-38
-0.026304469 0.0069757765 0.80500001 1.7624327e-38
-0.023418637 0.0069411141 0.801 1.7808718e-38
-0.020611919 0.0069237831 0.79900002 1.7255891e-38
-0.017841289 0.0069151176 0.79799998 1.6241739e-38
-0.015096484 0.0069151176 0.79799998 1.5320839e-38
-0.012351678 0.0069151176 0.79799998 1.4306687e-38
-0.0096068457 0.0069151176 0.79799998 1.3568393e-38
-0.0068706395 0.0069237831 0.79900002 1.2646437e-38
-0.0041223941 0.0069237831 0.79900002 1.2642502e-38
-0.0013775885 0.0069411141 0.801 1.1720546e-38
0.0013878547 0.0069931075 0.80699998 1.7978836e-38
0.0041636694 0.0069931075 0.80699998 1.8255423e-38
-0.031921368 0.0041958485 0.80699998 1.8076746e-38
-0.029145608 0.0041958485 0.80699998 1.8445529e-38
-0.026239114 0.0041750516 0.80299997 1.7532129e-38
-0.023360165 0.0041542542 0.79900002 1.7255542e-38
-0.02058612 0.0041490546 0.79799998 1.6886772e-38
-0.017841289 0.0041490546 0.79799998 1.522725e-38
-0.015096484 0.0041490546 0.79799998 1.4581797e-38
-0.012351678 0.0041490546 0.79799998 1.3659841e-38
-0.0096068457 0.0041490546 0.79799998 1.2736818e-38
-0.0068706395 0.0041542542 0.79900002 1.227584e-38
-0.0041223941 0.0041542542 0.79900002 1.1905287e-38
-0.0013775885 0.0041646529 0.801 1.1352114e-38
0.0013844152 0.0041854503 0.80500001 1.5401978e-38
0.0041533508 0.0041854503 0.80500001 1.7983456e-38
0.0069222338 0.0041854503 0.80500001 1.7978486e-38
-0.034869112 0.0014055619 0.81099999 1.8439464e-38
-0.031921368 0.0013986295 0.80699998 1.8356882e-38
-0.029145608 0.0013986295 0.80699998 1.7803709e-38
-0.026173761 0.0013882307 0.801 1.7071499e-38
-0.023330927 0.0013830314 0.79799998 1.7071499e-38
-0.020534527 0.0013795652 0.796 1.642544e-38
-0.017796574 0.0013795652 0.796 1.412055e-38
-0.015058648 0.0013795652 0.796 1.2739305e-38
-0.012320722 0.0013795652 0.796 1.2370528e-38
-0.0096068457 0.0013830314 0.79799998 1.1538287e-38
-0.0068706395 0.0013847646 0.79900002 1.1353896e-38
-0.0041223941 0.0013847646 0.79900002 1.0524868e-38
-0.0013775885 0.0013882307 0.801 1.1354629e-38
0.0013809756 0.0013916971 0.80299997 1.227372e-38
0.0041533508 0.0013951632 0.80500001 1.7436675e-38
0.0069222338 0.0013951632 0.80500001 1.7886646e-38
-0.034869112 -0.0014055619 0.81099999 1.8255435e-38
-0.032079592 -0.0014055619 0.81099999 1.7989872e-38
-0.029145608 -0.0013986295 0.80699998 1.762109e-38
-0.02610841 -0.0013847646 0.79900002 1.6980388e-38
-0.023272453 -0.0013795652 0.796 1.6242823e-38
-0.020482935 -0.001376099 0.79400003 1.5688219e-38
-0.017751861 -0.001376099 0.79400003 1.3659915e-38
-0.015020813 -0.001376099 0.79400003 1.1726288e-38
-0.012320722 -0.0013795652 0.796 1.0343354e-38
-0.0095827691 -0.0013795652 0.796 1.0616694e-38
-0.0068620401 -0.0013830314 0.79799998 9.8791318e-39
-0.0041223941 -0.0013847646 0.79900002 9.6947629e-39
-0.0013741488 -0.0013847646 0.79900002 1.0432328e-38
0.0013775361 -0.0013882307 0.801 9.8823688e-39
0.0041430318 -0.0013916971 0.80299997 1.513752e-38
0.0069222338 -0.0013951632 0.80500001 1.7978851e-38
-0.034869112 -0.0042166458 0.81099999 1.8439104e-38
-0.032079592 -0.0042166458 0.81099999 1.7345215e-38
-0.029145608 -0.0041958485 0.80699998 1.7253019e-38
-0.02610841 -0.0041542542 0.79900002 1.6241726e-38
-0.023272453 -0.0041386564 0.796 1.5780748e-38
-0.020482935 -0.0041282577 0.79400003 1.3479816e-38
-0.017751861 -0.0041282577 0.79400003 1.2096881e-38
-0.015020813 -0.0041282577 0.79400003 1.1173471e-38
-0.012320722 -0.0041386564 0.796 1.0251514e-38
-0.0095827691 -0.0041386564 0.796 9.1448135e-39
-0.0068620401 -0.0041490546 0.79799998 8.4072527e-39
-0.0041172346 -0.0041490546 0.79799998 8.8649994e-39
-0.0013741488 -0.0041542542 0.79900002 9.4181732e-39
0.0013775361 -0.0041646529 0.801 8.590223e-39
0.0041430318 -0.0041750516 0.80299997 1.4121961e-38
0.0069394317 -0.0041958485 0.80699998 1.7978848e-38
-0.034783125 -0.0070104389 0.80900002 1.8255428e-38
-0.032000482 -0.0070104389 0.80900002 1.5593125e-38
-0.029073378 -0.0069757765 0.80500001 1.6054103e-38
-0.026173761 -0.0069411141 0.801 1.5321207e-38
-0.023330927 -0.0069151176 0.79799998 1.4860229e-38
-0.020534527 -0.0068977866 0.796 1.3018494e-38
-0.017796574 -0.0068977866 0.796 1.1543364e-38
-0.015058648 -0.0068977866 0.796 1.1266032e-38
-0.012320722 -0.0068977866 0.796 1.0159684e-38
-0.0096068457 -0.0069151176 0.79799998 8.8693182e-39
-0.0068620401 -0.0069151176 0.79799998 7.8551663e-39
-0.0041172346 -0.0069151176 0.79799998 8.4051003e-39
-0.0013741488 -0.0069237831 0.79900002 8.0363234e-39
0.0013775361 -0.0069411141 0.801 5.7339788e-39
0.0041430318 -0.0069584455 0.80299997 1.4215959e-38
0.0069394317 -0.0069931075 0.80699998 1.7518589e-38
-0.032000482 -0.0098145902 0.80900002 1.558854e-38
-0.029073378 -0.0097660637 0.80500001 1.5219758e-38
-0.026173761 -0.0097175362 0.801 1.4675482e-38
-0.023360165 -0.0096932733 0.79900002 1.3200352e-38
-0.020611919 -0.0096932733 0.79900002 1.2649689e-38
-0.017841289 -0.009681141 0.79799998 1.1451146e-38
-0.015096484 -0.009681141 0.79799998 1.0530241e-38
-0.012351678 -0.009681141 0.79799998 9.7926772e-39
-0.0096068457 -0.009681141 0.79799998 8.3179367e-39
-0.0068706395 -0.0096932733 0.79900002 7.4881803e-39
-0.0041223941 -0.0096932733 0.79900002 7.4842342e-39
-0.0013741488 -0.0096932733 0.79900002 6.193515e-39
0.0013775361 -0.0097175362 0.801 4.448017e-39
0.0041430318 -0.0097417999 0.80299997 1.4681732e-38
0.0069910265 -0.0098631177 0.81300002 1.7610066e-38
-0.026304469 -0.01255639 0.80500001 1.3293604e-38
-0.023477111 -0.012525194 0.80299997 1.2832626e-38
-0.020715106 -0.012525194 0.80299997 1.209613e-38
-0.017953077 -0.012525194 0.80299997 1.0897587e-38
-0.015153238 -0.012493998 0.801 1.0068189e-38
-0.012398113 -0.012493998 0.801 9.0540472e-39
-0.0096429624 -0.012493998 0.801 8.0409869e-39
-0.0068878378 -0.012493998 0.801 7.2112388e-39
-0.0041327132 -0.012493998 0.801 7.299487e-39
-0.0013775885 -0.012493998 0.801 4.1648832e-39
0.0013775361 -0.012493998 0.801 1.4573406e-38
-0.023594057 -0.015384804 0.80699998 1.3474743e-38
-0.020766702 -0.015346677 0.80500001 1.1359667e-38
-0.017953077 -0.015308549 0.80299997 9.7001453e-39
-0.015191073 -0.015308549 0.80299997 7.9513038e-39
-0.012429069 -0.015308549 0.80299997 6.1074192e-39
-0.0096670389 -0.015308549 0.80299997 9.6061742e-39
-0.0069050356 -0.015308549 0.80299997 9.0530004e-39
-0.0039779302 -0.014698495 0.77100003 9.5243454e-40
-0.0013259934 -0.014698495 0.77100003 9.2500286e-39
0.001325943 -0.014698495 0.77100003 1.8347649e-38
-0.026369819 -0.018182063 0.80699998 1.476404e-38
-0.020818295 -0.018182063 0.80699998 1.3200705e-38
-0.017997792 -0.018137002 0.80500001 1.2278749e-38
-0.015228909 -0.018137002 0.80500001 8.6009682e-39
-0.011871851 -0.017280847 0.76700002 1.3395113e-38
-0.009233648 -0.017280847 0.76700002 2.0295512e-38
-0.00659547 -0.017280847 0.76700002 1.8820381e-38
-0.0039676107 -0.017325908 0.76899999 1.2558926e-38
-0.0013259934 -0.017370969 0.77100003 1.2927708e-38
0.001325943 -0.017370969 0.77100003 1.7890562e-38
0.0039934083 -0.017438559 0.77399999 1.7060802e-38
-0.025193471 -0.020043407 0.77100003 1.6242054e-38
-0.019889599 -0.020043407 0.77100003 1.4771971e-38
-0.017237637 -0.020043407 0.77100003 1.8917905e-38
-0.014547865 -0.019991411 0.76899999 1.8454421e-38
-0.011871851 -0.019939419 0.76700002 1.9928116e-38
-0.009233648 -0.019939419 0.76700002 1.615129e-38
-0.00659547 -0.019939419 0.76700002 1.3938595e-38
-0.0039676107 -0.019991411 0.76899999 1.412339e-38
-0.0013259934 -0.020043407 0.77100003 1.5967303e-38
0.0013293825 -0.020095399 0.773 1.7253409e-38
0.0039934083 -0.020121394 0.77399999 1.5409496e-38
0.0066900598 -0.020225381 0.778 1.7518214e-38
0.0093901502 -0.020277373 0.77999997 1.696504e-38
-0.025193471 -0.02271588 0.77100003 1.8271828e-38
-0.022541536 -0.02271588 0.77100003 1.8917197e-38
-0.019889599 -0.02271588 0.77100003 1.8822853e-38
-0.017237637 -0.02271588 0.77100003 1.5227224e-38
-0.014547865 -0.022656953 0.76899999 1.6704152e-38
-0.011902807 -0.022656953 0.76899999 1.6796347e-38
-0.0092577254 -0.022656953 0.76899999 1.3847807e-38
-0.0066126678 -0.022656953 0.76899999 1.3018046e-38
-0.0039676107 -0.022656953 0.76899999 1.3384378e-38
-0.0013259934 -0.02271588 0.77100003 1.3292182e-38
0.0013293825 -0.022774804 0.773 1.2737872e-38
0.0039934083 -0.022804266 0.77399999 1.3014459e-38
0.0066728615 -0.022863194 0.77600002 1.5773272e-38
0.0093660736 -0.022922119 0.778 1.623425e-38
0.012073043 -0.022981044 0.77999997 1.7058635e-38
-0.031169813 -0.025948148 0.78799999 1.8640623e-38
-0.028459404 -0.025948148 0.78799999 1.9193438e-38
-0.022541536 -0.025388354 0.77100003 1.8456585e-38
-0.019889599 -0.025388354 0.77100003 1.6428984e-38
-0.017237637 -0.025388354 0.77100003 1.4953854e-38
-0.014585701 -0.025388354 0.77100003 1.7807269e-38
-0.011902807 -0.025322495 0.76899999 1.50414e-38
-0.0092577254 -0.025322495 0.76899999 1.2463455e-38
-0.0066126678 -0.025322495 0.76899999 1.2832238e-38
-0.0039676107 -0.025322495 0.76899999 1.2646465e-38
-0.0013259934 -0.025388354 0.77100003 1.2554269e-38
0.001325943 -0.025388354 0.77100003 1.1632648e-38
0.0039882488 -0.025454212 0.773 1.0618496e-38
0.0066728615 -0.025552999 0.77600002 1.310526e-38
0.0093660736 -0.025618857 0.778 1.6424303e-38
0.012073043 -0.025684714 0.77999997 1.5867963e-38
-0.03668353 -0.028752301 0.79000002 1.7902345e-38
-0.033880223 -0.028679509 0.78799999 1.8732105e-38
-0.031169813 -0.028679509 0.78799999 1.8549131e-38
-0.028459404 -0.028679509 0.78799999 1.8364739e-38
-0.025128119 -0.027988 0.76899999 1.7903398e-38
-0.02248306 -0.027988 0.76899999 1.8272181e-38
-0.019838003 -0.027988 0.76899999 1.4495732e-38
-0.017192923 -0.027988 0.76899999 1.643184e-38
-0.014547865 -0.027988 0.76899999 1.6057701e-38
-0.011933764 -0.028060792 0.77100003 1.1908897e-38
-0.009233648 -0.02791521 0.76700002 1.4120523e-38
-0.00659547 -0.02791521 0.76700002 1.3106371e-38
-0.0039572921 -0.02791521 0.76700002 1.1448991e-38
-0.001319114 -0.02791521 0.76700002 1.1633382e-38
0.0013225034 -0.027988 0.76899999 1.1539026e-38
0.0039779302 -0.028060792 0.77100003 1.0801461e-38
0.0066556633 -0.028169975 0.77399999 1.0710319e-38
0.0093660736 -0.028315555 0.778 1.3199601e-38
0.012073043 -0.028388346 0.77999997 1.5870124e-38
-0.039799813 -0.031809524 0.79799998 1.8732105e-38
-0.036544226 -0.03137105 0.787 1.9101238e-38
-0.033751238 -0.031291328 0.78500003 1.8732456e-38
-0.031051148 -0.031291328 0.78500003 1.7903396e-38
-0.028170476 -0.031092016 0.77999997 1.78112e-38
-0.025128119 -0.03065354 0.76899999 1.7994525e-38
-0.02248306 -0.03065354 0.76899999 1.6795982e-38
-0.01978641 -0.030573819 0.76700002 1.5597454e-38
-0.017148206 -0.030573819 0.76700002 1.7349171e-38
-0.014510029 -0.030573819 0.76700002 1.3480504e-38
-0.011871851 -0.030573819 0.76700002 1.2835134e-38
-0.009233648 -0.030573819 0.76700002 1.4490741e-38
-0.0065868706 -0.030533956 0.76599997 1.2646828e-38
-0.0039521325 -0.030533956 0.76599997 1.1172404e-38
-0.001319114 -0.030573819 0.76700002 1.0988013e-38
0.0013190639 -0.030573819 0.76700002 1.1170966e-38
0.0039779302 -0.030733265 0.77100003 1.0894379e-38
0.0066556633 -0.030852847 0.77399999 1.1076616e-38
0.0093419962 -0.030932572 0.77600002 1.1168811e-38
0.012042088 -0.031012295 0.778 1.3106385e-38
0.014774854 -0.03113188 0.78100002 1.4212733e-38
-0.039799813 -0.034575548 0.79799998 1.8733172e-38
-0.036451355 -0.034012292 0.78500003 1.7442758e-38
-0.033751238 -0.034012292 0.78500003 1.7166171e-38
-0.030892927 -0.03383898 0.78100002 1.7533534e-38
-0.028170476 -0.033795647 0.77999997 1.762573e-38
-0.025193471 -0.033405703 0.77100003 1.7166216e-38
-0.02248306 -0.033319045 0.76899999 1.5414499e-38
-0.01978641 -0.033232391 0.76700002 1.7070803e-38
-0.017148206 -0.033232391 0.76700002 1.6056651e-38
-0.014491111 -0.033189062 0.76599997 1.2467096e-38
-0.011856372 -0.033189062 0.76599997 1.385003e-38
-0.0092216088 -0.033189062 0.76599997 1.3936841e-38
-0.0065868706 -0.033189062 0.76599997 1.1908537e-38
-0.0039521325 -0.033189062 0.76599997 1.1263528e-38
-0.0013173942 -0.033189062 0.76599997 1.0433767e-38
0.0013190639 -0.033232391 0.76700002 1.1353558e-38
0.0039779302 -0.033405703 0.77100003 1.1261363e-38
0.0066556633 -0.033535682 0.77399999 1.0893666e-38
0.0093419962 -0.033622339 0.77600002 1.0709275e-38
0.012042088 -0.033708993 0.778 1.1538653e-38
0.014755935 -0.033795647 0.77999997 1.0432306e-38
0.017505901 -0.033925634 0.78299999 1.1445741e-38
0.020482883 -0.03440224 0.79400003 1.5502349e-38
-0.03960032 -0.03715444 0.79400003 1.7439556e-38
-0.036451355 -0.036733292 0.78500003 1.495493e-38
-0.033665247 -0.036639702 0.78299999 1.6798843e-38
-0.030892927 -0.036546115 0.78100002 1.6704505e-38
-0.028098246 -0.036405731 0.778 1.7073287e-38
-0.025193471 -0.036078177 0.77100003 1.6519763e-38
-0.022424588 -0.035891 0.76700002 1.6150981e-38
-0.01978641 -0.035891 0.76700002 1.6794213e-38
-0.017148206 -0.035891 0.76700002 1.4673714e-38
-0.014491111 -0.035844203 0.76599997 1.393793e-38
-0.011856372 -0.035844203 0.76599997 1.4122321e-38
-0.0092216088 -0.035844203 0.76599997 1.264825e-38
-0.0065868706 -0.035844203 0.76599997 1.1357511e-38
-0.0039521325 -0.035844203 0.76599997 1.1170243e-38
-0.0013173942 -0.035844203 0.76599997 1.0893656e-38
0.0013190639 -0.035891 0.76700002 1.0893654e-38
0.0039779302 -0.036078177 0.77100003 1.0893654e-38
0.0066556633 -0.036218554 0.77399999 1.0341196e-38
0.0093419962 -0.036312144 0.77600002 1.0433392e-38
0.012042088 -0.036405731 0.778 1.0985852e-38
0.014755935 -0.036499318 0.77999997 1.061707e-38
0.017505901 -0.036639702 0.78299999 8.4065352e-39
0.020431288 -0.037060849 0.792 1.3385074e-38
-0.03960032 -0.039906599 0.79400003 1.5964776e-38
-0.036451355 -0.039454255 0.78500003 1.6610538e-38
-0.03357926 -0.039253216 0.78100002 1.6887125e-38
-0.030853368 -0.039202951 0.77999997 1.6703799e-38
-0.028098246 -0.039102431 0.778 1.6335016e-38
-0.025193471 -0.038750611 0.77100003 1.642577e-38
-0.022424588 -0.038549572 0.76700002 1.6056987e-38
-0.01978641 -0.038549572 0.76700002 1.5871877e-38
-0.017148206 -0.038549572 0.76700002 1.4396747e-38
-0.014491111 -0.038499311 0.76599997 1.3662062e-38
-0.011856372 -0.038499311 0.76599997 1.347767e-38
-0.0092216088 -0.038499311 0.76599997 1.2278759e-38
-0.0065868706 -0.038499311 0.76599997 1.1541194e-38
-0.0039521325 -0.038499311 0.76599997 1.1078437e-38
-0.001319114 -0.038549572 0.76700002 1.0433068e-38
0.0013190639 -0.038549572 0.76700002 1.0248997e-38
0.0039779302 -0.038750611 0.77100003 1.061778e-38
0.0066556633 -0.038901389 0.77399999 1.0617067e-38
0.0093419962 -0.039001912 0.77600002 1.0617067e-38
0.01201113 -0.039001912 0.77600002 1.0708562e-38
0.0147181 -0.039102431 0.778 1.0892953e-38
0.017505901 -0.039353732 0.78299999 7.5764284e-39
0.020431288 -0.039806075 0.792 1.2923753e-38
0.023155507 -0.039806075 0.792 1.6595917e-38
-0.039301068 -0.042336434 0.78799999 1.587223e-38
-0.036451355 -0.042175259 0.78500003 1.6517247e-38
-0.03357926 -0.041960351 0.78100002 1.6701638e-38
-0.030853368 -0.041906621 0.77999997 1.6333927e-38
-0.028026015 -0.041691717 0.77600002 1.5872949e-38
-0.025193471 -0.041423086 0.77100003 1.5873309e-38
-0.02248306 -0.041315634 0.76899999 1.5504527e-38
-0.019838003 -0.041315634 0.76899999 1.5135391e-38
-0.017192923 -0.041315634 0.76899999 1.4397826e-38
-0.014510029 -0.041208182 0.76700002 1.3938283e-38
-0.011871851 -0.041208182 0.76700002 1.3108522e-38
-0.009233648 -0.041208182 0.76700002 1.2185847e-38
-0.0065868706 -0.041154452 0.76599997 1.1632673e-38
-0.0039521325 -0.041154452 0.76599997 1.1078786e-38
-0.001319114 -0.041208182 0.76700002 1.0802199e-38
0.0013225034 -0.041315634 0.76899999 1.0434136e-38
0.0039779302 -0.041423086 0.77100003 1.0434136e-38
0.0066556633 -0.041584261 0.77399999 1.0433054e-38
0.0093179187 -0.041584261 0.77399999 1.0248663e-38
0.01201113 -0.041691717 0.77600002 1.0524184e-38
0.0147181 -0.041799169 0.778 1.0155402e-38
0.017505901 -0.042067803 0.78299999 7.0257742e-39
0.020431288 -0.042551339 0.792 1.3479463e-38
0.023155507 -0.042551339 0.792 1.6411513e-38
-0.039301068 -0.045067795 0.78799999 1.5592433e-38
-0.036451355 -0.044896223 0.78500003 1.6241393e-38
-0.033665247 -0.044781834 0.78299999 1.6149197e-38
-0.030892927 -0.044667449 0.78100002 1.5780775e-38
-0.028026015 -0.044381484 0.77600002 1.5227601e-38
-0.025193471 -0.044095524 0.77100003 1.5320135e-38
-0.022541536 -0.044095524 0.77100003 1.4859157e-38
-0.019889599 -0.044095524 0.77100003 1.4490728e-38
-0.017237637 -0.044095524 0.77100003 1.4214141e-38
-0.014547865 -0.043981135 0.76899999 1.3660955e-38
-0.011871851 -0.043866754 0.76700002 1.3384368e-38
-0.009233648 -0.043866754 0.76700002 1.2646839e-38
-0.0065868706 -0.043809559 0.76599997 1.1540492e-38
-0.0039521325 -0.043809559 0.76599997 1.126318e-38
-0.001319114 -0.043866754 0.76700002 1.0986593e-38
0.0013225034 -0.043981135 0.76899999 1.1076991e-38
0.0039779302 -0.044095524 0.77100003 1.0800404e-38
0.0066556633 -0.044267096 0.77399999 1.0800034e-38
0.0093179187 -0.044267096 0.77399999 1.0615643e-38
0.01201113 -0.044381484 0.77600002 9.8791808e-39
0.0147181 -0.044495869 0.778 9.326007e-39
0.017707119 -0.045296565 0.792 9.6963562e-39
0.020431288 -0.045296565 0.792 1.615005e-38
0.023330927 -0.04563972 0.79799998 1.6595538e-38
-0.039301068 -0.047799196 0.78799999 1.5310551e-38
-0.036451355 -0.047617223 0.78500003 1.5686809e-38
-0.033751238 -0.047617223 0.78500003 1.5594613e-38
-0.031051148 -0.047617223 0.78500003 1.5411998e-38
-0.028351057 -0.047617223 0.78500003 1.5043215e-38
-0.025193471 -0.046767998 0.77100003 1.4674766e-38
-0.022541536 -0.046767998 0.77100003 1.458257e-38
-0.019889599 -0.046767998 0.77100003 1.4120866e-38
-0.017237637 -0.046767998 0.77100003 1.384428e-38
-0.014585701 -0.046767998 0.77100003 1.3383299e-38
-0.011902807 -0.046646677 0.76899999 1.2645734e-38
-0.0092577254 -0.046646677 0.76899999 1.2276241e-38
-0.00659547 -0.046525363 0.76700002 1.1630871e-38
-0.0039572921 -0.046525363 0.76700002 1.0894046e-38
-0.001319114 -0.046525363 0.76700002 1.0986242e-38
0.0013225034 -0.046646677 0.76899999 1.0525624e-38
0.0039779302 -0.046767998 0.77100003 1.0249037e-38
0.0066470644 -0.046889313 0.773 1.0524184e-38
0.0093179187 -0.046949971 0.77399999 1.0155402e-38
0.012042088 -0.047192607 0.778 1.0338739e-38
0.014755935 -0.047313921 0.77999997 9.8777613e-39
0.017751835 -0.048163153 0.79400003 1.8716063e-38
0.020586068 -0.048405785 0.79799998 2.0006802e-38
0.023330927 -0.048405785 0.79799998 2.0465612e-38
-0.042331368 -0.050915349 0.79400003 1.752146e-38
-0.03940082 -0.050658848 0.79000002 1.2727288e-38
-0.036544226 -0.050466474 0.787 1.3660306e-38
-0.033751238 -0.050338224 0.78500003 1.4490067e-38
-0.031051148 -0.050338224 0.78500003 1.4949247e-38
-0.028170476 -0.050017592 0.77999997 1.4580464e-38
-0.025291501 -0.049632844 0.77399999 1.4948506e-38
-0.022629244 -0.049632844 0.77399999 1.4395332e-38
-0.01996699 -0.049632844 0.77399999 1.365848e-38
-0.017282352 -0.04956872 0.773 1.2736524e-38
-0.014623537 -0.04956872 0.773 1.2183706e-38
-0.011933764 -0.049440473 0.77100003 1.1538336e-38
-0.0092577254 -0.049312219 0.76899999 1.0984807e-38
-0.00659547 -0.049183972 0.76700002 1.0800415e-38
-0.0039572921 -0.049183972 0.76700002 1.0337295e-38
-0.001319114 -0.049183972 0.76700002 1.0521686e-38
0.0013225034 -0.049312219 0.76899999 1.0337648e-38
0.0039882488 -0.04956872 0.773 1.0061061e-38
0.0066470644 -0.04956872 0.773 9.9678283e-39
0.0093179187 -0.049632844 0.77399999 9.045872e-39
0.012042088 -0.049889345 0.778 8.2182343e-39
0.014945115 -0.050658848 0.79000002 1.0523125e-38
0.017751835 -0.050915349 0.79400003 1.6598038e-38
0.020586068 -0.051171847 0.79799998 1.6690234e-38
0.023330927 -0.051171847 0.79799998 1.705833e-38
-0.042331368 -0.053667508 0.79400003 1.8718905e-38
-0.03940082 -0.053397141 0.79000002 1.6874992e-38
-0.036544226 -0.05319437 0.787 1.457217e-38
-0.033751238 -0.053059187 0.78500003 1.3926801e-38
-0.031051148 -0.053059187 0.78500003 1.0892597e-38
-0.028170476 -0.052721225 0.77999997 9.6018582e-39
-0.025422206 -0.052586045 0.778 6.8453318e-39
-0.02268772 -0.052450862 0.77600002 6.5687491e-39
-0.01996699 -0.052315678 0.77399999 6.1056256e-39
-0.017237637 -0.052112907 0.77100003 5.8290429e-39
-0.014547865 -0.051977724 0.76899999 4.9996536e-39
-0.011902807 -0.051977724 0.76899999 4.354294e-39
-0.0092577254 -0.051977724 0.76899999 3.2486807e-39
-0.00659547 -0.051842544 0.76700002 2.0501557e-39
-0.0039572921 -0.051842544 0.76700002 1.3118844e-39
-0.0013225537 -0.051977724 0.76899999 7.5871904e-40
0.001325943 -0.052112907 0.77100003 4.8070143e-40
0.0039882488 -0.052248091 0.773 1.9730282e-41
0.0066556633 -0.052315678 0.77399999 1.3990564e-39
-0.033149306 -0.054785382 0.77100003 2.01022e-38
-0.03049737 -0.054785382 0.77100003 1.9825969e-38
-0.027917666 -0.054927498 0.773 1.9088404e-38
-0.025422206 -0.055282783 0.778 1.8349024e-38
-0.022746192 -0.055282783 0.778 1.7427068e-38
-0.01996699 -0.054998551 0.77399999 1.5678951e-38
-0.017237637 -0.054785382 0.77100003 1.5125777e-38
-0.014547865 -0.054643266 0.76899999 1.4296372e-38
-0.011902807 -0.054643266 0.76899999 1.4388568e-38
-0.0092577254 -0.054643266 0.76899999 1.4570811e-38
-0.0039676107 -0.054643266 0.76899999 1.4848493e-38
-0.0013225537 -0.054643266 0.76899999 1.5217276e-38
0.001325943 -0.054785382 0.77100003 1.6599141e-38
