# .PCD v0.7 - Point Cloud Data file format
VERSION 0.7
FIELDS x y z rgb
SIZE 4 4 4 4
TYPE F F F F
COUNT 1 1 1 1
WIDTH 782
HEIGHT 1
VIEWPOINT 0 0 0 1 0 0 0
POINTS 782
DATA ascii
-0.012490982 0.074126922 0.80699998 2.0099351e-38
-0.0097151939 0.074126922 0.80699998 2.1662302e-38
-0.0069394317 0.074126922 0.80699998 2.2399867e-38
-0.0041533508 0.073943213 0.80500001 1.9905344e-38
-0.0013775885 0.073575795 0.801 2.1196063e-38
0.0013775361 0.073575795 0.801 2.0459315e-38
0.0041533508 0.073943213 0.80500001 2.1289076e-38
0.0069394317 0.074126922 0.80699998 1.9358494e-38
0.0097392714 0.074310638 0.80900002 1.9542885e-38
0.01255287 0.074494347 0.81099999 1.8900092e-38
-0.017997792 0.071152888 0.80500001 1.9083767e-38
-0.015266744 0.071329661 0.80699998 2.2033279e-38
-0.012490982 0.071329661 0.80699998 2.15723e-38
-0.0097151939 0.071329661 0.80699998 2.2951555e-38
-0.0069050356 0.070976116 0.80299997 1.8526165e-38
-0.0041430318 0.070976116 0.80299997 1.6857195e-38
-0.0013775885 0.070799336 0.801 2.2665491e-38
0.0013775361 0.070799336 0.801 1.8981273e-38
0.0041533508 0.071152888 0.80500001 2.1286164e-38
0.0069222338 0.071152888 0.80500001 1.9631061e-38
0.0097151939 0.071329661 0.80699998 2.0829604e-38
0.012490956 0.071329661 0.80699998 1.8899726e-38
0.01534239 0.071683221 0.81099999 1.8899726e-38
0.01813191 0.071683221 0.81099999 1.8255438e-38
-0.017997792 0.068362564 0.80500001 2.0744723e-38
-0.015228909 0.068362564 0.80500001 2.2212933e-38
-0.012429069 0.06819272 0.80299997 2.101439e-38
-0.0096429624 0.06802287 0.801 2.2855348e-38
-0.0068878378 0.06802287 0.801 1.7415805e-38
-0.0041327132 0.06802287 0.801 1.3358119e-38
-0.0013775885 0.06802287 0.801 1.9074222e-38
0.0013775361 0.06802287 0.801 2.2857201e-38
0.0041430318 0.06819272 0.80299997 2.267281e-38
0.0069050356 0.06819272 0.80299997 2.1012563e-38
0.0096911173 0.068362564 0.80500001 2.064378e-38
0.012490956 0.068532407 0.80699998 2.1200264e-38
0.01534239 0.068872094 0.81099999 1.981733e-38
0.018176626 0.069041945 0.81300002 1.8623855e-38
-0.023360165 0.065083541 0.79900002 1.9361433e-38
-0.017997792 0.065572277 0.80500001 2.0372675e-38
-0.015228909 0.065572277 0.80500001 2.3043028e-38
-0.012398113 0.065246448 0.801 2.2766441e-38
-0.0096188849 0.065083541 0.79900002 1.9996462e-38
-0.0068706395 0.065083541 0.79900002 1.7138441e-38
-0.0041223941 0.065083541 0.79900002 1.4281496e-38
-0.0013741488 0.065083541 0.79900002 2.2210293e-38
0.0013740966 0.065083541 0.79900002 2.1563177e-38
0.0041327132 0.065246448 0.801 2.064122e-38
0.0069050356 0.065409362 0.80299997 2.0643793e-38
0.0096911173 0.065572277 0.80500001 1.8523294e-38
0.012490956 0.065735184 0.80699998 1.8067755e-38
0.015304554 0.065898106 0.80900002 1.9542885e-38
0.018176626 0.066223927 0.81300002 1.8530943e-38
-0.023360165 0.062314011 0.79900002 1.9361072e-38
-0.020611919 0.062314011 0.79900002 2.0742513e-38
-0.017863648 0.062314011 0.79900002 2.10191e-38
-0.015115402 0.062314011 0.79900002 2.3042649e-38
-0.012367156 0.062314011 0.79900002 2.1383128e-38
-0.0096188849 0.062314011 0.79900002 1.7688378e-38
-0.0068706395 0.062314011 0.79900002 1.5936687e-38
-0.0041223941 0.062314011 0.79900002 1.7692123e-38
-0.0013741488 0.062314011 0.79900002 2.008921e-38
0.0013740966 0.062314011 0.79900002 1.5568269e-38
0.0041223941 0.062314011 0.79900002 1.3908773e-38
0.0069050356 0.062625974 0.80299997 1.3546875e-38
0.0096911173 0.062781952 0.80500001 1.6036157e-38
0.012490956 0.06293793 0.80699998 1.8988648e-38
0.015304554 0.063093908 0.80900002 1.9818409e-38
0.018087195 0.063093908 0.80900002 1.8346915e-38
-0.023360165 0.059544522 0.79900002 1.9822051e-38
-0.020611919 0.059544522 0.79900002 2.2398772e-38
-0.017863648 0.059544522 0.79900002 2.2583164e-38
-0.015115402 0.059544522 0.79900002 2.2857162e-38
-0.012367156 0.059544522 0.79900002 1.8616163e-38
-0.0096188849 0.059544522 0.79900002 1.8612191e-38
-0.0068706395 0.059544522 0.79900002 1.5293148e-38
-0.0041223941 0.059544522 0.79900002 1.9994834e-38
-0.0013741488 0.059544522 0.79900002 1.4924074e-38
0.0013740966 0.059544522 0.79900002 1.1703286e-38
0.0041223941 0.059544522 0.79900002 1.1979869e-38
0.0069050356 0.059842616 0.80299997 9.2176684e-39
0.0097151939 0.060140707 0.80699998 8.8488859e-39
0.012490956 0.060140707 0.80699998 1.7790832e-38
0.015304554 0.060289759 0.80900002 1.9358158e-38
0.018087195 0.060289759 0.80900002 1.8623855e-38
-0.023360165 0.056774992 0.79900002 1.9638375e-38
-0.020611919 0.056774992 0.79900002 2.2398397e-38
-0.017863648 0.056774992 0.79900002 2.2398397e-38
-0.015115402 0.056774992 0.79900002 2.2391396e-38
-0.012367156 0.056774992 0.79900002 2.146944e-38
-0.0096188849 0.056774992 0.79900002 1.7137006e-38
-0.0068620401 0.056703933 0.79799998 1.8519919e-38
-0.0041172346 0.056703933 0.79799998 1.4190776e-38
-0.0013741488 0.056774992 0.79900002 1.1885885e-38
0.0013740966 0.056774992 0.79900002 1.262389e-38
0.0041223941 0.056774992 0.79900002 1.2347303e-38
0.0069222338 0.057201337 0.80500001 1.1336378e-38
0.0097151939 0.057343449 0.80699998 1.4010052e-38
0.012521913 0.057485566 0.80900002 1.8897921e-38
0.015304554 0.057485566 0.80900002 1.9174508e-38
-0.025193471 0.052112907 0.77100003 1.8716419e-38
-0.023360165 0.054005463 0.79900002 2.0468136e-38
-0.020611919 0.054005463 0.79900002 2.3042321e-38
-0.017863648 0.054005463 0.79900002 2.0276452e-38
-0.015096484 0.053937871 0.79799998 1.8891251e-38
-0.012351678 0.053937871 0.79799998 2.2947858e-38
-0.0095827691 0.053802688 0.796 1.7320677e-38
-0.0068448423 0.053802688 0.796 2.017874e-38
-0.0041069156 0.053802688 0.796 1.3170502e-38
-0.001372429 0.053937871 0.79799998 1.4000254e-38
0.0013740966 0.054005463 0.79900002 1.2532783e-38
0.0041223941 0.054005463 0.79900002 1.1518631e-38
0.0069222338 0.054411009 0.80500001 8.7552231e-39
0.0097151939 0.054546189 0.80699998 1.7513808e-38
0.012521913 0.054681376 0.80900002 1.8350158e-38
0.01534239 0.054816555 0.81099999 1.7889179e-38
-0.03049737 0.049440473 0.77100003 1.8531324e-38
-0.027845435 0.049440473 0.77100003 1.9268889e-38
-0.025193471 0.049440473 0.77100003 2.249321e-38
-0.022541536 0.049440473 0.77100003 2.3508802e-38
-0.020611919 0.051235974 0.79900002 2.3325472e-38
-0.017863648 0.051235974 0.79900002 2.3325472e-38
-0.014888387 0.050466474 0.787 2.341804e-38
-0.012181417 0.050466474 0.787 2.1850715e-38
-0.0094864592 0.050530594 0.78799999 2.2115044e-38
-0.0068104463 0.050787095 0.792 1.4739394e-38
-0.0040965974 0.050915349 0.79400003 1.1880552e-38
-0.0013689892 0.0510436 0.796 1.1235182e-38
0.0013723767 0.051171847 0.79799998 1.0962546e-38
0.0041327132 0.051364221 0.801 1.0224981e-38
0.0069222338 0.051620722 0.80500001 8.6623857e-39
0.0097151939 0.051748972 0.80699998 1.9725861e-38
0.012521913 0.051877223 0.80900002 1.8807167e-38
-0.03049737 0.046768036 0.77100003 2.341769e-38
-0.0277732 0.046646714 0.76899999 2.341769e-38
-0.025128119 0.046646714 0.76899999 2.341769e-38
-0.022541536 0.046768036 0.77100003 2.1850364e-38
-0.020018585 0.04707133 0.77600002 2.267291e-38
-0.01739414 0.047192644 0.778 2.2949497e-38
-0.014755961 0.047313962 0.77999997 2.2027193e-38
-0.012119504 0.047495943 0.78299999 2.1013041e-38
-0.0094744209 0.047738578 0.787 2.1745934e-38
-0.0067932485 0.047920555 0.79000002 1.9256652e-38
-0.0040862779 0.048041869 0.792 1.7965891e-38
-0.0013655497 0.04816319 0.79400003 1.3909283e-38
0.0013689372 0.048284508 0.796 8.0072661e-39
0.0041223941 0.048466485 0.79900002 8.376043e-39
0.0069394317 0.048951752 0.80699998 1.6860256e-38
0.0097392714 0.049073074 0.80900002 1.9718321e-38
0.012846956 0.050346911 0.82999998 1.9081972e-38
0.015701829 0.050346911 0.82999998 1.8436602e-38
0.018646132 0.050589547 0.83399999 1.7610056e-38
-0.035708398 0.043981172 0.76899999 2.2673288e-38
-0.030418258 0.043981172 0.76899999 2.0180031e-38
-0.0277732 0.043981172 0.76899999 2.3506636e-38
-0.025128119 0.043981172 0.76899999 2.2953109e-38
-0.022541536 0.044095561 0.77100003 1.7882349e-38
-0.019941194 0.044209946 0.773 1.7043189e-38
-0.017349426 0.044381522 0.77600002 1.7780754e-38
-0.014718127 0.044495907 0.778 1.731477e-38
-0.012088547 0.04466749 0.78100002 1.7591357e-38
-0.0094503444 0.04489626 0.78500003 1.8515477e-38
-0.0067674508 0.045010645 0.787 1.7316934e-38
-0.0040862779 0.045296606 0.792 1.6215618e-38
-0.0013655497 0.045410994 0.79400003 1.6492205e-38
0.0013689372 0.045525376 0.796 1.5938325e-38
0.0041172346 0.045639761 0.79799998 1.1973913e-38
0.0069394317 0.046154492 0.80699998 1.7321237e-38
0.0099439286 0.047241159 0.82599998 2.0916867e-38
0.012785044 0.047241159 0.82599998 2.184172e-38
0.015701829 0.047469929 0.82999998 2.3501961e-38
0.018646132 0.047698699 0.83399999 1.9081972e-38
0.021617953 0.047927469 0.838 1.7975624e-38
-0.03293433 0.041154452 0.76599997 2.0923714e-38
-0.030299591 0.041154452 0.76599997 2.2948371e-38
-0.027664851 0.041154452 0.76599997 1.7785416e-38
-0.02503009 0.041154452 0.76599997 2.0087482e-38
-0.02248306 0.041315634 0.76899999 1.9534308e-38
-0.019889599 0.041423086 0.77100003 1.7230484e-38
-0.017304709 0.041584261 0.77399999 1.6492919e-38
-0.014718127 0.041799169 0.778 1.5842514e-38
-0.012073068 0.041906621 0.77999997 1.6580079e-38
-0.009426266 0.042067803 0.78299999 1.667373e-38
-0.0067674508 0.042282708 0.787 1.5290795e-38
-0.0040759593 0.04244389 0.79000002 1.5014552e-38
-0.00136211 0.042551339 0.792 1.5291138e-38
0.0013689372 0.042766247 0.796 1.6308913e-38
0.0041069156 0.042766247 0.796 1.7691847e-38
0.0069394317 0.043357234 0.80699998 1.9349927e-38
0.0098115029 0.043787047 0.815 1.4832341e-38
0.012785044 0.044378038 0.82599998 1.8798179e-38
0.015701829 0.044592947 0.82999998 2.2209418e-38
0.018646132 0.044807851 0.83399999 2.3134616e-38
0.021566359 0.044915304 0.83600003 2.1843878e-38
0.024441924 0.044915304 0.83600003 1.7977404e-38
-0.03293433 0.038499348 0.76599997 1.9816984e-38
-0.030299591 0.038499348 0.76599997 1.9259429e-38
-0.027664851 0.038499348 0.76599997 1.501843e-38
-0.02503009 0.038499348 0.76599997 1.6033768e-38
-0.022424588 0.038549609 0.76700002 1.6679137e-38
-0.019889599 0.038750652 0.77100003 1.6586203e-38
-0.017304709 0.038901426 0.77399999 1.5111073e-38
-0.014718127 0.039102469 0.778 1.6212386e-38
-0.012073068 0.039202988 0.77999997 1.6488973e-38
-0.009426266 0.039353773 0.78299999 1.5935799e-38
-0.0067674508 0.039554816 0.787 1.5567016e-38
-0.0040759593 0.039705593 0.79000002 1.5108189e-38
-0.00136211 0.039806113 0.792 1.529258e-38
0.0013689372 0.040007155 0.796 1.4924164e-38
0.0041069156 0.040007155 0.796 1.6399294e-38
0.0069222338 0.040459495 0.80500001 1.7970598e-38
0.0097151939 0.040560015 0.80699998 9.4885997e-39
0.012785044 0.041514963 0.82599998 1.9625778e-38
0.015701829 0.041716006 0.82999998 2.3497994e-38
0.018601418 0.041816521 0.83200002 2.092118e-38
0.021514764 0.041917045 0.83399999 2.2857288e-38
0.02438345 0.041917045 0.83399999 2.0554934e-38
0.027382787 0.042118084 0.838 1.8987608e-38
-0.03284834 0.035750616 0.764 1.1245988e-38
-0.030220479 0.035750616 0.764 9.1247175e-39
-0.02759262 0.035750616 0.764 1.096861e-38
-0.02503009 0.035844203 0.76599997 1.5478792e-38
-0.022424588 0.035891 0.76700002 1.5847574e-38
-0.019889599 0.036078177 0.77100003 1.6491126e-38
-0.017304709 0.036218554 0.77399999 1.6306735e-38
-0.014718127 0.036405731 0.778 1.6581168e-38
-0.012088547 0.036546115 0.78100002 1.5751407e-38
-0.009426266 0.036639702 0.78299999 1.5749608e-38
-0.0067674508 0.036826879 0.787 1.5380826e-38
-0.0040862779 0.037060849 0.792 1.5015631e-38
-0.0013655497 0.03715444 0.79400003 1.5200022e-38
0.0013723767 0.03734161 0.79799998 1.4924524e-38
0.0041172346 0.03734161 0.79799998 1.5293306e-38
0.0069222338 0.037669171 0.80500001 1.7231582e-38
0.0097151939 0.037762757 0.80699998 1.1515453e-38
0.012521913 0.037856348 0.80900002 1.7318721e-38
0.015701829 0.03883902 0.82999998 1.9531416e-38
0.018556703 0.03883902 0.82999998 1.3725922e-38
0.021514764 0.039026197 0.83399999 1.6123008e-38
0.02438345 0.039026197 0.83399999 1.9630094e-38
0.027382787 0.039213371 0.838 1.9630094e-38
-0.030220479 0.033102445 0.764 1.5746682e-38
-0.02759262 0.033102445 0.764 1.473253e-38
-0.02503009 0.033189099 0.76599997 1.7134695e-38
-0.022424588 0.033232428 0.76700002 1.5567369e-38
-0.019889599 0.03340574 0.77100003 1.52004e-38
-0.017304709 0.033535719 0.77399999 1.5661378e-38
-0.014718127 0.033709031 0.778 1.6303145e-38
-0.012088547 0.033839017 0.78100002 1.4551428e-38
-0.0094503444 0.034012329 0.78500003 1.6395357e-38
-0.0067932485 0.034228966 0.79000002 1.7225118e-38
-0.0040965974 0.034402277 0.79400003 1.4925233e-38
-0.0013689892 0.034488935 0.796 1.4648646e-38
0.0013723767 0.034575589 0.79799998 1.4924161e-38
0.0041223941 0.034618918 0.79900002 1.5292943e-38
0.0069222338 0.034878884 0.80500001 1.6955348e-38
0.0097151939 0.034965537 0.80699998 1.2529958e-38
0.012521913 0.035052195 0.80900002 1.3536184e-38
0.015701829 0.035962079 0.82999998 1.2890815e-38
0.018556703 0.035962079 0.82999998 1.400075e-38
0.021463171 0.036048733 0.83200002 1.4922706e-38
0.02438345 0.03613539 0.83399999 1.4378878e-38
0.027382787 0.036308698 0.838 1.7052551e-38
-0.027664851 0.030533956 0.76599997 1.9816653e-38
-0.02503009 0.030533956 0.76599997 1.8893252e-38
-0.022424588 0.030573819 0.76700002 2.0737164e-38
-0.019941194 0.030812988 0.773 2.0640671e-38
-0.017505927 0.031211603 0.78299999 2.1562627e-38
-0.014812714 0.031211603 0.78299999 1.7223685e-38
-0.012196895 0.03141091 0.78799999 1.6117337e-38
-0.0095346142 0.031570356 0.792 1.8055595e-38
-0.0068104463 0.031570356 0.792 1.8977551e-38
-0.0040965974 0.031650081 0.79400003 1.713831e-38
-0.0013655497 0.031650081 0.79400003 1.4741224e-38
0.0013723767 0.031809524 0.79799998 1.382104e-38
0.0041223941 0.031849388 0.79900002 1.4097627e-38
0.0069222338 0.032088555 0.80500001 1.5757158e-38
0.0097151939 0.032168277 0.80699998 1.4005441e-38
0.012521913 0.032248002 0.80900002 1.2344091e-38
0.015701829 0.033085097 0.82999998 1.3727026e-38
0.018556703 0.033085097 0.82999998 1.225226e-38
0.021463171 0.033164818 0.83200002 9.3941956e-39
0.02438345 0.033244543 0.83399999 6.5465077e-39
0.027382787 0.033403989 0.838 8.3904063e-39
-0.02610841 0.029079858 0.79900002 1.9359635e-38
-0.023360165 0.029079858 0.79900002 2.3508438e-38
-0.020611919 0.029079858 0.79900002 2.3046033e-38
-0.017841289 0.029043462 0.79799998 2.3507732e-38
-0.015020813 0.028897883 0.79400003 2.1376823e-38
-0.012258808 0.028825091 0.792 1.6767042e-38
-0.0095346142 0.028825091 0.792 1.658189e-38
-0.0068104463 0.028825091 0.792 1.7135064e-38
-0.0040862779 0.028825091 0.792 1.7968421e-38
-0.0013655497 0.028897883 0.79400003 1.7138661e-38
0.0013689372 0.028970672 0.796 1.5205783e-38
0.0041223941 0.029079858 0.79900002 1.4744804e-38
0.0069222338 0.029298229 0.80500001 1.465153e-38
0.0097151939 0.029371019 0.80699998 1.9537898e-38
0.012490956 0.029371019 0.80699998 1.8715322e-38
-0.023360165 0.026310369 0.79900002 2.3509158e-38
-0.020611919 0.026310369 0.79900002 2.2956712e-38
-0.017841289 0.02627744 0.79799998 2.341769e-38
-0.015020813 0.026145725 0.79400003 2.2212692e-38
-0.012258808 0.026079865 0.792 1.6127781e-38
-0.0095346142 0.026079865 0.792 1.7594254e-38
-0.0068104463 0.026079865 0.792 1.5842537e-38
-0.0040862779 0.026079865 0.792 1.5754653e-38
-0.0013655497 0.026145725 0.79400003 1.6676609e-38
0.0013689372 0.026211582 0.796 1.5756805e-38
0.0041223941 0.026310369 0.79900002 1.4927045e-38
0.0069222338 0.026507944 0.80500001 1.5019591e-38
0.0097151939 0.0265738 0.80699998 1.9076198e-38
0.012490956 0.0265738 0.80699998 1.8255423e-38
-0.023272453 0.023452491 0.796 2.3509517e-38
-0.020534527 0.023452491 0.796 2.3141103e-38
-0.017796574 0.023452491 0.796 2.341769e-38
-0.015020813 0.023393566 0.79400003 2.202901e-38
-0.012258808 0.023334639 0.792 1.4192382e-38
-0.0095346142 0.023334639 0.792 1.7043244e-38
-0.0068104463 0.023334639 0.792 1.58447e-38
-0.0040965974 0.023393566 0.79400003 1.5293319e-38
-0.0013655497 0.023393566 0.79400003 1.5385514e-38
0.0013689372 0.023452491 0.796 1.4466069e-38
0.0041223941 0.023540879 0.79900002 1.4373874e-38
0.0069222338 0.023717657 0.80500001 1.50203e-38
0.0097151939 0.023776582 0.80699998 1.9169103e-38
0.012490956 0.023776582 0.80699998 1.8163233e-38
-0.023272453 0.02069336 0.796 2.3509164e-38
-0.020534527 0.02069336 0.796 2.3141103e-38
-0.017796574 0.02069336 0.796 2.341769e-38
-0.015020813 0.020641368 0.79400003 2.1291092e-38
-0.012258808 0.020589372 0.792 1.4929594e-38
-0.0095346142 0.020589372 0.792 1.6857052e-38
-0.0068104463 0.020589372 0.792 1.6303878e-38
-0.0040965974 0.020641368 0.79400003 1.5570982e-38
-0.0013655497 0.020641368 0.79400003 1.5386591e-38
0.0013689372 0.02069336 0.796 1.4557912e-38
0.0041223941 0.020771351 0.79900002 1.4004738e-38
0.0069050356 0.020875337 0.80299997 1.3636637e-38
0.0097151939 0.020979322 0.80699998 1.926057e-38
0.012490956 0.020979322 0.80699998 1.8255075e-38
-0.02058612 0.01797929 0.79799998 2.341769e-38
-0.017796574 0.017934229 0.796 2.341769e-38
-0.015020813 0.01788917 0.79400003 2.1381846e-38
-0.012289765 0.01788917 0.79400003 1.6679869e-38
-0.0095346142 0.017844107 0.792 1.7227266e-38
-0.0068104463 0.017844107 0.792 1.6674092e-38
-0.0040965974 0.01788917 0.79400003 1.6215984e-38
-0.0013655497 0.01788917 0.79400003 1.5755006e-38
0.0013689372 0.017934229 0.796 1.4743009e-38
0.0041223941 0.018001821 0.79900002 1.4374227e-38
0.0069050356 0.018091943 0.80299997 1.1519007e-38
0.0097151939 0.018182063 0.80699998 1.8525875e-38
0.012490956 0.018182063 0.80699998 1.807105e-38
-0.023360165 0.015232331 0.79900002 1.6964336e-38
-0.02058612 0.015213267 0.79799998 7.0025617e-39
-0.017796574 0.015175139 0.796 1.7605059e-38
-0.015020813 0.01513701 0.79400003 2.0086425e-38
-0.012289765 0.01513701 0.79400003 2.0270816e-38
-0.0095586926 0.01513701 0.79400003 1.8980065e-38
-0.0068276445 0.01513701 0.79400003 1.8150304e-38
-0.0040965974 0.01513701 0.79400003 1.713938e-38
-0.0013655497 0.01513701 0.79400003 1.6770597e-38
0.0013723767 0.015213267 0.79799998 1.5389455e-38
0.0041223941 0.015232331 0.79900002 1.4744085e-38
0.0069222338 0.015346716 0.80500001 1.1798497e-38
0.0097151939 0.015384845 0.80699998 1.8620974e-38
-0.023360165 0.012462802 0.79900002 1.585727e-38
-0.020611919 0.012462802 0.79900002 9.590205e-39
-0.017841289 0.012447204 0.79799998 9.2214225e-39
-0.015058648 0.012416008 0.796 7.8370363e-39
-0.012289765 0.012384812 0.79400003 7.2838625e-39
-0.0095586926 0.012384812 0.79400003 8.3887107e-39
-0.0068276445 0.012384812 0.79400003 1.0785797e-38
-0.0040965974 0.012384812 0.79400003 1.2440296e-38
-0.0013689892 0.012416008 0.796 1.3731035e-38
0.0013723767 0.012447204 0.79799998 1.5020685e-38
0.0041223941 0.012462802 0.79900002 1.3729946e-38
0.0069222338 0.01255639 0.80500001 1.4657673e-38
0.0097151939 0.012587585 0.80699998 1.8529889e-38
-0.023360165 0.0096933125 0.79900002 1.4934954e-38
-0.020611919 0.0096933125 0.79900002 1.0972418e-38
-0.017863648 0.0096933125 0.79900002 1.0880222e-38
-0.015096484 0.0096811801 0.79799998 8.9459006e-39
-0.012289765 0.0096326536 0.79400003 8.3927268e-39
-0.0095586926 0.0096326536 0.79400003 6.0849116e-39
-0.0068276445 0.0096326536 0.79400003 3.6878252e-39
-0.0040965974 0.0096326536 0.79400003 1.4762441e-39
-0.0013689892 0.0096569173 0.796 1.752831e-39
0.0013723767 0.0096811801 0.79799998 6.5185322e-40
0.0041223941 0.0096933125 0.79900002 4.6162653e-39
0.0069222338 0.0097661028 0.80500001 1.8713915e-38
0.0097633488 0.009838894 0.81099999 1.8160741e-38
-0.023360165 0.0069237831 0.79900002 1.2723703e-38
-0.020611919 0.0069237831 0.79900002 1.3093273e-38
-0.017863648 0.0069237831 0.79900002 1.189473e-38
-0.015096484 0.0069151176 0.79799998 9.4990744e-39
-0.012289765 0.0068804557 0.79400003 7.3785749e-39
-0.0095586926 0.0068804557 0.79400003 7.0090483e-39
-0.0068276445 0.0068804557 0.79400003 5.5339182e-39
-0.0040965974 0.0068804557 0.79400003 5.7154256e-39
-0.0013689892 0.0068977866 0.796 5.5310343e-39
0.0013740966 0.0069237831 0.79900002 4.426835e-39
0.0041327132 0.0069411141 0.801 5.2565956e-39
0.0069738282 0.0070277699 0.81099999 1.8623142e-38
-0.026173761 0.0041646529 0.801 1.8345839e-38
-0.023418637 0.0041646529 0.801 1.2906297e-38
-0.020663513 0.0041646529 0.801 1.4199621e-38
-0.017863648 0.0041542542 0.79900002 1.1157165e-38
-0.015058648 0.0041386564 0.796 9.7742165e-39
-0.012289765 0.0041282577 0.79400003 6.7317608e-39
-0.0095586926 0.0041282577 0.79400003 7.2834828e-39
-0.0068276445 0.0041282577 0.79400003 7.0068959e-39
-0.0040965974 0.0041282577 0.79400003 7.0090357e-39
-0.0013689892 0.0041386564 0.796 7.0090357e-39
0.0013740966 0.0041542542 0.79900002 5.5346343e-39
0.0041430318 0.0041750516 0.80299997 5.1658518e-39
0.0069910265 0.0042270445 0.81300002 1.8161801e-38
0.0098115029 0.0042374432 0.815 1.7885214e-38
-0.026173761 0.0013882307 0.801 1.5856929e-38
-0.023418637 0.0013882307 0.801 1.4013017e-38
-0.020611919 0.0013847646 0.79900002 1.4108493e-38
-0.017796574 0.0013795652 0.796 1.0973842e-38
-0.015020813 0.001376099 0.79400003 7.7480819e-39
-0.012289765 0.001376099 0.79400003 5.9041693e-39
-0.0095346142 0.0013726327 0.792 7.1912816e-39
-0.0068104463 0.0013726327 0.792 6.084934e-39
-0.0040965974 0.001376099 0.79400003 7.0090385e-39
-0.0013689892 0.0013795652 0.796 7.1012341e-39
0.0013740966 0.0013847646 0.79900002 6.364032e-39
0.0041533508 0.0013951632 0.80500001 4.7967063e-39
0.0069910265 0.0014090283 0.81300002 1.8069965e-38
0.0098115029 0.0014124945 0.815 1.7977769e-38
-0.023418637 -0.0013882307 0.801 1.4935717e-38
-0.020611919 -0.0013847646 0.79900002 1.3738994e-38
-0.017751861 -0.001376099 0.79400003 1.0973125e-38
-0.014982977 -0.0013726327 0.792 8.8540581e-39
-0.012258808 -0.0013726327 0.792 6.7335586e-39
-0.0095346142 -0.0013726327 0.792 7.5600641e-39
-0.0068104463 -0.0013726327 0.792 7.2834772e-39
-0.0040965974 -0.001376099 0.79400003 7.3756728e-39
-0.0013689892 -0.0013795652 0.796 7.3756728e-39
0.0013740966 -0.0013847646 0.79900002 6.5484233e-39
0.0041533508 -0.0013951632 0.80500001 4.8889019e-39
0.0069910265 -0.0014090283 0.81300002 1.7240555e-38
0.0097874263 -0.0014090283 0.81300002 1.797812e-38
-0.026239114 -0.0041750516 0.80299997 1.3831906e-38
-0.023477111 -0.0041750516 0.80299997 1.4753862e-38
-0.020611919 -0.0041542542 0.79900002 1.1251889e-38
-0.017751861 -0.0041282577 0.79400003 9.3157803e-39
-0.014982977 -0.0041178591 0.792 8.1146924e-39
-0.012258808 -0.0041178591 0.792 7.9303011e-39
-0.0095346142 -0.0041178591 0.792 7.2856352e-39
-0.0068104463 -0.0041178591 0.792 6.6402658e-39
-0.0040965974 -0.0041282577 0.79400003 5.9984963e-39
-0.0013655497 -0.0041282577 0.79400003 6.4594744e-39
0.0013740966 -0.0041542542 0.79900002 7.3756728e-39
0.0041430318 -0.0041750516 0.80299997 4.7019995e-39
0.0069910265 -0.0042270445 0.81300002 1.6042014e-38
0.0097874263 -0.0042270445 0.81300002 1.8070318e-38
0.012645738 -0.0042478419 0.81699997 1.7701536e-38
-0.029001145 -0.0069584455 0.80299997 1.7055453e-38
-0.026239114 -0.0069584455 0.80299997 1.3095068e-38
-0.023360165 -0.0069237831 0.79900002 1.4570198e-38
-0.020482935 -0.0068804557 0.79400003 1.1065708e-38
-0.017707145 -0.0068631242 0.792 1.1526686e-38
-0.014945141 -0.0068457937 0.79000002 8.5756733e-39
-0.012227852 -0.0068457937 0.79000002 7.4693258e-39
-0.0095346142 -0.0068631242 0.792 7.5600697e-39
-0.0068104463 -0.0068631242 0.792 6.6381134e-39
-0.0040965974 -0.0068804557 0.79400003 6.7317481e-39
-0.0013655497 -0.0068804557 0.79400003 7.3771175e-39
0.0013723767 -0.0069151176 0.79799998 7.7433763e-39
0.0041430318 -0.0069584455 0.80299997 7.3745938e-39
0.0069910265 -0.0070451014 0.81300002 1.5211535e-38
0.0098115029 -0.0070624324 0.815 1.8253991e-38
0.012645738 -0.0070797629 0.81699997 1.7425677e-38
-0.026173761 -0.0097175362 0.801 1.4475845e-38
-0.023330927 -0.009681141 0.79799998 1.5029019e-38
-0.020431338 -0.0096083507 0.792 1.1342295e-38
-0.01766243 -0.0095840879 0.79000002 1.0512534e-38
-0.014907304 -0.0095598232 0.78799999 8.7618625e-39
-0.012196895 -0.0095598232 0.78799999 7.7477105e-39
-0.0095105376 -0.0095840879 0.79000002 6.5477226e-39
-0.0068104463 -0.0096083507 0.792 6.3633314e-39
-0.0040965974 -0.0096326144 0.79400003 6.8250228e-39
-0.0013655497 -0.0096326144 0.79400003 6.8250228e-39
0.0013723767 -0.009681141 0.79799998 6.4562374e-39
0.0041430318 -0.0097417999 0.80299997 6.4562374e-39
0.0069910265 -0.0098631177 0.81300002 1.327758e-38
0.0098115029 -0.0098873805 0.815 1.7979558e-38
0.012645738 -0.0099116443 0.81699997 1.7517147e-38
-0.028928913 -0.012493998 0.801 1.5487046e-38
-0.026075732 -0.012447204 0.79799998 1.4476568e-38
-0.023213983 -0.012384812 0.79400003 1.4107785e-38
-0.020328149 -0.012291224 0.78799999 1.0515405e-38
-0.017617714 -0.012291224 0.78799999 9.3168621e-39
-0.014907304 -0.012291224 0.78799999 8.6696668e-39
-0.012196895 -0.012291224 0.78799999 7.378928e-39
-0.0095105376 -0.01232242 0.79000002 7.4693132e-39
-0.0068104463 -0.012353616 0.792 4.9800312e-39
-0.0040862779 -0.012353616 0.792 6.2711329e-39
-0.0013689892 -0.012416008 0.796 7.1930892e-39
0.0013723767 -0.012447204 0.79799998 7.7462532e-39
0.0041430318 -0.012525194 0.80299997 6.9164925e-39
0.0069738282 -0.012649978 0.81099999 1.2262369e-38
0.0097874263 -0.012681174 0.81300002 1.8070694e-38
0.012645738 -0.012743565 0.81699997 1.73324e-38
-0.031684037 -0.015270419 0.801 1.7056905e-38
-0.028856682 -0.015232292 0.79900002 1.4106645e-38
-0.026010379 -0.015175099 0.796 1.5122293e-38
-0.023155507 -0.015098842 0.792 1.3001794e-38
-0.020328149 -0.015022585 0.78799999 1.2356424e-38
-0.017595356 -0.015003522 0.787 1.0512512e-38
-0.014888387 -0.015003522 0.787 9.49798e-39
-0.012196895 -0.015022585 0.78799999 7.4696761e-39
-0.0094864592 -0.015022585 0.78799999 7.7459001e-39
-0.0067932485 -0.015060714 0.79000002 8.2068782e-39
-0.0040862779 -0.015098842 0.792 8.9437076e-39
-0.0013655497 -0.015136971 0.79400003 8.5749251e-39
0.0013740966 -0.015232292 0.79900002 8.0232002e-39
0.0041327132 -0.015270419 0.801 7.2856352e-39
0.0069222338 -0.015346677 0.80500001 1.1710277e-38
0.0097874263 -0.01549919 0.81300002 1.7610797e-38
0.012614782 -0.015537319 0.815 1.7332763e-38
-0.031684037 -0.018046882 0.801 1.6687424e-38
-0.028820563 -0.01797929 0.79799998 1.4935707e-38
-0.02594503 -0.01788917 0.79400003 1.4753871e-38
-0.023155507 -0.017844107 0.792 1.2356784e-38
-0.020328149 -0.017753985 0.78799999 1.1526308e-38
-0.017595356 -0.017731456 0.787 1.0051178e-38
-0.014888387 -0.017731456 0.787 8.7596989e-39
-0.012196895 -0.017753985 0.78799999 7.9299382e-39
-0.0094864592 -0.017753985 0.78799999 7.6537044e-39
-0.0067932485 -0.017799048 0.79000002 7.7459001e-39
-0.0040759593 -0.017799048 0.79000002 7.7466133e-39
-0.0013655497 -0.01788917 0.79400003 8.0232002e-39
0.0013723767 -0.01797929 0.79799998 7.8384488e-39
0.0041327132 -0.018046882 0.801 7.285275e-39
0.0069050356 -0.018091943 0.80299997 1.1064555e-38
0.0097633488 -0.018272186 0.81099999 1.7979227e-38
0.012614782 -0.018362308 0.815 1.7240923e-38
-0.034310177 -0.020745313 0.79799998 1.7978848e-38
-0.031565368 -0.020745313 0.79799998 1.5028632e-38
-0.028748332 -0.020693321 0.796 1.5028632e-38
-0.02594503 -0.020641329 0.79400003 1.4750988e-38
-0.023097035 -0.020537341 0.79000002 1.2999271e-38
-0.020328149 -0.020485347 0.78799999 1.1525948e-38
-0.017595356 -0.020459352 0.787 8.8522743e-39
-0.014888387 -0.020459352 0.787 7.7459127e-39
-0.012196895 -0.020485347 0.78799999 7.653717e-39
-0.0094864592 -0.020485347 0.78799999 7.7462532e-39
-0.0067932485 -0.020537341 0.79000002 7.285275e-39
-0.0040759593 -0.020537341 0.79000002 7.0090385e-39
-0.0013655497 -0.020641329 0.79400003 7.377821e-39
0.0013723767 -0.020745313 0.79799998 7.6540576e-39
0.0041327132 -0.020823304 0.801 7.0086882e-39
0.0069050356 -0.020875297 0.80299997 1.0419188e-38
0.0097633488 -0.021083269 0.81099999 1.733386e-38
0.012583827 -0.021135263 0.81300002 1.7056885e-38
0.015455897 -0.021239249 0.81699997 1.7149081e-38
-0.034310177 -0.023511376 0.79799998 1.779445e-38
-0.031565368 -0.023511376 0.79799998 1.4384348e-38
-0.028748332 -0.023452451 0.796 1.3738979e-38
-0.02594503 -0.023393527 0.79400003 1.3185821e-38
-0.023097035 -0.023275675 0.79000002 1.2632647e-38
-0.020328149 -0.023216747 0.78799999 1.014516e-38
-0.017595356 -0.023187285 0.787 9.7763773e-39
-0.014888387 -0.023187285 0.787 7.8402537e-39
-0.012196895 -0.023216747 0.78799999 7.1948843e-39
-0.0094864592 -0.023216747 0.78799999 8.4812917e-39
-0.0067932485 -0.023275675 0.79000002 7.7437267e-39
-0.0040759593 -0.023275675 0.79000002 6.2725651e-39
-0.0013655497 -0.023393527 0.79400003 6.6413476e-39
0.0013723767 -0.023511376 0.79799998 7.4693132e-39
0.0041327132 -0.023599764 0.801 7.3771175e-39
0.0069050356 -0.023658691 0.80299997 9.5905133e-39
0.0097633488 -0.023894394 0.81099999 1.7058359e-38
0.012583827 -0.02395332 0.81300002 1.7056885e-38
0.015418061 -0.024012245 0.815 1.7056885e-38
-0.034353171 -0.026310369 0.79900002 1.7424946e-38
-0.031604927 -0.026310369 0.79900002 1.2817754e-38
-0.028820563 -0.02627744 0.79799998 1.1895798e-38
-0.02594503 -0.026145725 0.79400003 1.3920509e-38
-0.023038559 -0.025948148 0.78799999 1.3643922e-38
-0.020302353 -0.02591522 0.787 1.0053324e-38
-0.017595356 -0.02591522 0.787 9.5923462e-39
-0.014888387 -0.02591522 0.787 8.7604121e-39
-0.012181417 -0.02591522 0.787 7.6540646e-39
-0.0094864592 -0.025948148 0.78799999 7.7459001e-39
-0.0067932485 -0.026014008 0.79000002 7.6537044e-39
-0.0040759593 -0.026014008 0.79000002 7.1909312e-39
-0.0013655497 -0.026145725 0.79400003 7.3753225e-39
0.0013723767 -0.02627744 0.79799998 7.2849219e-39
0.0041223941 -0.026310369 0.79900002 7.5615088e-39
0.0069050356 -0.026442086 0.80299997 9.5901658e-39
0.0097392714 -0.026639661 0.80900002 1.7242403e-38
0.01255287 -0.026705517 0.81099999 1.7056169e-38
0.015418061 -0.026837233 0.815 1.7056169e-38
-0.034353171 -0.029079858 0.79900002 1.6781014e-38
-0.031604927 -0.029079858 0.79900002 1.2726282e-38
-0.028856682 -0.029079858 0.79900002 1.318726e-38
-0.026010379 -0.028970672 0.796 1.3553884e-38
-0.023009323 -0.028643116 0.787 1.1617776e-38
-0.020302353 -0.028643116 0.787 9.3128825e-39
-0.017595356 -0.028643116 0.787 1.0050447e-38
-0.014888387 -0.028643116 0.787 8.2990738e-39
-0.012181417 -0.028643116 0.787 7.4693132e-39
-0.0094864592 -0.028679509 0.78799999 7.5618689e-39
-0.0067932485 -0.028752301 0.79000002 7.7462602e-39
-0.0040759593 -0.028752301 0.79000002 7.6537044e-39
-0.0013655497 -0.028897883 0.79400003 7.4693132e-39
0.0013723767 -0.029043462 0.79799998 7.8377398e-39
0.0041223941 -0.029079858 0.79900002 7.6533485e-39
0.0069050356 -0.029225441 0.80299997 8.6682165e-39
0.0097392714 -0.029443812 0.80900002 1.6873628e-38
0.01255287 -0.029516602 0.81099999 1.6871778e-38
0.015418061 -0.029662183 0.815 1.6963973e-38
-0.034439161 -0.031929109 0.801 1.5673595e-38
-0.031684037 -0.031929109 0.801 1.1896161e-38
-0.028856682 -0.031849388 0.79900002 1.4385443e-38
-0.026075732 -0.031809524 0.79799998 1.263445e-38
-0.02295085 -0.031291328 0.78500003 1.1896885e-38
-0.020250758 -0.031291328 0.78500003 1.0973476e-38
-0.017550642 -0.031291328 0.78500003 1.0420302e-38
-0.014888387 -0.03137105 0.787 8.4841686e-39
-0.012181417 -0.03137105 0.787 7.9309948e-39
-0.0094744209 -0.03137105 0.787 8.0210422e-39
-0.0067760497 -0.03141091 0.78799999 8.4820204e-39
-0.0040862779 -0.031570356 0.792 7.8366566e-39
-0.0013655497 -0.031650081 0.79400003 7.6522653e-39
0.0013723767 -0.031809524 0.79799998 7.6540576e-39
0.0041223941 -0.031849388 0.79900002 7.7462532e-39
0.0068878378 -0.031929109 0.801 9.1288345e-39
0.0097151939 -0.032168277 0.80699998 1.6965463e-38
0.012521913 -0.032248002 0.80900002 1.6871772e-38
0.015418061 -0.032487173 0.815 1.6871772e-38
-0.034439161 -0.034705531 0.801 1.5581402e-38
-0.031684037 -0.034705531 0.801 1.4104496e-38
-0.028928913 -0.034705531 0.801 1.3551323e-38
-0.026075732 -0.034575548 0.79799998 1.1619549e-38
-0.022892375 -0.033925634 0.78299999 1.1435157e-38
-0.020199163 -0.033925634 0.78299999 9.4100877e-39
-0.017550642 -0.034012292 0.78500003 9.0413052e-39
-0.014888387 -0.034098946 0.787 8.1142944e-39
-0.012181417 -0.034098946 0.787 7.6533163e-39
-0.0094744209 -0.034098946 0.787 7.3774707e-39
-0.0067760497 -0.034142271 0.78799999 8.3916226e-39
-0.0040862779 -0.034315582 0.792 7.3774707e-39
-0.0013655497 -0.03440224 0.79400003 7.285275e-39
0.0013723767 -0.034575548 0.79799998 7.6544079e-39
0.0041223941 -0.034618877 0.79900002 7.1012341e-39
0.0068878378 -0.034705531 0.801 8.6685696e-39
0.0097151939 -0.034965497 0.80699998 1.6873981e-38
0.012490956 -0.034965497 0.80699998 1.6872491e-38
-0.028206594 -0.036546115 0.78100002 1.7055816e-38
-0.025520235 -0.036546115 0.78100002 1.5118256e-38
-0.022833904 -0.036546115 0.78100002 1.5118256e-38
-0.020147571 -0.036546115 0.78100002 1.3546582e-38
-0.017550642 -0.036733292 0.78500003 1.1794865e-38
-0.014888387 -0.036826879 0.787 7.4641452e-39
-0.012181417 -0.036826879 0.787 8.5704787e-39
-0.0094744209 -0.036826879 0.787 6.1792134e-39
-0.0067932485 -0.036967263 0.79000002 7.4699522e-39
-0.0040862779 -0.037060849 0.792 7.9291773e-39
-0.0013689892 -0.037248023 0.796 7.6525904e-39
0.0013723767 -0.03734161 0.79799998 6.730309e-39
0.0041327132 -0.037481993 0.801 6.730309e-39
0.0068878378 -0.037481993 0.801 7.6576197e-39
0.0097151939 -0.037762757 0.80699998 1.6139618e-38
0.012490956 -0.037762757 0.80699998 1.6779579e-38
-0.022833904 -0.039253216 0.78100002 1.7610072e-38
-0.020147571 -0.039253216 0.78100002 2.0091785e-38
-0.017550642 -0.039454255 0.78500003 1.5389808e-38
-0.014888387 -0.039554775 0.787 8.1102223e-39
-0.012181417 -0.039554775 0.787 1.8251726e-38
-0.0094864592 -0.039605033 0.78799999 1.899047e-38
-0.0067932485 -0.039705556 0.79000002 1.1522624e-38
-0.0041069156 -0.040007114 0.796 7.3745125e-39
-0.0013689892 -0.040007114 0.796 7.8354907e-39
0.0013740966 -0.040157896 0.79900002 1.2536823e-38
0.0041327132 -0.040258415 0.801 1.4749518e-38
0.0068878378 -0.040258415 0.801 1.328049e-38
0.0097151939 -0.040559974 0.80699998 1.6138554e-38
0.012490956 -0.040559974 0.80699998 1.6595554e-38
-0.023477111 -0.04314233 0.80299997 1.7148725e-38
-0.020715106 -0.04314233 0.80299997 2.0923701e-38
-0.017953077 -0.04314233 0.80299997 1.6129528e-38
-0.015191073 -0.04314233 0.80299997 7.7471851e-39
-0.012398113 -0.043034878 0.801 1.4846233e-38
-0.0096429624 -0.043034878 0.801 1.704964e-38
-0.0068878378 -0.043034878 0.801 1.1333511e-38
-0.0041327132 -0.043034878 0.801 7.0003168e-39
-0.0014051058 -0.0438945 0.81699997 5.8017792e-39
0.0014016129 -0.043787047 0.815 1.1246772e-38
0.0042049452 -0.043787047 0.815 1.4012641e-38
0.0069566299 -0.04346469 0.80900002 1.6227485e-38
0.0097392714 -0.04346469 0.80900002 1.6780658e-38
0.012521913 -0.04346469 0.80900002 1.668775e-38
0.017997766 -0.043249782 0.80500001 1.6226769e-38
0.020663461 -0.043034878 0.801 1.6226769e-38
0.023360165 -0.042927425 0.79900002 1.6227124e-38
-0.023477111 -0.045925684 0.80299997 1.9084104e-38
-0.020715106 -0.045925684 0.80299997 1.9262692e-38
-0.017908363 -0.045811299 0.801 1.8986105e-38
-0.015153238 -0.045811299 0.801 1.9076505e-38
-0.012367156 -0.045696914 0.79900002 1.7140397e-38
-0.0096068457 -0.04563972 0.79799998 1.1890212e-38
-0.0068620401 -0.04563972 0.79799998 8.3868049e-39
-0.0041172346 -0.04563972 0.79799998 4.8812719e-39
-0.0013741488 -0.045696914 0.79900002 5.8032183e-39
0.0013981734 -0.046497613 0.81300002 7.0928628e-39
0.0041946266 -0.046497613 0.81300002 1.031971e-38
0.0069910265 -0.046497613 0.81300002 1.5850364e-38
0.0097874263 -0.046497613 0.81300002 1.6772321e-38
0.012583827 -0.046497613 0.81300002 1.9634429e-38
0.015380226 -0.046497613 0.81300002 1.9265647e-38
0.017997766 -0.046040069 0.80500001 1.8715697e-38
0.020663461 -0.045811299 0.801 1.8715697e-38
0.023360165 -0.045696914 0.79900002 1.6687018e-38
0.02610841 -0.045696914 0.79900002 1.6041649e-38
0.028856656 -0.045696914 0.79900002 1.6411516e-38
-0.023360165 -0.048466444 0.79900002 2.3325492e-38
-0.020611919 -0.048466444 0.79900002 2.3228219e-38
-0.017863648 -0.048466444 0.79900002 2.2398458e-38
-0.015115402 -0.048466444 0.79900002 2.2489585e-38
-0.012351678 -0.048405785 0.79799998 1.9723716e-38
-0.0096068457 -0.048405785 0.79799998 1.6407173e-38
-0.0068620401 -0.048405785 0.79799998 1.5116434e-38
-0.0041172346 -0.048405785 0.79799998 1.1889233e-38
-0.0013741488 -0.048466444 0.79900002 4.605778e-39
0.0013775361 -0.048587758 0.801 7.4641914e-39
0.0041739885 -0.049073033 0.80900002 1.1244212e-38
0.0069738282 -0.049194347 0.81099999 1.4009701e-38
0.0097151939 -0.048951712 0.80699998 1.1243833e-38
0.012490956 -0.048951712 0.80699998 2.0003555e-38
0.015304554 -0.049073033 0.80900002 2.1294294e-38
0.017997766 -0.048830397 0.80500001 2.0466335e-38
0.020663461 -0.048587758 0.801 2.0558531e-38
0.023360165 -0.048466444 0.79900002 1.9637291e-38
0.02610841 -0.048466444 0.79900002 1.6410444e-38
0.028856656 -0.048466444 0.79900002 1.6042012e-38
-0.023360165 -0.051235974 0.79900002 1.9081596e-38
-0.020611919 -0.051235974 0.79900002 2.0554166e-38
-0.017863648 -0.051235974 0.79900002 2.2951252e-38
-0.015115402 -0.051235974 0.79900002 2.3229323e-38
-0.012351678 -0.051171847 0.79799998 1.9264911e-38
-0.0096068457 -0.051171847 0.79799998 1.6496842e-38
-0.0068620401 -0.051171847 0.79799998 1.4376343e-38
-0.0041172346 -0.051171847 0.79799998 1.1797769e-38
-0.0013741488 -0.051235974 0.79900002 5.8972483e-39
0.0013740966 -0.051235974 0.79900002 8.1145985e-39
0.0041739885 -0.051877223 0.80900002 1.0142902e-38
0.0069566299 -0.051877223 0.80900002 1.1798806e-38
0.0097151939 -0.051748972 0.80699998 1.170661e-38
0.012490956 -0.051748972 0.80699998 1.6869946e-38
0.015304554 -0.051877223 0.80900002 1.8252881e-38
0.017997766 -0.051620722 0.80500001 1.7517147e-38
0.020663461 -0.051364221 0.801 1.7609343e-38
0.023360165 -0.051235974 0.79900002 1.7517507e-38
0.02610841 -0.051235974 0.79900002 1.8070681e-38
0.028856656 -0.051235974 0.79900002 1.7056519e-38
-0.023418637 -0.054140642 0.801 1.9360338e-38
-0.020663513 -0.054140642 0.801 1.8710581e-38
-0.017863648 -0.054005463 0.79900002 1.7419842e-38
-0.015115402 -0.054005463 0.79900002 1.5393016e-38
-0.012398113 -0.054140642 0.801 1.4655451e-38
-0.0096068457 -0.053937871 0.79799998 1.447321e-38
-0.0068620401 -0.053937871 0.79799998 1.5395167e-38
-0.0041172346 -0.053937871 0.79799998 1.6502286e-38
-0.0013741488 -0.054005463 0.79900002 1.705546e-38
0.0013740966 -0.054005463 0.79900002 1.7148728e-38
0.0041739885 -0.054681376 0.80900002 1.7333119e-38
0.0069566299 -0.054681376 0.80900002 1.8347997e-38
0.0097151939 -0.054546189 0.80699998 1.8716779e-38
0.012490956 -0.054546189 0.80699998 2.0190477e-38
0.015304554 -0.054681376 0.80900002 2.0006086e-38
0.017997766 -0.054411009 0.80500001 2.0099351e-38
0.020586068 -0.053937871 0.79799998 2.0375938e-38
0.023330927 -0.053937871 0.79799998 2.0283739e-38
0.02610841 -0.054005463 0.79900002 2.0375935e-38
0.028856656 -0.054005463 0.79900002 2.1020228e-38
