# .PCD v0.7 - Point Cloud Data file format
VERSION 0.7
FIELDS x y z rgb
SIZE 4 4 4 4
TYPE F F F F
COUNT 1 1 1 1
WIDTH 991
HEIGHT 1
VIEWPOINT 0 0 0 1 0 0 0
POINTS 991
DATA ascii
0.014988124 0.026611926 0.41499999 1.5018691e-38
0.016455118 0.026676051 0.41600001 1.778456e-38
0.017885994 0.026676051 0.41600001 1.5389685e-38
0.019316871 0.026676051 0.41600001 1.7233597e-38
0.020797648 0.026740177 0.417 1.4558079e-38
0.022338592 0.026868425 0.419 1.6401979e-38
0.023893295 0.026996676 0.421 1.5941411e-38
0.025401561 0.027060801 0.42199999 1.2069194e-38
0.02698034 0.027189052 0.42399999 1.5017665e-38
0.028438734 0.027189052 0.42399999 1.4648883e-38
0.029897127 0.027189052 0.42399999 1.4833965e-38
0.031355549 0.027189052 0.42399999 1.6862269e-38
0.03281394 0.027189052 0.42399999 1.6770799e-38
0.034272332 0.027189052 0.42399999 1.400493e-38
0.035730727 0.027189052 0.42399999 1.6494948e-38
0.037189119 0.027189052 0.42399999 1.9076425e-38
0.038556363 0.027124926 0.42300001 1.8154877e-38
0.040011317 0.027124926 0.42300001 1.8154877e-38
0.041564327 0.027189052 0.42399999 1.8335337e-38
0.043225657 0.027317302 0.426 1.6030447e-38
0.044690929 0.027317302 0.426 1.7589915e-38
0.047673073 0.028215054 0.44 1.8235285e-38
0.049186498 0.028215054 0.44 1.8143462e-38
0.050699927 0.028215054 0.44 1.860444e-38
0.052332051 0.028279182 0.44100001 1.9070468e-38
0.053848915 0.028279182 0.44100001 2.0176816e-38
0.055365782 0.028279182 0.44100001 2.0181126e-38
0.05688265 0.028279182 0.44100001 2.1932843e-38
0.058399517 0.028279182 0.44100001 2.2307745e-38
0.059916381 0.028279182 0.44100001 2.3137506e-38
0.061433248 0.028279182 0.44100001 2.341769e-38
0.062950142 0.028279182 0.44100001 2.341769e-38
0.064467013 0.028279182 0.44100001 2.3416964e-38
0.065983877 0.028279182 0.44100001 2.0190117e-38
0.06750074 0.028279182 0.44100001 1.7973819e-38
-0.016969353 0.02602268 0.42899999 2.341769e-38
-0.015493763 0.02602268 0.42899999 2.2864516e-38
-0.014018157 0.02602268 0.42899999 2.027187e-38
-0.012542566 0.02602268 0.42899999 1.8059175e-38
-0.011092772 0.026083339 0.43000001 1.943385e-38
-0.0096137272 0.026083339 0.43000001 1.9341655e-38
-0.0081157787 0.02602268 0.42899999 1.9525673e-38
-0.0066401879 0.02602268 0.42899999 1.8603717e-38
-0.0051645827 0.02602268 0.42899999 1.8512228e-38
-0.0036803926 0.025962021 0.428 2.2568835e-38
-0.0022030817 0.02590136 0.42699999 2.0640912e-38
-0.00072921038 0.025719384 0.42399999 1.9534564e-38
0.00072918268 0.025719384 0.42399999 2.064131e-38
0.0021876034 0.025719384 0.42399999 2.2024244e-38
0.0036459966 0.025719384 0.42399999 1.9443111e-38
0.0051043895 0.025719384 0.42399999 1.7599199e-38
0.0065627825 0.025719384 0.42399999 1.5935743e-38
0.0080211759 0.025719384 0.42399999 1.851722e-38
0.0093901381 0.025476748 0.41999999 1.8060855e-38
0.010808976 0.025416089 0.419 1.7876464e-38
0.012191725 0.025294773 0.417 1.6587136e-38
0.013560688 0.025173455 0.41499999 1.7601288e-38
0.014988124 0.025173455 0.41499999 1.7048491e-38
0.016455118 0.025234114 0.41600001 1.5849948e-38
0.017885994 0.025234114 0.41600001 1.6123281e-38
0.019316871 0.025234114 0.41600001 1.8704759e-38
0.020797648 0.025294773 0.417 1.3545736e-38
0.022285277 0.025355432 0.41800001 1.3730124e-38
0.023779785 0.025416089 0.419 1.6493846e-38
0.025461754 0.025658727 0.42300001 1.6401651e-38
0.02698034 0.025719384 0.42399999 1.4738162e-38
0.028371662 0.025658727 0.42300001 1.4553774e-38
0.029826615 0.025658727 0.42300001 1.4095314e-38
0.031281594 0.025658727 0.42300001 1.6307985e-38
0.032736551 0.025658727 0.42300001 1.5296012e-38
0.034191504 0.025658727 0.42300001 1.7047729e-38
0.035646457 0.025658727 0.42300001 1.8245259e-38
0.03710141 0.025658727 0.42300001 1.7876477e-38
0.038556363 0.025658727 0.42300001 2.027502e-38
0.040011317 0.025658727 0.42300001 1.7877934e-38
0.041564327 0.025719384 0.42399999 2.0365083e-38
0.043124191 0.025780044 0.42500001 1.6308475e-38
0.044586021 0.025780044 0.42500001 1.6760511e-38
0.047673073 0.026689928 0.44 1.7313684e-38
0.049186498 0.026689928 0.44 1.6761599e-38
0.050699927 0.026689928 0.44 1.7499164e-38
0.052332051 0.026750589 0.44100001 1.7225101e-38
0.053848915 0.026750589 0.44100001 1.7501688e-38
0.055365782 0.026750589 0.44100001 1.7319099e-38
0.05688265 0.026750589 0.44100001 1.8886425e-38
0.058399517 0.026750589 0.44100001 1.953576e-38
0.059916381 0.026750589 0.44100001 2.036552e-38
0.061293941 0.026689928 0.44 2.0920492e-38
0.062807396 0.026689928 0.44 2.1473666e-38
0.064320825 0.026689928 0.44 2.1750969e-38
0.065834247 0.026689928 0.44 2.3503046e-38
0.067347676 0.026689928 0.44 2.3227904e-38
0.068861105 0.026689928 0.44 1.8433731e-38
-0.018401949 0.024478469 0.428 2.341769e-38
-0.016929798 0.024478469 0.428 2.3325494e-38
-0.015457647 0.024478469 0.428 2.341769e-38
-0.013985481 0.024478469 0.428 2.0366234e-38
-0.012513329 0.024478469 0.428 1.769256e-38
-0.011066975 0.02453566 0.42899999 1.8787758e-38
-0.0096137272 0.024592854 0.43000001 1.8972149e-38
-0.0081157787 0.02453566 0.42899999 1.8514393e-38
-0.0066401879 0.02453566 0.42899999 1.7408045e-38
-0.0051645827 0.02453566 0.42899999 1.8420382e-38
-0.0036889918 0.02453566 0.42899999 2.3122359e-38
-0.0022082413 0.024478469 0.428 1.8703381e-38
-0.00072921038 0.024249697 0.42399999 1.8426795e-38
0.00072918268 0.024249697 0.42399999 2.1563289e-38
0.0021876034 0.024249697 0.42399999 1.9811572e-38
0.0036459966 0.024249697 0.42399999 1.7783631e-38
0.0051043895 0.024249697 0.42399999 1.7414848e-38
0.0065627825 0.024249697 0.42399999 1.7133243e-38
0.0080211759 0.024249697 0.42399999 1.8516178e-38
0.0094348537 0.024135312 0.42199999 1.7969041e-38
0.010808976 0.023963735 0.419 1.7047084e-38
0.012220962 0.023906542 0.41800001 1.6033963e-38
0.013560688 0.023734964 0.41499999 1.4558832e-38
0.014988124 0.023734964 0.41499999 1.6585338e-38
0.016455118 0.023792157 0.41600001 1.5478991e-38
0.017885994 0.023792157 0.41600001 1.6032165e-38
0.019316871 0.023792157 0.41600001 1.8613642e-38
0.020797648 0.023849349 0.417 1.7233209e-38
0.022285277 0.023906542 0.41800001 1.5481492e-38
0.023723032 0.023906542 0.41800001 1.3353455e-38
0.025461754 0.024192505 0.42300001 1.9161762e-38
0.02698034 0.024249697 0.42399999 1.9260496e-38
0.028371662 0.024192505 0.42300001 1.5203888e-38
0.029826615 0.024192505 0.42300001 1.2437253e-38
0.031207642 0.024135312 0.42199999 1.4373337e-38
0.032659154 0.024135312 0.42199999 1.4925118e-38
0.034191504 0.024192505 0.42300001 1.4740727e-38
0.035646457 0.024192505 0.42300001 1.6956292e-38
0.03710141 0.024192505 0.42300001 1.6403118e-38
0.038556363 0.024192505 0.42300001 1.6310845e-38
0.040011317 0.024192505 0.42300001 1.686401e-38
0.041564327 0.024249697 0.42399999 1.7597701e-38
0.043124191 0.024306891 0.42500001 1.4924028e-38
0.044586021 0.024306891 0.42500001 1.5931074e-38
0.046156202 0.024364082 0.426 1.6668639e-38
0.049186498 0.025164781 0.44 1.6668685e-38
0.050815154 0.025221976 0.44100001 1.7037467e-38
0.052332051 0.025221976 0.44100001 1.7038183e-38
0.053848915 0.025221976 0.44100001 1.7683553e-38
0.055240232 0.025164781 0.44 1.6858121e-38
0.056753661 0.025164781 0.44 1.7319099e-38
0.058267087 0.025164781 0.44 1.7506004e-38
0.059780516 0.025164781 0.44 1.7690395e-38
0.061293941 0.025164781 0.44 1.8059175e-38
0.062807396 0.025164781 0.44 1.7137219e-38
0.064320825 0.025164781 0.44 1.6947788e-38
0.065834247 0.025164781 0.44 1.6947788e-38
0.067347676 0.025164781 0.44 1.6770945e-38
0.068861105 0.025164781 0.44 1.9075835e-38
0.070374534 0.025164781 0.44 1.7333119e-38
-0.018358953 0.022941189 0.42699999 2.1756371e-38
-0.016890241 0.022941189 0.42699999 2.249142e-38
-0.015421529 0.022941189 0.42699999 2.3321181e-38
-0.013952804 0.022941189 0.42699999 2.3322257e-38
-0.012484092 0.022941189 0.42699999 1.9818823e-38
-0.011041178 0.022994917 0.428 1.8881749e-38
-0.0095690126 0.022994917 0.428 1.8697357e-38
-0.0081157787 0.023048641 0.42899999 1.796014e-38
-0.0066401879 0.023048641 0.42899999 1.796014e-38
-0.0051645827 0.023048641 0.42899999 1.713072e-38
-0.0036889918 0.023048641 0.42899999 1.8790241e-38
-0.0022134006 0.023048641 0.42899999 1.7224333e-38
-0.00073780958 0.023048641 0.42899999 1.6763355e-38
0.00074122101 0.023156095 0.43099999 1.7500947e-38
0.0022237194 0.023156095 0.43099999 1.8238512e-38
0.0037061898 0.023156095 0.43099999 1.8333238e-38
0.0051886598 0.023156095 0.43099999 1.8333238e-38
0.0065627825 0.02278001 0.42399999 1.7595673e-38
0.0080211759 0.02278001 0.42399999 1.7503478e-38
0.0094348537 0.022672556 0.42199999 1.7231125e-38
0.010808976 0.022511378 0.419 1.6216973e-38
0.012220962 0.022457652 0.41800001 1.7138912e-38
0.013626041 0.022403926 0.417 1.7231107e-38
0.015024241 0.022350198 0.41600001 1.6676131e-38
0.016455118 0.022350198 0.41600001 1.5661979e-38
0.017885994 0.022350198 0.41600001 1.6033989e-38
0.019316871 0.022350198 0.41600001 1.686375e-38
0.020797648 0.022403926 0.417 1.3819449e-38
0.022285277 0.022457652 0.41800001 2.0088728e-38
0.023723032 0.022457652 0.41800001 1.5107036e-38
0.025160788 0.022457652 0.41800001 1.2802145e-38
0.026534911 0.022403926 0.417 1.7969013e-38
0.028036298 0.022457652 0.41800001 2.0273904e-38
0.029474054 0.022457652 0.41800001 1.7231107e-38
0.030911837 0.022457652 0.41800001 1.1975956e-38
0.032659154 0.022672556 0.42199999 1.5663388e-38
0.034191504 0.022726284 0.42300001 1.3911671e-38
0.035646457 0.022726284 0.42300001 1.4648838e-38
0.03710141 0.022726284 0.42300001 1.8521033e-38
0.038556363 0.022726284 0.42300001 1.6127587e-38
0.040011317 0.022726284 0.42300001 1.7879304e-38
0.041564327 0.02278001 0.42399999 1.8524716e-38
0.043022718 0.02278001 0.42399999 1.9631063e-38
0.044586021 0.022833737 0.42500001 1.9903758e-38
0.046156202 0.022887463 0.426 1.5570563e-38
0.047733258 0.022941189 0.42699999 1.6302416e-38
0.050815154 0.023693362 0.44100001 1.6394612e-38
0.052332051 0.023693362 0.44100001 1.6486091e-38
0.053848915 0.023693362 0.44100001 1.7039265e-38
0.055240232 0.023639634 0.44 1.6673369e-38
0.056753661 0.023639634 0.44 1.6581174e-38
0.058267087 0.023639634 0.44 1.6582606e-38
0.059780516 0.023639634 0.44 1.713578e-38
0.061293941 0.023639634 0.44 1.6307814e-38
0.062807396 0.023639634 0.44 1.6123423e-38
0.064320825 0.023639634 0.44 1.5936508e-38
0.065834247 0.023639634 0.44 1.483016e-38
0.067347676 0.023639634 0.44 1.6769476e-38
0.068861105 0.023639634 0.44 2.1840236e-38
0.070374534 0.023639634 0.44 1.7793028e-38
-0.021196645 0.021360604 0.42500001 1.9265624e-38
-0.019734811 0.021360604 0.42500001 2.1842801e-38
-0.018358953 0.021461124 0.42699999 1.9814498e-38
-0.016890241 0.021461124 0.42699999 2.0642104e-38
-0.015421529 0.021461124 0.42699999 2.07343e-38
-0.013952804 0.021461124 0.42699999 2.2120837e-38
-0.012484092 0.021461124 0.42699999 2.3227185e-38
-0.011015381 0.021461124 0.42699999 2.193213e-38
-0.0095466543 0.021461124 0.42699999 1.750674e-38
-0.0080968607 0.021511385 0.428 1.6671196e-38
-0.0066401879 0.021561645 0.42899999 1.6302413e-38
-0.0051645827 0.021561645 0.42899999 1.70389e-38
-0.0036889918 0.021561645 0.42899999 1.70389e-38
-0.0022185601 0.021611905 0.43000001 1.7131098e-38
-0.00073952938 0.021611905 0.43000001 1.7315489e-38
0.00074122101 0.021662164 0.43099999 1.7130748e-38
0.0022237194 0.021662164 0.43099999 1.749953e-38
0.0037061898 0.021662164 0.43099999 1.8332888e-38
0.0051886598 0.021662164 0.43099999 1.870167e-38
0.0065627825 0.021310342 0.42399999 1.8058096e-38
0.0080211759 0.021310342 0.42399999 1.7597118e-38
0.009457211 0.021260083 0.42300001 1.7323303e-38
0.010886367 0.021209823 0.42199999 1.6032564e-38
0.012250199 0.021059042 0.419 1.6677596e-38
0.013626041 0.020958522 0.417 1.4925879e-38
0.015024241 0.020908261 0.41600001 1.5476156e-38
0.016455118 0.020908261 0.41600001 1.6674699e-38
0.017885994 0.020908261 0.41600001 1.5941077e-38
0.019316871 0.020908261 0.41600001 1.7600599e-38
0.020797648 0.020958522 0.417 1.335489e-38
0.022231963 0.020958522 0.417 1.7688061e-38
0.023666279 0.020958522 0.417 2.0274329e-38
0.025100594 0.020958522 0.417 1.2806483e-38
0.026534911 0.020958522 0.417 1.483215e-38
0.028036298 0.021008782 0.41800001 1.8519957e-38
0.029474054 0.021008782 0.41800001 2.1379911e-38
0.030911837 0.021008782 0.41800001 1.7507694e-38
0.032349594 0.021008782 0.41800001 1.4832509e-38
0.034191504 0.021260083 0.42300001 1.5385674e-38
0.035646457 0.021260083 0.42300001 1.437334e-38
0.03710141 0.021260083 0.42300001 1.5571883e-38
0.038556363 0.021260083 0.42300001 1.9168641e-38
0.040011317 0.021260083 0.42300001 1.7509119e-38
0.041466299 0.021260083 0.42300001 1.6954461e-38
0.043022718 0.021310342 0.42399999 1.7507635e-38
0.044586021 0.021360604 0.42500001 1.8982177e-38
0.046264548 0.021461124 0.42699999 1.5939721e-38
0.047733258 0.021461124 0.42699999 1.5749956e-38
0.050930377 0.022215029 0.442 1.6026543e-38
0.052450713 0.022215029 0.442 1.6394972e-38
0.053848915 0.022164769 0.44100001 1.6487168e-38
0.055240232 0.022114508 0.44 1.6120193e-38
0.056753661 0.022114508 0.44 1.6304584e-38
0.058267087 0.022114508 0.44 1.6305663e-38
0.059780516 0.022114508 0.44 1.6213467e-38
0.061293941 0.022114508 0.44 1.6030155e-38
0.062807396 0.022114508 0.44 1.5845764e-38
0.064320825 0.022114508 0.44 1.5659928e-38
0.065834247 0.022114508 0.44 1.5659928e-38
0.067347676 0.022114508 0.44 1.3634731e-38
0.068861105 0.022114508 0.44 2.1379164e-38
0.070534475 0.022164769 0.44100001 2.1752025e-38
0.072541513 0.022315551 0.44400001 1.9170548e-38
0.074235521 0.022365808 0.44499999 1.7425665e-38
0.075766146 0.022365808 0.44499999 1.7241274e-38
-0.025822928 0.020074626 0.42899999 2.3418043e-38
-0.024347322 0.020074626 0.42899999 2.3233652e-38
-0.021196645 0.019887451 0.42500001 1.972658e-38
-0.019734811 0.019887451 0.42500001 1.9812314e-38
-0.018358953 0.019981038 0.42699999 1.9720119e-38
-0.016890241 0.019981038 0.42699999 1.8979702e-38
-0.015421529 0.019981038 0.42699999 1.9348485e-38
-0.013952804 0.019981038 0.42699999 1.9442122e-38
-0.012484092 0.019981038 0.42699999 2.1193839e-38
-0.010989583 0.019934244 0.426 2.24889e-38
-0.009524297 0.019934244 0.426 2.2581095e-38
-0.0080590248 0.019934244 0.426 2.0542349e-38
-0.006578275 0.019887451 0.42500001 1.7223306e-38
-0.0051164282 0.019887451 0.42500001 1.7222578e-38
-0.0036889918 0.020074626 0.42899999 1.7499164e-38
-0.0022134006 0.020074626 0.42899999 1.7589918e-38
-0.00073952938 0.02012142 0.43000001 1.7589918e-38
0.00074122101 0.020168213 0.43099999 1.7314054e-38
0.0022237194 0.020168213 0.43099999 1.7129663e-38
0.0037061898 0.020168213 0.43099999 1.7869392e-38
0.0051886598 0.020168213 0.43099999 1.916013e-38
0.0066711302 0.020168213 0.43099999 1.8057383e-38
0.0080400938 0.019887451 0.42500001 1.8241774e-38
0.0094795683 0.019840656 0.42399999 1.7323694e-38
0.010912165 0.019793862 0.42300001 1.6309542e-38
0.012279435 0.019653479 0.41999999 1.6858781e-38
0.013691394 0.019606685 0.419 1.7780737e-38
0.015060357 0.019513099 0.417 1.6213724e-38
0.016494673 0.019513099 0.417 1.6398115e-38
0.017928988 0.019513099 0.417 1.7323308e-38
0.019363305 0.019513099 0.417 1.7968678e-38
0.020797648 0.019513099 0.417 1.612365e-38
0.02217865 0.019466303 0.41600001 1.4925107e-38
0.023609526 0.019466303 0.41600001 1.926012e-38
0.025100594 0.019513099 0.417 1.6863034e-38
0.026534911 0.019513099 0.417 1.4552755e-38
0.027969226 0.019513099 0.417 1.676545e-38
0.029474054 0.019559892 0.41800001 1.8800194e-38
0.030911837 0.019559892 0.41800001 2.1658259e-38
0.032349594 0.019559892 0.41800001 1.6037162e-38
0.033787347 0.019559892 0.41800001 1.4193249e-38
0.035309374 0.019606685 0.419 1.5385017e-38
0.03692599 0.019700274 0.421 1.5661604e-38
0.038374063 0.019700274 0.421 1.8154106e-38
0.039916724 0.019747067 0.42199999 2.0090214e-38
0.04117221 0.019653479 0.41999999 1.8801273e-38
0.042616844 0.019653479 0.41999999 1.6680774e-38
0.044795837 0.019981038 0.42699999 1.6119075e-38
0.046264548 0.019981038 0.42699999 1.6764444e-38
0.047733258 0.019981038 0.42699999 1.676411e-38
0.050930377 0.02068295 0.442 1.6395328e-38
0.052450713 0.02068295 0.442 1.6210221e-38
0.053848915 0.020636156 0.44100001 1.6394612e-38
0.055365782 0.020636156 0.44100001 1.6027994e-38
0.056753661 0.020589361 0.44 1.612019e-38
0.058267087 0.020589361 0.44 1.5753934e-38
0.059780516 0.020589361 0.44 1.584613e-38
0.061293941 0.020589361 0.44 1.5662457e-38
0.062807396 0.020589361 0.44 1.5478066e-38
0.064320825 0.020589361 0.44 1.5477335e-38
0.065834247 0.020589361 0.44 1.5385139e-38
0.067347676 0.020589361 0.44 1.1052904e-38
0.068861105 0.020589361 0.44 1.409534e-38
0.070534475 0.020636156 0.44100001 1.437922e-38
0.072541513 0.020776536 0.44400001 1.6960697e-38
0.074235521 0.02082333 0.44499999 1.7884119e-38
0.075766146 0.02082333 0.44499999 1.7699728e-38
-0.028639965 0.018500973 0.42699999 2.2214759e-38
-0.027107619 0.018457646 0.426 2.1384999e-38
-0.025642347 0.018457646 0.426 2.2214769e-38
-0.024233814 0.018500973 0.42699999 2.0278661e-38
-0.022765102 0.018500973 0.42699999 1.9629288e-38
-0.021196645 0.018414319 0.42500001 1.7416593e-38
-0.019734811 0.018414319 0.42500001 1.6770533e-38
-0.018358953 0.018500973 0.42699999 1.8337858e-38
-0.016850686 0.018457646 0.426 1.7965187e-38
-0.015349299 0.018414319 0.42500001 1.833397e-38
-0.013887453 0.018414319 0.42500001 1.8333617e-38
-0.01242562 0.018414319 0.42500001 1.8610203e-38
-0.010963787 0.018414319 0.42500001 1.8794598e-38
-0.0095019406 0.018414319 0.42500001 2.0177532e-38
-0.0080401078 0.018414319 0.42500001 2.1193479e-38
-0.006578275 0.018414319 0.42500001 2.0087131e-38
-0.0051164282 0.018414319 0.42500001 1.9160481e-38
-0.0036631944 0.018457646 0.426 1.8054133e-38
-0.0022030817 0.018500973 0.42699999 1.7683556e-38
-0.00073780958 0.018587628 0.42899999 1.6945991e-38
0.00073950127 0.018630957 0.43000001 1.722042e-38
0.0022237194 0.018674284 0.43099999 1.6943833e-38
0.0037147889 0.018717613 0.43200001 1.731442e-38
0.0051886598 0.018674284 0.43099999 1.9342724e-38
0.0066711302 0.018674284 0.43099999 1.815066e-38
0.0080400938 0.018414319 0.42500001 1.8335052e-38
0.0094795683 0.01837099 0.42399999 1.8152776e-38
0.010937962 0.01837099 0.42399999 1.6862037e-38
0.012396382 0.01837099 0.42399999 1.7504883e-38
0.013822099 0.018327663 0.42300001 1.8980013e-38
0.015277052 0.018327663 0.42300001 1.7876479e-38
0.016494673 0.018067695 0.417 1.6309154e-38
0.017928988 0.018067695 0.417 1.7691375e-38
0.019363305 0.018067695 0.417 1.7046005e-38
0.020747773 0.018024366 0.41600001 1.8061584e-38
0.02217865 0.018024366 0.41600001 1.5756693e-38
0.023609526 0.018024366 0.41600001 1.658641e-38
0.025040401 0.018024366 0.41600001 1.8338127e-38
0.026471278 0.018024366 0.41600001 1.5015957e-38
0.030911837 0.018111022 0.41800001 2.1288025e-38
0.032349594 0.018111022 0.41800001 2.0367196e-38
0.033787347 0.018111022 0.41800001 1.5480828e-38
0.035309374 0.018154349 0.419 1.5478615e-38
0.036838278 0.018197678 0.41999999 1.5847398e-38
0.038282912 0.018197678 0.41999999 1.6495639e-38
0.039822139 0.018241005 0.421 2.0460051e-38
0.04117221 0.018197678 0.41999999 2.0459392e-38
0.042616844 0.018197678 0.41999999 1.8615479e-38
0.044061478 0.018197678 0.41999999 1.7413754e-38
0.046264548 0.018500973 0.42699999 1.7229363e-38
0.047733258 0.018500973 0.42699999 1.759496e-38
0.050930377 0.01915089 0.442 1.7410569e-38
0.052450713 0.01915089 0.442 1.6948865e-38
0.053848915 0.019107563 0.44100001 1.6487887e-38
0.055365782 0.019107563 0.44100001 1.6027644e-38
0.05688265 0.019107563 0.44100001 1.5935448e-38
0.058399517 0.019107563 0.44100001 1.5660659e-38
0.059780516 0.019064235 0.44 1.5752855e-38
0.061293941 0.019064235 0.44 1.5661373e-38
0.062807396 0.019064235 0.44 1.5569177e-38
0.064320825 0.019064235 0.44 1.5661366e-38
0.065834247 0.019064235 0.44 1.5292583e-38
0.067347676 0.019064235 0.44 1.01324e-38
0.069017611 0.019107563 0.44100001 1.3359247e-38
0.070694409 0.01915089 0.442 1.1982481e-38
0.072541513 0.019237546 0.44400001 1.1705894e-38
0.074235521 0.019280873 0.44499999 1.419374e-38
0.075766146 0.019280873 0.44499999 1.8250347e-38
-0.031429499 0.016941164 0.42500001 2.3137454e-38
-0.029967668 0.016941164 0.42500001 2.1385737e-38
-0.028505821 0.016941164 0.42500001 2.1658323e-38
-0.027043989 0.016941164 0.42500001 2.1289541e-38
-0.025642347 0.016981024 0.426 1.7051388e-38
-0.024177061 0.016981024 0.426 1.659041e-38
-0.022711789 0.016981024 0.426 1.6496084e-38
-0.021246517 0.016981024 0.426 1.5850715e-38
-0.019827679 0.017020887 0.42699999 1.483691e-38
-0.018358953 0.017020887 0.42699999 1.7879366e-38
-0.016850686 0.016981024 0.426 1.7964471e-38
-0.015349299 0.016941164 0.42500001 1.8148862e-38
-0.013887453 0.016941164 0.42500001 1.7871559e-38
-0.01242562 0.016941164 0.42500001 1.8055951e-38
-0.010963787 0.016941164 0.42500001 1.8240695e-38
-0.0095019406 0.016941164 0.42500001 1.8148499e-38
-0.0080401078 0.016941164 0.42500001 1.8055232e-38
-0.006578275 0.016941164 0.42500001 1.8608406e-38
-0.0051164282 0.016941164 0.42500001 1.8699868e-38
-0.0036631944 0.016981024 0.426 1.823889e-38
-0.0022030817 0.017020887 0.42699999 1.7776477e-38
-0.00073780958 0.01710061 0.42899999 1.6854521e-38
0.00073778152 0.01710061 0.42899999 1.6759091e-38
0.0022185601 0.017140472 0.43000001 1.6298113e-38
0.0037061898 0.017180333 0.43099999 1.7222234e-38
0.0051886598 0.017180333 0.43099999 1.878956e-38
0.0066711302 0.017180333 0.43099999 1.8611285e-38
0.0080779288 0.017020887 0.42699999 1.8242503e-38
0.009524283 0.016981024 0.426 1.7966607e-38
0.010937962 0.016901301 0.42399999 1.7229042e-38
0.012396382 0.016901301 0.42399999 1.7319793e-38
0.013854776 0.016901301 0.42399999 1.7135401e-38
0.015313168 0.016901301 0.42399999 1.7046368e-38
0.016534228 0.016662132 0.41800001 1.6769782e-38
0.017928988 0.016622271 0.417 1.7785022e-38
0.019363305 0.016622271 0.417 1.677087e-38
0.020747773 0.016582409 0.41600001 1.7600268e-38
0.02217865 0.016582409 0.41600001 1.7969051e-38
0.023609526 0.016582409 0.41600001 1.6402354e-38
0.025040401 0.016582409 0.41600001 2.0735549e-38
0.02698034 0.016901301 0.42399999 1.630707e-38
0.028438734 0.016901301 0.42399999 1.418657e-38
0.029826615 0.016861441 0.42300001 1.5663399e-38
0.030689981 0.016542548 0.41499999 1.8705855e-38
0.032117419 0.016542548 0.41499999 2.1196216e-38
0.033544853 0.016542548 0.41499999 1.9997673e-38
0.035309374 0.016701994 0.419 1.6588518e-38
0.036838278 0.016741855 0.41999999 1.5389979e-38
0.038282912 0.016741855 0.41999999 1.5941041e-38
0.039822139 0.016781718 0.421 1.7692758e-38
0.041270241 0.016781718 0.421 2.0275711e-38
0.042616844 0.016741855 0.41999999 1.8708385e-38
0.044061478 0.016741855 0.41999999 1.797229e-38
0.045506112 0.016741855 0.41999999 1.6958138e-38
0.04929829 0.01757895 0.44100001 1.7871544e-38
0.050815154 0.01757895 0.44100001 1.7779348e-38
0.052450713 0.017618811 0.442 1.7596042e-38
0.053971019 0.017618811 0.442 1.7042868e-38
0.055365782 0.01757895 0.44100001 1.5935811e-38
0.05688265 0.01757895 0.44100001 1.575142e-38
0.058399517 0.01757895 0.44100001 1.5660659e-38
0.059916381 0.01757895 0.44100001 1.5660659e-38
0.061293941 0.017539088 0.44 1.5661373e-38
0.062807396 0.017539088 0.44 1.5661373e-38
0.064320825 0.017539088 0.44 1.5938315e-38
0.065834247 0.017539088 0.44 1.4278794e-38
0.06750074 0.01757895 0.44100001 1.0961823e-38
0.069017611 0.01757895 0.44100001 1.2160366e-38
0.070694409 0.017618811 0.442 1.1607933e-38
0.072541513 0.017698534 0.44400001 1.0317194e-38
0.074235521 0.017738394 0.44499999 1.0974134e-38
0.075766146 0.017738394 0.44499999 1.7151242e-38
-0.032891333 0.01546801 0.42500001 1.9538572e-38
-0.031429499 0.01546801 0.42500001 1.8337833e-38
-0.029967668 0.01546801 0.42500001 1.6954899e-38
-0.028505821 0.01546801 0.42500001 1.6496804e-38
-0.027043989 0.01546801 0.42500001 1.5574848e-38
-0.025582155 0.01546801 0.42500001 1.5022769e-38
-0.024177061 0.015504405 0.426 1.5944725e-38
-0.022711789 0.015504405 0.426 1.5575933e-38
-0.021246517 0.015504405 0.426 1.5483737e-38
-0.019827679 0.0155408 0.42699999 1.4746157e-38
-0.018358953 0.0155408 0.42699999 1.677446e-38
-0.016890241 0.0155408 0.42699999 1.8057749e-38
-0.015385414 0.015504405 0.426 1.7504575e-38
-0.013887453 0.01546801 0.42500001 1.8240692e-38
-0.01242562 0.01546801 0.42500001 1.8056301e-38
-0.010963787 0.01546801 0.42500001 1.7963387e-38
-0.009524297 0.015504405 0.426 1.8424365e-38
-0.0080590248 0.015504405 0.426 1.8240692e-38
-0.0065937527 0.015504405 0.426 1.8056301e-38
-0.0051284665 0.015504405 0.426 1.8146692e-38
-0.0036631944 0.015504405 0.426 1.7685714e-38
-0.0022030817 0.0155408 0.42699999 1.7775388e-38
-0.00073780958 0.01561359 0.42899999 1.7222215e-38
0.00073778152 0.01561359 0.42899999 1.694383e-38
0.0022185601 0.015649987 0.43000001 1.54687e-38
0.0037061898 0.015686382 0.43099999 1.6853445e-38
0.0051886598 0.015686382 0.43099999 1.8881749e-38
0.0066711302 0.015686382 0.43099999 1.8429052e-38
0.0080968468 0.015577196 0.428 1.7783683e-38
0.0095466403 0.0155408 0.42699999 1.7689667e-38
0.010963759 0.01546801 0.42500001 1.7136493e-38
0.012396382 0.015431614 0.42399999 1.6858461e-38
0.013854776 0.015431614 0.42399999 1.7135048e-38
0.015313168 0.015431614 0.42399999 1.6400305e-38
0.016811118 0.01546801 0.42500001 1.6769088e-38
0.017928988 0.015176848 0.417 1.8338202e-38
0.019363305 0.015176848 0.417 1.6770876e-38
0.020797648 0.015176848 0.417 1.7691776e-38
0.022231963 0.015176848 0.417 1.8152754e-38
0.024063554 0.015431614 0.42399999 1.7688851e-38
0.025521947 0.015431614 0.42399999 2.0270329e-38
0.02698034 0.015431614 0.42399999 1.8613013e-38
0.028438734 0.015431614 0.42399999 1.4372014e-38
0.029826615 0.015395219 0.42300001 1.5755276e-38
0.031207642 0.015358823 0.42199999 1.6216255e-38
0.032040026 0.015067662 0.414 2.1287705e-38
0.033464022 0.015067662 0.414 2.1564292e-38
0.035309374 0.015249638 0.419 2.0274622e-38
0.036838278 0.015286032 0.41999999 1.7139971e-38
0.038282912 0.015286032 0.41999999 1.612438e-38
0.039822139 0.015322428 0.421 1.6585358e-38
0.041270241 0.015322428 0.421 1.8524347e-38
0.042616844 0.015286032 0.41999999 2.1566803e-38
0.044061478 0.015286032 0.41999999 1.7877236e-38
0.045506112 0.015286032 0.41999999 1.7416258e-38
0.04929829 0.016050335 0.44100001 1.7318373e-38
0.050815154 0.016050335 0.44100001 1.7410569e-38
0.052450713 0.016086731 0.442 1.7779714e-38
0.053971019 0.016086731 0.442 1.7410932e-38
0.055365782 0.016050335 0.44100001 1.6305663e-38
0.05688265 0.016050335 0.44100001 1.5568098e-38
0.058399517 0.016050335 0.44100001 1.5567385e-38
0.059916381 0.016050335 0.44100001 1.5475189e-38
0.061433248 0.016050335 0.44100001 1.5292227e-38
0.062950142 0.016050335 0.44100001 1.566101e-38
0.064467013 0.016050335 0.44100001 1.5200748e-38
0.065983877 0.016050335 0.44100001 1.2250487e-38
0.06750074 0.016050335 0.44100001 1.0042714e-38
0.069017611 0.016050335 0.44100001 1.0595879e-38
0.070854351 0.016123125 0.44299999 8.6681717e-39
0.072704896 0.016195916 0.44499999 1.355454e-38
0.074235521 0.016195916 0.44499999 1.7424248e-38
0.075936407 0.016232312 0.44600001 1.7239857e-38
-0.032891333 0.013994877 0.42500001 1.6310258e-38
-0.031429499 0.013994877 0.42500001 1.57578e-38
-0.029967668 0.013994877 0.42500001 1.6034387e-38
-0.028505821 0.013994877 0.42500001 1.5391895e-38
-0.027043989 0.013994877 0.42500001 1.3916764e-38
-0.025582155 0.013994877 0.42500001 1.4745834e-38
-0.024177061 0.014027806 0.426 1.483803e-38
-0.022711789 0.014027806 0.426 1.5206794e-38
-0.021246517 0.014027806 0.426 1.5114599e-38
-0.019827679 0.014060735 0.42699999 1.5299699e-38
-0.018401949 0.014093664 0.428 1.6313851e-38
-0.016890241 0.014060735 0.42699999 1.8152793e-38
-0.015385414 0.014027806 0.426 1.7323032e-38
-0.013887453 0.013994877 0.42500001 1.8240689e-38
-0.01242562 0.013994877 0.42500001 1.8425081e-38
-0.010989583 0.014027806 0.426 1.8518711e-38
-0.0095466543 0.014060735 0.42699999 1.8887494e-38
-0.0080779428 0.014060735 0.42699999 1.971582e-38
-0.0066092312 0.014060735 0.42699999 1.9254841e-38
-0.0051405053 0.014060735 0.42699999 1.8979327e-38
-0.0036717935 0.014060735 0.42699999 1.8426153e-38
-0.0022030817 0.014060735 0.42699999 1.8515827e-38
-0.00073780958 0.014126593 0.42899999 1.8423632e-38
0.00073950127 0.014159523 0.43000001 1.7592076e-38
0.0022185601 0.014159523 0.43000001 1.6301337e-38
0.0037061898 0.014192452 0.43099999 1.6576492e-38
0.0051886598 0.014192452 0.43099999 1.8881383e-38
0.0066556521 0.014159523 0.43000001 1.8152109e-38
0.0081157647 0.014126593 0.42899999 1.7967718e-38
0.0095689986 0.014093664 0.428 1.722797e-38
0.010989555 0.014027806 0.426 1.722797e-38
0.01242562 0.013994877 0.42500001 1.7319439e-38
0.013887453 0.013994877 0.42500001 1.7964809e-38
0.015349285 0.013994877 0.42500001 1.6769832e-38
0.016850673 0.014027806 0.426 1.6308854e-38
0.01835894 0.014060735 0.42699999 1.8246369e-38
0.019827651 0.014060735 0.42699999 1.5757087e-38
0.021296391 0.014060735 0.42699999 1.6122679e-38
0.022658477 0.013994877 0.42500001 1.7413418e-38
0.024063554 0.013961948 0.42399999 1.5293986e-38
0.025521947 0.013961948 0.42399999 1.7783268e-38
0.02698034 0.013961948 0.42399999 1.7966552e-38
0.028438734 0.013961948 0.42399999 1.4555314e-38
0.029826615 0.013929019 0.42300001 1.6308453e-38
0.031207642 0.013896089 0.42199999 1.5478692e-38
0.032040026 0.013632657 0.414 1.8891748e-38
0.033464022 0.013632657 0.414 2.0459074e-38
0.034888022 0.013632657 0.414 1.7694573e-38
0.03692599 0.01386316 0.421 1.5666269e-38
0.038374063 0.01386316 0.421 1.5848892e-38
0.039822139 0.01386316 0.421 1.6863044e-38
0.041368265 0.013896089 0.42199999 1.6218781e-38
0.042819779 0.013896089 0.42199999 1.7140737e-38
0.044271294 0.013896089 0.42199999 1.5567336e-38
0.045722809 0.013896089 0.42199999 1.5936118e-38
0.049410071 0.014554673 0.442 1.5659565e-38
0.050930377 0.014554673 0.442 1.6028348e-38
0.052450713 0.014554673 0.442 1.62113e-38
0.053971019 0.014554673 0.442 1.6303495e-38
0.055491325 0.014554673 0.442 1.5843596e-38
0.05701163 0.014554673 0.442 1.5474814e-38
0.058399517 0.014521744 0.44100001 1.5382994e-38
0.059916381 0.014521744 0.44100001 1.5382994e-38
0.061433248 0.014521744 0.44100001 1.483018e-38
0.062950142 0.014521744 0.44100001 1.483018e-38
0.064467013 0.014521744 0.44100001 1.4186596e-38
0.065983877 0.014521744 0.44100001 1.6030508e-38
0.06750074 0.014521744 0.44100001 1.2812607e-38
0.069174103 0.014554673 0.442 1.4840911e-38
0.070854351 0.014587602 0.44299999 1.7149103e-38
0.072704896 0.01465346 0.44499999 1.742569e-38
0.07440234 0.01468639 0.44600001 1.6595904e-38
-0.032891333 0.012521745 0.42500001 1.4653225e-38
-0.031429499 0.012521745 0.42500001 1.4653598e-38
-0.029967668 0.012521745 0.42500001 1.4653598e-38
-0.028505821 0.012521745 0.42500001 1.4561412e-38
-0.027043989 0.012521745 0.42500001 1.3639456e-38
-0.025582155 0.012521745 0.42500001 1.5942972e-38
-0.024177061 0.012551207 0.426 1.6219559e-38
-0.022711789 0.012551207 0.426 1.5852164e-38
-0.021246517 0.012551207 0.426 1.7419489e-38
-0.019827679 0.012580669 0.42699999 1.8250381e-38
-0.018401949 0.012610133 0.428 2.0186489e-38
-0.016929798 0.012610133 0.428 2.0094306e-38
-0.015421529 0.012580669 0.42699999 1.8342589e-38
-0.013952804 0.012580669 0.42699999 1.9350983e-38
-0.012484092 0.012580669 0.42699999 1.9719766e-38
-0.011015381 0.012580669 0.42699999 1.9811601e-38
-0.0095466543 0.012580669 0.42699999 1.9903797e-38
-0.0080779428 0.012580669 0.42699999 1.9165513e-38
-0.0066092312 0.012580669 0.42699999 1.9349904e-38
-0.0051405053 0.012580669 0.42699999 1.9348469e-38
-0.0036803926 0.012610133 0.428 2.0086034e-38
-0.0022237194 0.012698522 0.43099999 1.9718699e-38
-0.00074124924 0.012698522 0.43099999 1.8888939e-38
0.00074122101 0.012698522 0.43099999 1.8607667e-38
0.0022237194 0.012698522 0.43099999 1.750132e-38
0.0037061898 0.012698522 0.43099999 1.749989e-38
0.0051886598 0.012698522 0.43099999 1.897502e-38
0.0066556521 0.012669059 0.43000001 1.8429049e-38
0.0081157647 0.012639595 0.42899999 1.7322702e-38
0.0095913559 0.012639595 0.42899999 1.7503843e-38
0.01104115 0.012610133 0.428 1.7227256e-38
0.012484092 0.012580669 0.42699999 1.6858461e-38
0.013952804 0.012580669 0.42699999 1.8610178e-38
0.015421515 0.012580669 0.42699999 1.6768767e-38
0.016890228 0.012580669 0.42699999 1.6307789e-38
0.01835894 0.012580669 0.42699999 1.8247818e-38
0.019827651 0.012580669 0.42699999 1.566634e-38
0.021296391 0.012580669 0.42699999 1.5845391e-38
0.022658477 0.012521745 0.42500001 1.5384413e-38
0.024063554 0.01249228 0.42399999 1.4923432e-38
0.025521947 0.01249228 0.42399999 1.4646845e-38
0.02698034 0.01249228 0.42399999 1.4555317e-38
0.028438734 0.01249228 0.42399999 1.6214838e-38
0.029826615 0.012462818 0.42300001 1.6032229e-38
0.031281594 0.012462818 0.42300001 1.5479055e-38
0.032736551 0.012462818 0.42300001 1.4831566e-38
0.034191504 0.012462818 0.42300001 1.5476935e-38
0.035730727 0.01249228 0.42399999 1.4648196e-38
0.037276831 0.012521745 0.42500001 1.6307717e-38
0.038738664 0.012521745 0.42500001 1.4373434e-38
0.039916724 0.012433355 0.42199999 1.5387586e-38
0.041368265 0.012433355 0.42199999 1.5570599e-38
0.042819779 0.012433355 0.42199999 1.492523e-38
0.049410071 0.013022615 0.442 1.4459556e-38
0.050930377 0.013022615 0.442 1.5104925e-38
0.052450713 0.013022615 0.442 1.5476243e-38
0.053971019 0.013022615 0.442 1.5845025e-38
0.055491325 0.013022615 0.442 1.5109618e-38
0.05701163 0.013022615 0.442 1.5662792e-38
0.058531936 0.013022615 0.442 1.5201817e-38
0.059916381 0.012993152 0.44100001 1.4833034e-38
0.061433248 0.012993152 0.44100001 1.4187302e-38
0.062950142 0.012993152 0.44100001 1.4279498e-38
0.064467013 0.012993152 0.44100001 1.3364744e-38
0.065983877 0.012993152 0.44100001 1.7974525e-38
0.06750074 0.012993152 0.44100001 1.7332034e-38
0.069174103 0.013022615 0.442 1.7608621e-38
-0.032891333 0.011048591 0.42500001 1.5854739e-38
-0.031429499 0.011048591 0.42500001 1.5207491e-38
-0.029967668 0.011048591 0.42500001 1.4930904e-38
-0.028505821 0.011048591 0.42500001 1.5576286e-38
-0.027043989 0.011048591 0.42500001 1.612946e-38
-0.025582155 0.011048591 0.42500001 2.0004654e-38
-0.024177061 0.011074587 0.426 1.9082698e-38
-0.022711789 0.011074587 0.426 1.9268143e-38
-0.021246517 0.011074587 0.426 2.0282294e-38
-0.019827679 0.011100584 0.42699999 2.0005723e-38
-0.0095690126 0.011126581 0.428 1.9727331e-38
-0.0080968607 0.011126581 0.428 1.9727328e-38
-0.0066247098 0.011126581 0.428 2.0003915e-38
-0.0007429691 0.011230567 0.43200001 1.7883066e-38
0.00074294081 0.011230567 0.43200001 1.9067932e-38
0.0022288791 0.011230567 0.43200001 1.6855237e-38
0.0037147889 0.011230567 0.43200001 1.6579382e-38
0.0051886598 0.011204571 0.43099999 1.8607685e-38
0.0066711302 0.011204571 0.43099999 1.8244655e-38
0.0081157647 0.011152577 0.42899999 1.7230503e-38
0.0095913559 0.011152577 0.42899999 1.722654e-38
0.011066947 0.011152577 0.42899999 1.7042149e-38
0.012513329 0.011126581 0.428 1.6765559e-38
0.013985481 0.011126581 0.428 1.6673364e-38
0.015421515 0.011100584 0.42699999 1.6214902e-38
0.016890228 0.011100584 0.42699999 1.6399294e-38
0.01835894 0.011100584 0.42699999 1.8891764e-38
0.019827651 0.011100584 0.42699999 1.5572721e-38
0.021246517 0.011074587 0.426 1.630565e-38
0.022658477 0.011048591 0.42500001 1.5844672e-38
0.024063554 0.011022594 0.42399999 1.5107473e-38
0.025521947 0.011022594 0.42399999 1.4462104e-38
0.02698034 0.011022594 0.42399999 1.5753529e-38
0.028438734 0.011022594 0.42399999 1.6859877e-38
0.029897127 0.011022594 0.42399999 1.6399254e-38
0.031355549 0.011022594 0.42399999 1.5846081e-38
0.03281394 0.011022594 0.42399999 1.5014902e-38
0.034272332 0.011022594 0.42399999 1.4646119e-38
0.035730727 0.011022594 0.42399999 1.4739014e-38
0.037276831 0.011048591 0.42500001 1.5937557e-38
0.038738664 0.011048591 0.42500001 1.4188381e-38
0.040295083 0.011074587 0.426 1.7415228e-38
0.054215234 0.011542528 0.44400001 1.7884135e-38
0.05574242 0.011542528 0.44400001 1.7424233e-38
0.057140615 0.011516531 0.44299999 1.7424233e-38
0.058531936 0.011490534 0.442 1.7515703e-38
0.059916381 0.011464538 0.44100001 1.7331311e-38
0.061433248 0.011464538 0.44100001 1.714692e-38
0.062950142 0.011464538 0.44100001 1.714692e-38
0.064467013 0.011464538 0.44100001 1.7239844e-38
0.065983877 0.011464538 0.44100001 1.733204e-38
-0.027043989 0.0095754368 0.42500001 1.9911694e-38
-0.025582155 0.0095754368 0.42500001 2.0282313e-38
-0.024177061 0.0095979674 0.426 2.0005726e-38
0.0066866088 0.0097331498 0.43200001 1.7873708e-38
0.0081346827 0.0096880887 0.43000001 1.7504925e-38
0.0095913559 0.0096655581 0.42899999 1.7410944e-38
0.011066947 0.0096655581 0.42899999 1.7318749e-38
0.012513329 0.0096430276 0.428 1.6488988e-38
0.013985481 0.0096430276 0.428 1.6673379e-38
0.015421515 0.009620497 0.42699999 1.6766291e-38
0.016890228 0.009620497 0.42699999 1.65819e-38
0.01835894 0.009620497 0.42699999 1.9351307e-38
0.019781217 0.0095979674 0.426 1.7046416e-38
0.021246517 0.0095979674 0.426 1.6768429e-38
0.022605162 0.0095529063 0.42399999 1.6307451e-38
0.024063554 0.0095529063 0.42399999 1.5292227e-38
0.025521947 0.0095529063 0.42399999 1.4462467e-38
0.02698034 0.0095529063 0.42399999 1.4646472e-38
0.028438734 0.0095529063 0.42399999 1.4554277e-38
0.029897127 0.0095529063 0.42399999 1.4830511e-38
0.031355549 0.0095529063 0.42399999 1.5383684e-38
0.03281394 0.0095529063 0.42399999 1.5107823e-38
0.034272332 0.0095529063 0.42399999 1.4462454e-38
0.035730727 0.0095529063 0.42399999 1.4555722e-38
0.037189119 0.0095529063 0.42399999 1.4740113e-38
0.038738664 0.0095754368 0.42500001 1.4556813e-38
0.040200498 0.0095754368 0.42500001 1.8152443e-38
0.061433248 0.0099359248 0.44100001 1.7148009e-38
0.062950142 0.0099359248 0.44100001 1.7148009e-38
0.005200699 0.0082357535 0.43200001 1.7781878e-38
0.0066866088 0.0082357535 0.43200001 1.7780067e-38
0.0081346827 0.0081976252 0.43000001 1.7687872e-38
0.0096137132 0.0081976252 0.43000001 1.7780806e-38
0.011066947 0.008178561 0.42899999 1.7873001e-38
0.012542566 0.008178561 0.42899999 1.7597499e-38
0.013985481 0.0081594968 0.428 1.7597499e-38
0.015421515 0.0081404317 0.42699999 1.7136503e-38
0.016890228 0.0081404317 0.42699999 1.5661373e-38
0.018315945 0.0081213675 0.426 1.7414146e-38
0.019734783 0.0081023043 0.42500001 1.7045364e-38
0.021146769 0.0080832392 0.42399999 1.7136856e-38
0.022551848 0.008064175 0.42300001 1.6399291e-38
0.024006801 0.008064175 0.42300001 1.5659934e-38
0.025461754 0.008064175 0.42300001 1.4830173e-38
0.026916709 0.008064175 0.42300001 1.5106747e-38
0.028371662 0.008064175 0.42300001 1.483016e-38
0.029826615 0.008064175 0.42300001 1.547589e-38
0.031281594 0.008064175 0.42300001 1.5568085e-38
0.03281394 0.0080832392 0.42399999 1.5384776e-38
0.034272332 0.0080832392 0.42399999 1.4647211e-38
0.035730727 0.0080832392 0.42399999 1.4462822e-38
0.037189119 0.0080832392 0.42399999 1.5292583e-38
0.038738664 0.0081023043 0.42500001 1.5388366e-38
0.040200498 0.0081023043 0.42500001 1.7877648e-38
0.005200699 0.0067383363 0.43200001 1.7595689e-38
0.0066866088 0.0067383363 0.43200001 1.7226903e-38
0.0081536006 0.006722738 0.43099999 1.7964468e-38
0.0096137132 0.0067071402 0.43000001 1.7874083e-38
0.011066947 0.006691542 0.42899999 1.7781888e-38
0.012513329 0.0066759442 0.428 1.7966282e-38
0.013952804 0.0066603459 0.42699999 1.7874086e-38
0.015421515 0.0066603459 0.42699999 1.6582619e-38
0.016890228 0.0066603459 0.42699999 1.6213836e-38
0.018272951 0.0066291504 0.42500001 1.6582966e-38
0.019688347 0.0066135516 0.42399999 1.7320531e-38
0.021096895 0.0065979543 0.42300001 1.713614e-38
0.022551848 0.0065979543 0.42300001 1.6767357e-38
0.024006801 0.0065979543 0.42300001 1.6214546e-38
0.025461754 0.0065979543 0.42300001 1.593796e-38
0.026916709 0.0065979543 0.42300001 1.5569886e-38
0.028371662 0.0065979543 0.42300001 1.5846473e-38
0.029826615 0.0065979543 0.42300001 1.5847202e-38
0.031281594 0.0065979543 0.42300001 1.5847202e-38
0.032736551 0.0065979543 0.42300001 1.5201464e-38
0.034272332 0.0066135516 0.42399999 1.4924877e-38
0.035730727 0.0066135516 0.42399999 1.4372789e-38
0.037189119 0.0066135516 0.42399999 1.4925963e-38
0.038738664 0.0066291504 0.42500001 1.5388726e-38
0.040295083 0.0066447482 0.426 1.7601421e-38
0.041858412 0.0066603459 0.42699999 1.8345116e-38
0.005200699 0.00524094 0.43200001 1.7963399e-38
0.0066711302 0.0052288081 0.43099999 1.7504222e-38
0.0081536006 0.0052288081 0.43099999 1.8057395e-38
0.0096137132 0.0052166763 0.43000001 1.7874086e-38
0.011066947 0.0052045444 0.42899999 1.8150673e-38
0.012484092 0.0051802807 0.42699999 1.778333e-38
0.013952804 0.0051802807 0.42699999 1.7045764e-38
0.015421515 0.0051802807 0.42699999 1.7320191e-38
0.016811118 0.0051560174 0.42500001 1.796556e-38
0.018272951 0.0051560174 0.42500001 1.7413818e-38
0.019641913 0.0051317536 0.42300001 1.7137231e-38
0.021096895 0.0051317536 0.42300001 1.7229054e-38
0.022498533 0.0051196218 0.42199999 1.6583685e-38
0.023950046 0.0051196218 0.42199999 1.612307e-38
0.025401561 0.0051196218 0.42199999 1.5662092e-38
0.026853073 0.0051196218 0.42199999 1.5662092e-38
0.028304588 0.0051196218 0.42199999 1.5846483e-38
0.029756101 0.0051196218 0.42199999 1.6031593e-38
0.031281594 0.0051317536 0.42300001 1.6031593e-38
0.032736551 0.0051317536 0.42300001 1.5939394e-38
0.034191504 0.0051317536 0.42300001 1.4925243e-38
0.035730727 0.0051438855 0.42399999 1.5016369e-38
0.037189119 0.0051438855 0.42399999 1.520076e-38
0.038647514 0.0051438855 0.42399999 1.4927398e-38
0.040200498 0.0051560174 0.42500001 1.7232288e-38
0.041858412 0.0051802807 0.42699999 1.825292e-38
0.0037061898 0.0037348568 0.43099999 1.7687894e-38
0.0051886598 0.0037348568 0.43099999 1.8056677e-38
0.0066711302 0.0037348568 0.43099999 1.7873367e-38
0.0081536006 0.0037348568 0.43099999 1.8149954e-38
0.0096137132 0.0037261914 0.43000001 1.8149957e-38
0.01104115 0.0037088601 0.428 1.8057761e-38
0.012484092 0.0037001944 0.42699999 1.7598582e-38
0.013952804 0.0037001944 0.42699999 1.7506387e-38
0.0153854 0.0036915289 0.426 1.7874436e-38
0.016811118 0.0036828637 0.42500001 1.7874436e-38
0.018229954 0.0036741977 0.42399999 1.7413102e-38
0.019641913 0.0036655325 0.42300001 1.704432e-38
0.021096895 0.0036655325 0.42300001 1.6584414e-38
0.022498533 0.0036568667 0.42199999 1.6400022e-38
0.023950046 0.0036568667 0.42199999 1.6214552e-38
0.025401561 0.0036568667 0.42199999 1.6030161e-38
0.026853073 0.0036568667 0.42199999 1.5754653e-38
0.028304588 0.0036568667 0.42199999 1.5662457e-38
0.029756101 0.0036568667 0.42199999 1.6307111e-38
0.031207642 0.0036568667 0.42199999 1.6583698e-38
0.032659154 0.0036568667 0.42199999 1.6214546e-38
0.034191504 0.0036655325 0.42300001 1.593796e-38
0.035646457 0.0036655325 0.42300001 1.5202906e-38
0.037189119 0.0036741977 0.42399999 1.5295101e-38
0.038647514 0.0036741977 0.42399999 1.5019606e-38
0.040200498 0.0036828637 0.42500001 1.5941562e-38
0.042054471 0.0037175256 0.42899999 1.834511e-38
0.0037061898 0.0022409055 0.43099999 1.8240352e-38
0.0051886598 0.0022409055 0.43099999 1.8516939e-38
0.0066711302 0.0022409055 0.43099999 1.8058121e-38
0.0081346827 0.0022357064 0.43000001 1.8058121e-38
0.0095913559 0.0022305069 0.42899999 1.7966282e-38
0.01104115 0.0022253077 0.428 1.8058477e-38
0.012484092 0.0022201082 0.42699999 1.7965929e-38
0.013920127 0.0022149091 0.426 1.8058124e-38
0.015349285 0.0022097097 0.42500001 1.7874436e-38
0.016771562 0.0022045104 0.42399999 1.7874436e-38
0.018229954 0.0022045104 0.42399999 1.7320907e-38
0.019641913 0.002199311 0.42300001 1.6767733e-38
0.021096895 0.002199311 0.42300001 1.6676253e-38
0.022498533 0.0021941117 0.42199999 1.5938688e-38
0.023950046 0.0021941117 0.42199999 1.6304597e-38
0.025401561 0.0021941117 0.42199999 1.602801e-38
0.026853073 0.0021941117 0.42199999 1.5476987e-38
0.028304588 0.0021941117 0.42199999 1.6122356e-38
0.029756101 0.0021941117 0.42199999 1.6307827e-38
0.031207642 0.0021941117 0.42199999 1.6861e-38
0.032659154 0.0021941117 0.42199999 1.6216704e-38
0.034191504 0.002199311 0.42300001 1.5940118e-38
0.035646457 0.002199311 0.42300001 1.4925963e-38
0.037189119 0.0022045104 0.42399999 1.520255e-38
0.038647514 0.0022045104 0.42399999 1.5111086e-38
0.040295083 0.0022149091 0.426 1.5387672e-38
0.041956443 0.0022253077 0.428 1.8528778e-38
0.0037061898 0.00074697559 0.43099999 1.8241431e-38
0.0051886598 0.00074697559 0.43099999 1.8518018e-38
0.0066711302 0.00074697559 0.43099999 1.7965563e-38
0.0081157647 0.00074350939 0.42899999 1.8057758e-38
0.0095689986 0.00074177625 0.428 1.7781525e-38
0.011015353 0.00074004312 0.42699999 1.787372e-38
0.012454855 0.00073830999 0.426 1.8057761e-38
0.013887453 0.00073657691 0.42500001 1.7965566e-38
0.015349285 0.00073657691 0.42500001 1.7873001e-38
0.016771562 0.00073484372 0.42399999 1.7965197e-38
0.018229954 0.00073484372 0.42399999 1.7227632e-38
0.019641913 0.00073311065 0.42300001 1.7135436e-38
0.021047018 0.00073137751 0.42199999 1.6768449e-38
0.022498533 0.00073137751 0.42199999 1.6584058e-38
0.023950046 0.00073137751 0.42199999 1.6675164e-38
0.025401561 0.00073137751 0.42199999 1.7136143e-38
0.026853073 0.00073137751 0.42199999 1.7319455e-38
0.028304588 0.00073137751 0.42199999 1.7780433e-38
0.029756101 0.00073137751 0.42199999 1.7506004e-38
0.031207642 0.00073137751 0.42199999 1.7137222e-38
0.032659154 0.00073137751 0.42199999 1.667768e-38
0.034110669 0.00073137751 0.42199999 1.5755723e-38
0.035646457 0.00073311065 0.42300001 1.5755006e-38
0.037189119 0.00073484372 0.42399999 1.566281e-38
0.038738664 0.00073657691 0.42500001 1.5111804e-38
0.040389672 0.00074004312 0.42699999 1.4374239e-38
0.041956443 0.00074177625 0.428 1.7976328e-38
0.0037061898 -0.00074697559 0.43099999 1.8150673e-38
0.0051886598 -0.00074697559 0.43099999 1.8611651e-38
0.0066556521 -0.00074524252 0.43000001 1.8060277e-38
0.0081157647 -0.00074350939 0.42899999 1.7875885e-38
0.0095689986 -0.00074177625 0.428 1.796556e-38
0.010963759 -0.00073657691 0.42500001 1.8334342e-38
0.01242562 -0.00073657691 0.42500001 1.8058474e-38
0.013887453 -0.00073657691 0.42500001 1.8519453e-38
0.015313168 -0.00073484372 0.42399999 1.8611648e-38
0.016771562 -0.00073484372 0.42399999 1.8611648e-38
0.01818696 -0.00073311065 0.42300001 1.8244661e-38
0.019641913 -0.00073311065 0.42300001 1.7875878e-38
0.021047018 -0.00073137751 0.42199999 1.7782241e-38
0.022498533 -0.00073137751 0.42199999 1.7690045e-38
0.023893295 -0.00072964438 0.421 1.7505994e-38
0.025341369 -0.00072964438 0.421 1.7966972e-38
0.026789444 -0.00072964438 0.421 1.7782228e-38
0.028237518 -0.00072964438 0.421 1.7782228e-38
0.029756101 -0.00073137751 0.42199999 1.7322332e-38
0.031207642 -0.00073137751 0.42199999 1.7045745e-38
0.032659154 -0.00073137751 0.42199999 1.6676962e-38
0.034110669 -0.00073137751 0.42199999 1.6215984e-38
0.035646457 -0.00073311065 0.42300001 1.6031593e-38
0.037189119 -0.00073484372 0.42399999 1.6123789e-38
0.038738664 -0.00073657691 0.42500001 1.5112508e-38
0.040389672 -0.00074004312 0.42699999 1.4282747e-38
0.041858412 -0.00074004312 0.42699999 1.7331314e-38
0.0037061898 -0.0022409055 0.43099999 1.8149235e-38
0.0051886598 -0.0022409055 0.43099999 1.8794605e-38
0.0066556521 -0.0022357064 0.43000001 1.833615e-38
0.0080968468 -0.0022253077 0.428 1.8059563e-38
0.0095466403 -0.0022201082 0.42699999 1.787373e-38
0.010963759 -0.0022097097 0.42500001 1.8150317e-38
0.01242562 -0.0022097097 0.42500001 1.8614522e-38
0.013887453 -0.0022097097 0.42500001 1.8798914e-38
0.015313168 -0.0022045104 0.42399999 1.9534321e-38
0.016732005 -0.002199311 0.42300001 1.8796756e-38
0.01818696 -0.002199311 0.42300001 1.8704557e-38
0.019641913 -0.002199311 0.42300001 1.7966992e-38
0.021047018 -0.0021941117 0.42199999 1.7965913e-38
0.022498533 -0.0021941117 0.42199999 1.8058109e-38
0.023893295 -0.0021889124 0.421 1.8058815e-38
0.025341369 -0.0021889124 0.421 1.7966619e-38
0.026789444 -0.0021889124 0.421 1.7690042e-38
0.028237518 -0.0021889124 0.421 1.7690042e-38
0.029756101 -0.0021941117 0.42199999 1.7505291e-38
0.031207642 -0.0021941117 0.42199999 1.7228704e-38
0.032659154 -0.0021941117 0.42199999 1.6769155e-38
0.034110669 -0.0021941117 0.42199999 1.6769155e-38
0.035562184 -0.0021941117 0.42199999 1.6125225e-38
0.037189119 -0.0022045104 0.42399999 1.5572051e-38
0.038738664 -0.0022097097 0.42500001 1.4743006e-38
0.040389672 -0.0022201082 0.42699999 1.3728855e-38
0.041858412 -0.0022201082 0.42699999 1.7238046e-38
0.0037061898 -0.0037348568 0.43099999 1.8245747e-38
0.0051886598 -0.0037348568 0.43099999 1.8798921e-38
