# .PCD v0.7 - Point Cloud Data file format
VERSION 0.7
FIELDS x y z rgb
SIZE 4 4 4 4
TYPE F F F F
COUNT 1 1 1 1
WIDTH 523
HEIGHT 1
VIEWPOINT 0 0 0 1 0 0 0
POINTS 523
DATA ascii
-0.0097633488 0.074494347 0.81099999 2.3234305e-38
-0.0069566299 0.074310638 0.80900002 2.3142468e-38
-0.0041739885 0.074310638 0.80900002 2.3234236e-38
-0.0013913471 0.074310638 0.80900002 2.1944574e-38
0.0013912943 0.074310638 0.80900002 2.3324691e-38
0.0041739885 0.074310638 0.80900002 2.0927605e-38
0.0069738282 0.074494347 0.81099999 1.8623492e-38
0.0097633488 0.074494347 0.81099999 1.8623492e-38
-0.012521939 0.071506448 0.80900002 2.3230328e-38
-0.0097151939 0.071329661 0.80699998 2.3140945e-38
-0.0069394317 0.071329661 0.80699998 2.3509731e-38
-0.0041533508 0.071152888 0.80500001 2.2671913e-38
-0.0013810281 0.070976116 0.80299997 2.3501674e-38
0.0013809756 0.070976116 0.80299997 2.2209879e-38
0.0041636694 0.071329661 0.80699998 2.35071e-38
0.0069566299 0.071506448 0.80900002 2.0371172e-38
0.0097633488 0.071683221 0.81099999 2.0278976e-38
-0.012521939 0.068702251 0.80900002 1.8987107e-38
-0.0097151939 0.068532407 0.80699998 1.8053926e-38
-0.0069394317 0.068532407 0.80699998 2.3493437e-38
-0.0041533508 0.068362564 0.80500001 2.1377643e-38
-0.0013775885 0.06802287 0.801 2.3501024e-38
0.0013775361 0.06802287 0.801 2.0001843e-38
0.0041327132 0.06802287 0.801 2.3509569e-38
0.0069050356 0.06819272 0.80299997 1.9631272e-38
0.0096670389 0.06819272 0.80299997 2.2489337e-38
0.012429043 0.06819272 0.80299997 1.8991558e-38
-0.012490982 0.065735184 0.80699998 1.9259715e-38
-0.0097151939 0.065735184 0.80699998 1.962633e-38
-0.0069394317 0.065735184 0.80699998 1.8704374e-38
-0.0041533508 0.065572277 0.80500001 2.257881e-38
-0.0013775885 0.065246448 0.801 2.2486614e-38
0.0013740966 0.065083541 0.79900002 2.0829892e-38
0.0041223941 0.065083541 0.79900002 2.2120631e-38
0.0068706395 0.065083541 0.79900002 1.7785594e-38
0.0096429624 0.065246448 0.801 2.1657777e-38
-0.012490982 0.06293793 0.80699998 2.0365759e-38
-0.0097151939 0.06293793 0.80699998 2.036466e-38
-0.0069394317 0.06293793 0.80699998 1.4925118e-38
-0.0041533508 0.062781952 0.80500001 2.1010042e-38
-0.0013775885 0.062469989 0.801 2.3314933e-38
0.0013740966 0.062314011 0.79900002 2.2854305e-38
0.0041223941 0.062314011 0.79900002 2.1932349e-38
0.0068706395 0.062314011 0.79900002 1.7877124e-38
0.0096429624 0.062469989 0.801 1.6955168e-38
0.01246 0.062781952 0.80500001 1.9171948e-38
0.015266717 0.06293793 0.80699998 2.0001708e-38
-0.012490982 0.060140707 0.80699998 2.0829649e-38
-0.0097151939 0.060140707 0.80699998 2.2578469e-38
-0.0069394317 0.060140707 0.80699998 1.4096471e-38
-0.0041636694 0.060140707 0.80699998 1.584521e-38
-0.0013810281 0.059842616 0.80299997 2.2667659e-38
0.0013740966 0.059544522 0.79900002 2.2763554e-38
0.0041223941 0.059544522 0.79900002 1.9628903e-38
0.0068706395 0.059544522 0.79900002 1.6864392e-38
0.0096429624 0.059693567 0.801 1.6587805e-38
0.012429043 0.059842616 0.80299997 1.7603836e-38
0.015266717 0.060140707 0.80699998 2.0738487e-38
0.018087195 0.060289759 0.80900002 1.8715335e-38
-0.012490982 0.057343449 0.80699998 2.1106617e-38
-0.0097151939 0.057343449 0.80699998 2.0644519e-38
-0.0069394317 0.057343449 0.80699998 1.5665955e-38
-0.0041636694 0.057343449 0.80699998 1.4739238e-38
-0.0013844678 0.057201337 0.80500001 2.0547538e-38
0.0013740966 0.056774992 0.79900002 2.2948331e-38
0.0041223941 0.056774992 0.79900002 1.8891723e-38
0.0068706395 0.056774992 0.79900002 1.6952976e-38
0.0096429624 0.056917105 0.801 1.6768588e-38
0.012429043 0.057059225 0.80299997 1.5297811e-38
0.015266717 0.057343449 0.80699998 2.0091984e-38
0.018042481 0.057343449 0.80699998 1.8715337e-38
-0.012490982 0.054546189 0.80699998 2.0460866e-38
-0.0097151939 0.054546189 0.80699998 2.1379948e-38
-0.0069394317 0.054546189 0.80699998 1.7138949e-38
-0.0041636694 0.054546189 0.80699998 1.5572574e-38
-0.0013844678 0.054411009 0.80500001 2.0182327e-38
0.0013740966 0.054005463 0.79900002 2.2853592e-38
0.0041223941 0.054005463 0.79900002 1.7782832e-38
0.0068706395 0.054005463 0.79900002 1.6307284e-38
0.0096429624 0.054140642 0.801 1.5385328e-38
0.012429043 0.054275829 0.80299997 1.5755977e-38
0.015228883 0.054411009 0.80500001 1.842965e-38
0.018042481 0.054546189 0.80699998 1.8991208e-38
-0.012490982 0.051748972 0.80699998 1.9541449e-38
-0.0097151939 0.051748972 0.80699998 2.0178862e-38
-0.0069394317 0.051748972 0.80699998 2.0271057e-38
-0.0041533508 0.051620722 0.80500001 1.9808998e-38
-0.0013810281 0.051492475 0.80299997 2.3498263e-38
0.0013723767 0.051171847 0.79799998 1.7965116e-38
0.0041172346 0.051171847 0.79799998 1.8702681e-38
0.0068706395 0.051235974 0.79900002 1.6124726e-38
0.0096188849 0.051235974 0.79900002 1.4649596e-38
0.012398086 0.051364221 0.801 1.6310236e-38
0.015191047 0.051492475 0.80299997 1.8246344e-38
0.017953051 0.051492475 0.80299997 1.8714981e-38
-0.012552896 0.049194388 0.81099999 1.6500516e-38
-0.0097392714 0.049073074 0.80900002 1.7051075e-38
-0.0069394317 0.048951752 0.80699998 2.1568661e-38
-0.0041533508 0.048830435 0.80500001 2.341769e-38
-0.0013810281 0.048709121 0.80299997 2.341769e-38
0.0013654978 0.04816319 0.79400003 2.0368022e-38
0.0040965974 0.04816319 0.79400003 1.5942631e-38
0.0068620401 0.048405822 0.79799998 1.7598438e-38
0.0096188849 0.048466485 0.79900002 1.6031112e-38
0.012398086 0.048587799 0.801 1.3916665e-38
0.015191047 0.048709121 0.80299997 1.9171788e-38
0.017953051 0.048709121 0.80299997 1.8531306e-38
-0.012552896 0.046383265 0.81099999 1.8989073e-38
-0.0097392714 0.04626888 0.80900002 2.1839905e-38
-0.0069394317 0.046154492 0.80699998 2.3506989e-38
-0.0041636694 0.046154492 0.80699998 2.341769e-38
-0.0013380323 0.044495907 0.778 2.341769e-38
0.0013379814 0.044495907 0.778 1.7499851e-38
0.0040243645 0.044610292 0.77999997 1.3258852e-38
0.0068620401 0.045639761 0.79799998 1.9166543e-38
0.0096188849 0.045696955 0.79900002 1.8521173e-38
0.012398086 0.045811336 0.801 1.5942483e-38
0.015191047 0.045925725 0.80299997 1.9353721e-38
0.017953051 0.045925725 0.80299997 1.8715337e-38
-0.012583853 0.043679595 0.81300002 2.3325494e-38
-0.0097633488 0.043572139 0.81099999 2.2492506e-38
-0.0069738282 0.043572139 0.81099999 2.3508092e-38
-0.0039934083 0.041584261 0.77399999 2.2306648e-38
-0.0013311529 0.041584261 0.77399999 1.9448584e-38
0.0013345419 0.041691717 0.77600002 2.0272937e-38
0.0040037273 0.041691717 0.77600002 1.5109981e-38
0.0067072571 0.041906621 0.77999997 1.5475118e-38
0.0096429624 0.043034878 0.801 1.3078031e-38
0.012429043 0.04314233 0.80299997 1.4281867e-38
0.015191047 0.04314233 0.80299997 1.9997996e-38
0.017953051 0.04314233 0.80299997 1.843875e-38
-0.012583853 0.040861581 0.81300002 2.1758169e-38
-0.0097392714 0.040660538 0.80900002 2.3416971e-38
-0.0069566299 0.040660538 0.80900002 1.6041321e-38
-0.0039882488 0.038851168 0.773 2.1190178e-38
-0.0013294332 0.038851168 0.773 2.3505872e-38
0.0013225034 0.038650129 0.76899999 2.138209e-38
0.0039572921 0.038549609 0.76700002 1.5850352e-38
0.00659547 0.038549609 0.76700002 1.3079833e-38
0.0097151939 0.040560015 0.80699998 1.400179e-38
0.012490956 0.040560015 0.80699998 1.4836159e-38
0.015266717 0.040560015 0.80699998 1.8708376e-38
0.018042481 0.040560015 0.80699998 1.8990479e-38
0.021102011 0.041112881 0.81800002 1.8529501e-38
-0.012552896 0.037949935 0.81099999 2.1850364e-38
-0.0097392714 0.037856348 0.80900002 2.1649412e-38
-0.0069566299 0.037856348 0.80900002 1.3075219e-38
-0.0039882488 0.036171764 0.773 2.3137125e-38
-0.0013294332 0.036171764 0.773 2.3506267e-38
0.0013173441 0.035844203 0.76599997 2.3325789e-38
0.0039418135 0.035750616 0.764 1.7425268e-38
0.0065696728 0.035750616 0.764 1.3449342e-38
0.0097392714 0.037856348 0.80900002 1.4186907e-38
0.012521913 0.037856348 0.80900002 1.5297513e-38
0.01534239 0.037949935 0.81099999 1.6127274e-38
0.018176626 0.038043521 0.81300002 1.9448554e-38
0.021102011 0.038277496 0.81800002 1.9448554e-38
-0.012552896 0.035138849 0.81099999 2.1481582e-38
-0.0097633488 0.035138849 0.81099999 2.0452674e-38
-0.0069394317 0.034965537 0.80699998 1.3445806e-38
-0.0041636694 0.034965537 0.80699998 2.2851867e-38
-0.0013879074 0.034965537 0.80699998 2.3503358e-38
0.0013139045 0.033102445 0.764 2.0087684e-38
0.0039418135 0.033102445 0.764 1.805938e-38
0.0065696728 0.033102445 0.764 1.1700489e-38
0.0097633488 0.035138849 0.81099999 1.3083423e-38
0.01255287 0.035138849 0.81099999 1.5113179e-38
0.015418061 0.035312161 0.815 1.4744397e-38
0.018266054 0.035398815 0.81699997 1.7514574e-38
0.021102011 0.035442147 0.81800002 1.9174096e-38
-0.012552896 0.032327726 0.81099999 2.0098647e-38
-0.0097392714 0.032248002 0.80900002 2.2296962e-38
-0.0069394317 0.032168277 0.80699998 2.2204767e-38
-0.0041533508 0.032088555 0.80500001 1.9994192e-38
-0.0013810281 0.032008834 0.80299997 1.8150279e-38
0.0013139045 0.030454235 0.764 1.4097851e-38
0.0039418135 0.030454235 0.764 1.2991504e-38
0.0065696728 0.030454235 0.764 1.1701254e-38
0.0098115029 0.032487173 0.815 1.5204688e-38
0.012614782 0.032487173 0.815 1.7331697e-38
0.015418061 0.032487173 0.815 1.7792675e-38
0.018266054 0.032566894 0.81699997 1.5950126e-38
-0.012552896 0.029516602 0.81099999 1.982206e-38
-0.0097151939 0.029371019 0.80699998 2.1286423e-38
-0.0069394317 0.029371019 0.80699998 2.3503787e-38
-0.0041533508 0.029298229 0.80500001 1.9257033e-38
-0.0013810281 0.029225441 0.80299997 1.2803339e-38
0.0013809756 0.029225441 0.80299997 1.4279129e-38
0.0041533508 0.029298229 0.80500001 1.3541564e-38
0.0069738282 0.029516602 0.81099999 1.299128e-38
0.0098115029 0.029662183 0.815 1.7508866e-38
0.012614782 0.029662183 0.815 1.8898659e-38
0.015418061 0.029662183 0.815 1.8714268e-38
0.018266054 0.029734973 0.81699997 1.6502254e-38
-0.012521939 0.026639661 0.80900002 2.1019885e-38
-0.0097151939 0.0265738 0.80699998 2.2493585e-38
-0.0069394317 0.0265738 0.80699998 2.3508451e-38
-0.0041533508 0.026507944 0.80500001 2.1103476e-38
-0.0013810281 0.026442086 0.80299997 1.4834174e-38
0.0013809756 0.026442086 0.80299997 1.4185501e-38
0.0041533508 0.026507944 0.80500001 1.3632328e-38
0.0069566299 0.026639661 0.80900002 1.3911438e-38
0.0097874263 0.026771378 0.81300002 1.7599263e-38
0.012614782 0.026837233 0.815 1.8807533e-38
0.015418061 0.026837233 0.815 1.8346555e-38
-0.012490982 0.023776582 0.80699998 2.2956712e-38
-0.0097151939 0.023776582 0.80699998 2.3325494e-38
-0.0069394317 0.023776582 0.80699998 2.341769e-38
-0.0041533508 0.023717657 0.80500001 2.2951692e-38
-0.0013844678 0.023717657 0.80500001 1.5483846e-38
0.0013844152 0.023717657 0.80500001 1.5843209e-38
0.0041533508 0.023717657 0.80500001 1.6765166e-38
0.0069566299 0.023835508 0.80900002 1.4467136e-38
0.0097633488 0.023894433 0.81099999 1.6772026e-38
0.012583827 0.02395336 0.81300002 1.8530946e-38
-0.012490982 0.020979322 0.80699998 2.3325494e-38
-0.0097151939 0.020979322 0.80699998 2.3325494e-38
-0.0069394317 0.020979322 0.80699998 2.341769e-38
-0.0041533508 0.02092733 0.80500001 2.1844616e-38
-0.0013844678 0.02092733 0.80500001 1.6681661e-38
0.0013844152 0.02092733 0.80500001 1.5199276e-38
0.0041533508 0.02092733 0.80500001 1.8241732e-38
0.0069566299 0.021031316 0.80900002 1.7323781e-38
0.0097633488 0.02108331 0.81099999 1.6770607e-38
0.01255287 0.02108331 0.81099999 1.8438748e-38
-0.012521939 0.018227125 0.80900002 2.2770886e-38
-0.0097151939 0.018182063 0.80699998 2.2399948e-38
-0.0069394317 0.018182063 0.80699998 2.1385796e-38
-0.0041533508 0.018137002 0.80500001 2.2117603e-38
-0.0013844678 0.018137002 0.80500001 1.8982952e-38
0.0013844152 0.018137002 0.80500001 1.5384426e-38
0.0041636694 0.018182063 0.80699998 1.8611273e-38
0.0069566299 0.018227125 0.80900002 1.8614873e-38
0.0097633488 0.018272186 0.81099999 1.7416329e-38
0.01255287 0.018272186 0.81099999 1.834511e-38
-0.0097151939 0.015384845 0.80699998 2.2491065e-38
-0.0069394317 0.015384845 0.80699998 2.2122282e-38
-0.0041533508 0.015346716 0.80500001 2.294484e-38
-0.0013844678 0.015346716 0.80500001 2.1100927e-38
0.0013878547 0.015384845 0.80699998 1.5475517e-38
0.0041636694 0.015384845 0.80699998 1.3447213e-38
0.0069566299 0.015422974 0.80900002 8.8471287e-39
0.0097392714 0.015422974 0.80900002 1.7697909e-38
0.01255287 0.015461101 0.81099999 1.8072482e-38
0.015418061 0.015537359 0.815 1.7703699e-38
-0.0097392714 0.012618782 0.80900002 2.31332e-38
-0.0069394317 0.012587585 0.80699998 2.0459527e-38
-0.0041636694 0.012587585 0.80699998 1.6952102e-38
-0.0013879074 0.012587585 0.80699998 1.0774994e-38
0.0013878547 0.012587585 0.80699998 3.679877e-39
0.0041636694 0.012587585 0.80699998 3.5876828e-39
0.0069566299 0.012618782 0.80900002 6.8235556e-39
0.0097392714 0.012618782 0.80900002 1.8808987e-38
0.01255287 0.012649978 0.81099999 1.8070315e-38
0.015418061 0.01271237 0.815 1.797812e-38
-0.0097392714 0.0098146303 0.80900002 8.6689774e-39
-0.0069394317 0.0097903665 0.80699998 8.1158036e-39
-0.0041636694 0.0097903665 0.80699998 6.7317453e-39
-0.0013879074 0.0097903665 0.80699998 6.6395497e-39
0.0013878547 0.0097903665 0.80699998 6.8200005e-39
0.0041636694 0.0097903665 0.80699998 6.2668267e-39
0.0069566299 0.0098146303 0.80900002 9.3085342e-39
0.0097392714 0.0098146303 0.80900002 1.889688e-38
0.01255287 0.009838894 0.81099999 1.8069965e-38
-0.0097633488 0.0070277699 0.81099999 1.2355708e-38
-0.0069566299 0.0070104389 0.80900002 1.0972774e-38
-0.0041739885 0.0070104389 0.80900002 8.8540651e-39
-0.0013879074 0.0069931075 0.80699998 7.9321088e-39
0.0013878547 0.0069931075 0.80699998 4.8896432e-39
0.0041636694 0.0069931075 0.80699998 5.6272083e-39
0.0069566299 0.0070104389 0.80900002 6.9154037e-39
0.0097392714 0.0070104389 0.80900002 1.3922272e-38
0.01255287 0.0070277699 0.81099999 1.8714621e-38
-0.0097633488 0.0042166458 0.81099999 1.3002154e-38
-0.0069566299 0.0042062472 0.80900002 1.097385e-38
-0.0041739885 0.0042062472 0.80900002 9.8678541e-39
-0.0013879074 0.0041958485 0.80699998 7.4707677e-39
0.0013878547 0.0041958485 0.80699998 7.284566e-39
0.0041636694 0.0041958485 0.80699998 7.4689572e-39
0.0069566299 0.0042062472 0.80900002 7.6544079e-39
0.0097392714 0.0042062472 0.80900002 1.0420277e-38
0.01255287 0.0042166458 0.81099999 1.8804646e-38
-0.0097874263 0.0014090283 0.81300002 1.2909242e-38
-0.0069566299 0.0014020958 0.80900002 1.0696547e-38
-0.0041739885 0.0014020958 0.80900002 9.2221358e-39
-0.0013879074 0.0013986295 0.80699998 8.3001795e-39
0.0013878547 0.0013986295 0.80699998 7.744105e-39
0.0041636694 0.0013986295 0.80699998 7.00654e-39
0.0069566299 0.0014020958 0.80900002 8.6689101e-39
0.0097633488 0.0014055619 0.81099999 9.0376927e-39
0.012583827 0.0014090283 0.81300002 1.549027e-38
-0.0098355804 -0.0014159607 0.81699997 1.2909242e-38
-0.0069566299 -0.0014020958 0.80900002 1.1157525e-38
-0.0041636694 -0.0013986295 0.80699998 1.0512877e-38
-0.0013879074 -0.0013986295 0.80699998 7.5626172e-39
0.0013878547 -0.0013986295 0.80699998 8.0203388e-39
0.0041636694 -0.0013986295 0.80699998 7.9281431e-39
0.0069566299 -0.0014020958 0.80900002 8.2075789e-39
0.0097392714 -0.0014020958 0.80900002 8.1153832e-39
0.012614782 -0.0014124945 0.815 1.1893201e-38
-0.0097633488 -0.0042166458 0.81099999 1.2817046e-38
-0.0069566299 -0.0042062472 0.80900002 1.1710699e-38
-0.0041636694 -0.0041958485 0.80699998 9.960777e-39
-0.0013879074 -0.0041958485 0.80699998 8.1168644e-39
0.0013878547 -0.0041958485 0.80699998 7.4686069e-39
0.0041636694 -0.0041958485 0.80699998 7.19202e-39
0.0069394317 -0.0041958485 0.80699998 6.5484359e-39
0.0097392714 -0.0042062472 0.80900002 7.9313703e-39
0.012614782 -0.0042374432 0.815 8.5748998e-39
0.015474816 -0.0042530415 0.81800002 1.807105e-38
-0.0097633488 -0.0070277699 0.81099999 1.4197815e-38
-0.0069566299 -0.0070104389 0.80900002 1.1155359e-38
-0.0041636694 -0.0069931075 0.80699998 1.014516e-38
-0.0013879074 -0.0069931075 0.80699998 9.7763773e-39
0.0013878547 -0.0069931075 0.80699998 7.1005405e-39
0.0041636694 -0.0069931075 0.80699998 7.469323e-39
0.0069394317 -0.0069931075 0.80699998 7.0083448e-39
0.0097392714 -0.0070104389 0.80900002 8.3912793e-39
0.012583827 -0.0070451014 0.81300002 7.2856254e-39
0.015455897 -0.0070797629 0.81699997 1.604421e-38
-0.0097633488 -0.009838854 0.81099999 1.1529197e-38
-0.0069566299 -0.0098145902 0.80900002 9.316502e-39
-0.0041636694 -0.0097903265 0.80699998 1.0879122e-38
-0.0013879074 -0.0097903265 0.80699998 1.0418144e-38
0.0013878547 -0.0097903265 0.80699998 6.9183072e-39
0.0041636694 -0.0097903265 0.80699998 6.9183072e-39
0.0069394317 -0.0097903265 0.80699998 7.1927263e-39
0.0097392714 -0.0098145902 0.80900002 9.5898127e-39
0.012583827 -0.0098631177 0.81300002 8.0232002e-39
0.015455897 -0.0099116443 0.81699997 1.3370547e-38
0.018377844 -0.0099723041 0.82200003 1.788593e-38
-0.0097633488 -0.012649978 0.81099999 1.1988007e-38
-0.0069566299 -0.012618782 0.80900002 1.1434834e-38
-0.0041636694 -0.012587585 0.80699998 1.1617763e-38
-0.0013879074 -0.012587585 0.80699998 1.0327025e-38
0.0013878547 -0.012587585 0.80699998 6.6417259e-39
0.0041636694 -0.012587585 0.80699998 6.8261172e-39
0.0069394317 -0.012587585 0.80699998 6.914675e-39
0.0097392714 -0.012618782 0.80900002 8.9429789e-39
0.012583827 -0.012681174 0.81300002 8.0249981e-39
0.015418061 -0.01271237 0.815 1.0975258e-38
0.018288413 -0.012759165 0.81800002 1.8527696e-38
0.021256793 -0.012852753 0.824 1.7974523e-38
-0.012645765 -0.015575446 0.81699997 1.4476897e-38
-0.0097874263 -0.01549919 0.81300002 1.0972397e-38
-0.0069566299 -0.015422934 0.80900002 1.1248984e-38
-0.0041636694 -0.015384804 0.80699998 1.1065669e-38
-0.0013879074 -0.015384804 0.80699998 1.0696886e-38
0.0013878547 -0.015384804 0.80699998 7.5629662e-39
0.0041636694 -0.015384804 0.80699998 6.8254011e-39
0.0069394317 -0.015384804 0.80699998 6.1796407e-39
0.0097392714 -0.015422934 0.80900002 7.101597e-39
0.012583827 -0.01549919 0.81300002 8.576374e-39
0.015418061 -0.015537319 0.815 8.3919827e-39
0.018288413 -0.015594512 0.81800002 1.8069955e-38
0.0212052 -0.015670769 0.82200003 1.7424586e-38
-0.012614809 -0.018362308 0.815 1.3185099e-38
-0.0097874263 -0.018317247 0.81300002 9.868224e-39
-0.0069738282 -0.018272186 0.81099999 1.0605789e-38
-0.0041739885 -0.018227125 0.80900002 1.0511782e-38
-0.0013879074 -0.018182063 0.80699998 1.097276e-38
0.0013878547 -0.018182063 0.80699998 8.3001893e-39
0.0041636694 -0.018182063 0.80699998 7.5626242e-39
0.0069394317 -0.018182063 0.80699998 7.008335e-39
0.0097392714 -0.018227125 0.80900002 6.9161394e-39
0.012583827 -0.018317247 0.81300002 7.5615088e-39
0.015418061 -0.018362308 0.815 7.3771175e-39
0.018288413 -0.0184299 0.81800002 1.6501538e-38
0.0212052 -0.018520022 0.82200003 1.7792277e-38
0.024091084 -0.018565083 0.824 1.7056176e-38
-0.012614809 -0.021187257 0.815 1.2355708e-38
-0.0098115029 -0.021187257 0.815 1.0510717e-38
-0.0069738282 -0.021083269 0.81099999 1.0971695e-38
-0.0041739885 -0.021031277 0.80900002 1.0604707e-38
-0.0013913471 -0.021031277 0.80900002 1.0420316e-38
0.0013878547 -0.020979283 0.80699998 9.9604267e-39
0.0041636694 -0.020979283 0.80699998 7.4711447e-39
0.0069394317 -0.020979283 0.80699998 7.4667894e-39
0.0097392714 -0.021031277 0.80900002 6.4526375e-39
0.01255287 -0.021083269 0.81099999 7.2856254e-39
0.015455897 -0.021239249 0.81699997 6.9168429e-39
0.018333128 -0.02131724 0.81999999 1.3737111e-38
0.0212052 -0.021369236 0.82200003 1.7793719e-38
0.024091084 -0.021421228 0.824 1.6964699e-38
-0.012614809 -0.024012245 0.815 1.1341189e-38
-0.0098115029 -0.024012245 0.815 1.0329565e-38
-0.0069738282 -0.023894394 0.81099999 1.0606152e-38
-0.0041739885 -0.023835469 0.80900002 1.1156432e-38
-0.0013913471 -0.023835469 0.80900002 1.1064236e-38
0.0013878547 -0.023776541 0.80699998 1.106533e-38
0.0041636694 -0.023776541 0.80699998 5.9945699e-39
0.0069394317 -0.023776541 0.80699998 7.0990915e-39
0.0097392714 -0.023835469 0.80900002 7.1912872e-39
0.01255287 -0.023894394 0.81099999 7.2834772e-39
0.015455897 -0.02407117 0.81699997 7.4678684e-39
0.018333128 -0.02415956 0.81999999 9.4039388e-39
0.0212052 -0.024218488 0.82200003 1.7424959e-38
0.024091084 -0.024277413 0.824 1.6964336e-38
-0.015474843 -0.026936024 0.81800002 1.3370939e-38
-0.012614809 -0.026837233 0.815 1.0973853e-38
-0.0098115029 -0.026837233 0.815 1.1526308e-38
-0.0069738282 -0.026705517 0.81099999 1.1434112e-38
-0.0041739885 -0.026639661 0.80900002 1.0420679e-38
-0.0013913471 -0.026639661 0.80900002 1.060507e-38
0.0013878547 -0.0265738 0.80699998 1.106533e-38
0.0041636694 -0.0265738 0.80699998 6.6399393e-39
0.0069394317 -0.0265738 0.80699998 7.467874e-39
0.0097392714 -0.026639661 0.80900002 7.467874e-39
0.01255287 -0.026705517 0.81099999 7.1912816e-39
0.015455897 -0.026903091 0.81699997 8.2054335e-39
0.018333128 -0.02700188 0.81999999 7.1012313e-39
0.0212052 -0.027067741 0.82200003 1.6597381e-38
0.024091084 -0.027133597 0.824 1.6964336e-38
-0.015474843 -0.029771371 0.81800002 1.2910324e-38
-0.012645765 -0.029734973 0.81699997 1.0697629e-38
-0.0098115029 -0.029662183 0.815 1.1434831e-38
-0.0069566299 -0.029443812 0.80900002 1.060507e-38
-0.0041739885 -0.029443812 0.80900002 1.0971692e-38
-0.0013879074 -0.029371019 0.80699998 1.143267e-38
0.0013878547 -0.029371019 0.80699998 1.1618143e-38
0.0041636694 -0.029371019 0.80699998 5.8098185e-39
0.0069394317 -0.029371019 0.80699998 7.1912872e-39
0.0097392714 -0.029443812 0.80900002 7.0990915e-39
0.012583827 -0.029589394 0.81300002 6.3636817e-39
0.015455897 -0.029734973 0.81699997 7.7466161e-39
0.018333128 -0.029844161 0.81999999 6.1781988e-39
0.0212052 -0.029916953 0.82200003 1.5028979e-38
0.02420803 -0.030135324 0.82800001 1.6963983e-38
-0.015474843 -0.032606758 0.81800002 1.3370939e-38
-0.012645765 -0.032566894 0.81699997 1.0881657e-38
-0.0098115029 -0.032487173 0.815 1.1985138e-38
-0.0069566299 -0.032248002 0.80900002 1.1524159e-38
-0.0041739885 -0.032248002 0.80900002 1.1433749e-38
-0.0013879074 -0.032168277 0.80699998 1.1249358e-38
0.0013878547 -0.032168277 0.80699998 1.1801802e-38
0.0041636694 -0.032168277 0.80699998 5.4403031e-39
0.0069394317 -0.032168277 0.80699998 8.2983382e-39
0.0097392714 -0.032248002 0.80900002 8.4827294e-39
0.012583827 -0.032407451 0.81300002 6.7299279e-39
0.015455897 -0.032566894 0.81699997 8.1128623e-39
0.018333128 -0.032686479 0.81999999 9.4143295e-40
0.021308387 -0.03292565 0.82599998 1.1451735e-38
0.024266502 -0.033085097 0.82999998 1.6781024e-38
-0.015474843 -0.035442106 0.81800002 1.3001438e-38
-0.012645765 -0.035398774 0.81699997 1.1802895e-38
-0.0097874263 -0.035225466 0.81300002 1.3643926e-38
-0.0069566299 -0.035052154 0.80900002 1.3182948e-38
-0.0041739885 -0.035052154 0.80900002 1.1803602e-38
-0.0013879074 -0.034965497 0.80699998 1.1895798e-38
0.0013878547 -0.034965497 0.80699998 1.0421018e-38
0.0041636694 -0.034965497 0.80699998 5.9956278e-39
0.0069394317 -0.034965497 0.80699998 7.7469538e-39
0.0097392714 -0.035052154 0.80900002 8.0235407e-39
0.012583827 -0.035225466 0.81300002 2.3171129e-39
0.015455897 -0.035398774 0.81699997 5.1751774e-39
0.018288413 -0.035442106 0.81800002 1.4479045e-38
0.021308387 -0.035788726 0.82599998 1.6322958e-38
0.024266502 -0.035962038 0.82999998 1.6688463e-38
-0.012645765 -0.038230695 0.81699997 1.1064214e-38
-0.0097874263 -0.038043521 0.81300002 1.1984022e-38
-0.0069566299 -0.037856348 0.80900002 1.1707435e-38
-0.0041739885 -0.037856348 0.80900002 1.170888e-38
-0.0013879074 -0.037762757 0.80699998 1.170888e-38
0.0013878547 -0.037762757 0.80699998 9.4979828e-39
0.0041636694 -0.037762757 0.80699998 6.9165051e-39
0.0069394317 -0.037762757 0.80699998 4.1524005e-39
0.0097392714 -0.037856348 0.80900002 6.6416825e-39
0.012583827 -0.038043521 0.81300002 7.660519e-39
0.015455897 -0.038230695 0.81699997 1.4667387e-38
0.018288413 -0.038277496 0.81800002 1.7239488e-38
-0.012645765 -0.041062579 0.81699997 1.5764709e-38
-0.0097874263 -0.04086154 0.81300002 1.0976284e-38
-0.0069566299 -0.040660497 0.80900002 8.2104151e-39
-0.0041739885 -0.040660497 0.80900002 1.3085703e-38
-0.0013913471 -0.040660497 0.80900002 1.1333986e-38
0.0013878547 -0.040559974 0.80699998 8.6663892e-39
0.0041636694 -0.040559974 0.80699998 6.8224766e-39
0.0069566299 -0.040660497 0.80900002 1.0786536e-38
0.0097392714 -0.040660497 0.80900002 1.5580708e-38
0.01255287 -0.040761016 0.81099999 1.7334576e-38
0.015455897 -0.041062579 0.81699997 1.6504816e-38
-0.012645765 -0.0438945 0.81699997 1.9084486e-38
-0.0097633488 -0.043572139 0.81099999 1.7046015e-38
-0.0069738282 -0.043572139 0.81099999 1.188306e-38
-0.0041739885 -0.04346469 0.80900002 2.1011944e-38
-0.0013913471 -0.04346469 0.80900002 2.045877e-38
0.0013878547 -0.043357234 0.80699998 1.3087049e-38
0.0041636694 -0.043357234 0.80699998 5.6192026e-39
0.0069566299 -0.04346469 0.80900002 7.1923381e-39
0.0097392714 -0.04346469 0.80900002 1.6688488e-38
0.01255287 -0.043572139 0.81099999 1.6964687e-38
-0.012521939 -0.046268839 0.80900002 2.3049261e-38
-0.0097392714 -0.046268839 0.80900002 2.276435e-38
-0.0069566299 -0.046268839 0.80900002 2.2211176e-38
-0.0041739885 -0.046268839 0.80900002 1.917049e-38
-0.0013913471 -0.046268839 0.80900002 1.6957795e-38
0.0013912943 -0.046268839 0.80900002 1.5758549e-38
0.0041739885 -0.046268839 0.80900002 1.3361462e-38
0.0069566299 -0.046268839 0.80900002 1.0881183e-38
0.0097392714 -0.046268839 0.80900002 1.2264118e-38
-0.012490982 -0.048951712 0.80699998 2.2404232e-38
-0.0097151939 -0.048951712 0.80699998 2.1107696e-38
-0.0069394317 -0.048951712 0.80699998 2.0185739e-38
-0.0041739885 -0.049073033 0.80900002 2.1103752e-38
-0.0013913471 -0.049073033 0.80900002 2.0366187e-38
0.0013912943 -0.049073033 0.80900002 2.0272537e-38
0.0041739885 -0.049073033 0.80900002 1.7414473e-38
0.0069566299 -0.049073033 0.80900002 1.6036192e-38
0.0097392714 -0.049073033 0.80900002 1.4376671e-38
-0.012490982 -0.051748972 0.80699998 1.5486296e-38
-0.0097151939 -0.051748972 0.80699998 1.3642658e-38
-0.0069394317 -0.051748972 0.80699998 1.3273875e-38
-0.0041739885 -0.051877223 0.80900002 1.4286276e-38
-0.0013913471 -0.051877223 0.80900002 1.4839449e-38
0.0013912943 -0.051877223 0.80900002 1.5482655e-38
0.0041739885 -0.051877223 0.80900002 1.4837286e-38
0.0069566299 -0.051877223 0.80900002 1.1893487e-38
0.0097392714 -0.051877223 0.80900002 1.7056442e-38
-0.0013913471 -0.054681376 0.80900002 2.2771589e-38
0.0013912943 -0.054681376 0.80900002 2.2494992e-38
0.0041739885 -0.054681376 0.80900002 2.1757427e-38
0.0069394317 -0.054546189 0.80699998 2.1296449e-38
0.0097151939 -0.054546189 0.80699998 2.1849623e-38
