# .PCD v0.7 - Point Cloud Data file format
VERSION 0.7
FIELDS x y z rgb
SIZE 4 4 4 4
TYPE F F F F
COUNT 1 1 1 1
WIDTH 987
HEIGHT 1
VIEWPOINT 0 0 0 1 0 0 0
POINTS 987
DATA ascii
0.011195932 0.047386725 0.43399999 2.1934057e-38
0.012513329 0.04673161 0.428 1.6402403e-38
0.013985481 0.04673161 0.428 1.9168272e-38
0.015493749 0.046840794 0.42899999 1.8521839e-38
0.01696934 0.046840794 0.42899999 1.9812578e-38
0.018487925 0.046949983 0.43000001 1.6311272e-38
0.0022443573 0.045988116 0.435 1.9353683e-38
0.0037405859 0.045988116 0.435 1.7415468e-38
0.0052247755 0.045882393 0.43399999 1.5479359e-38
0.0067175645 0.045882393 0.43399999 1.5755227e-38
0.0082103536 0.045882393 0.43399999 1.6031814e-38
0.0097031426 0.045882393 0.43399999 1.2342906e-38
0.011195932 0.045882393 0.43399999 1.7782427e-38
0.012513329 0.045248076 0.428 2.0367196e-38
0.013985481 0.045248076 0.428 1.5573024e-38
0.015457633 0.045248076 0.428 2.055015e-38
0.016929785 0.045248076 0.428 1.7323303e-38
0.018401936 0.045248076 0.428 1.9168621e-38
0.019827651 0.045142356 0.42699999 1.7140317e-38
0.021296391 0.045142356 0.42699999 1.9538865e-38
0.022711789 0.045036636 0.426 1.7049583e-38
0.024177061 0.045036636 0.426 1.7050551e-38
0.0022443573 0.044480301 0.435 1.6126518e-38
0.0037405859 0.044480301 0.435 1.6955592e-38
0.0052247755 0.044378046 0.43399999 1.4097528e-38
0.0066866088 0.044173539 0.43200001 1.6862325e-38
0.0081725186 0.044173539 0.43200001 1.547939e-38
0.0096584288 0.044173539 0.43200001 1.3448529e-38
0.011170136 0.044275794 0.433 1.427829e-38
0.012659513 0.044275794 0.433 2.0459389e-38
0.014018157 0.043866776 0.42899999 1.5665216e-38
0.015457633 0.043764524 0.428 1.9905477e-38
0.016890228 0.043662269 0.42699999 1.9997673e-38
0.01835894 0.043662269 0.42699999 1.9354447e-38
0.019827651 0.043662269 0.42699999 1.8340295e-38
0.021296391 0.043662269 0.42699999 1.9446657e-38
0.022658477 0.043457765 0.42500001 1.8155918e-38
0.024120308 0.043457765 0.42500001 1.5758427e-38
-0.0007515683 0.043170061 0.43700001 1.9171161e-38
0.00075153972 0.043170061 0.43700001 1.7051717e-38
0.0022546763 0.043170061 0.43700001 1.7604891e-38
0.0037405859 0.042972483 0.435 1.9997723e-38
0.0052247755 0.042873695 0.43399999 1.3359638e-38
0.0066866088 0.042676121 0.43200001 1.7600618e-38
0.0081725186 0.042676121 0.43200001 1.4281576e-38
0.0096584288 0.042676121 0.43200001 1.3265594e-38
0.011144338 0.042676121 0.43200001 1.2896811e-38
0.012630276 0.042676121 0.43200001 1.2438329e-38
0.014148863 0.042774908 0.433 1.5665158e-38
0.016890228 0.042182181 0.42699999 2.0645161e-38
0.01835894 0.042182181 0.42699999 1.8892753e-38
0.019781217 0.042083398 0.426 1.9630318e-38
0.021246517 0.042083398 0.426 1.7419383e-38
0.022658477 0.04198461 0.42500001 1.8433535e-38
0.024120308 0.04198461 0.42500001 1.7234369e-38
-0.0007515683 0.041655332 0.43700001 1.4014005e-38
0.00075153972 0.041655332 0.43700001 1.6957432e-38
0.0022546763 0.041655332 0.43700001 2.0460866e-38
0.003749185 0.041560009 0.43599999 1.9629638e-38
0.0052247755 0.041369367 0.43399999 1.3913509e-38
0.0066866088 0.041178726 0.43200001 1.9628973e-38
0.0081725186 0.041178726 0.43200001 1.3544061e-38
0.0096584288 0.041178726 0.43200001 1.428045e-38
0.011144338 0.041178726 0.43200001 1.3911668e-38
0.012630276 0.041178726 0.43200001 1.1422757e-38
0.014148863 0.041274045 0.433 1.6124713e-38
0.015638212 0.041274045 0.433 1.5204918e-38
0.016890228 0.040702116 0.42699999 1.6126874e-38
0.01835894 0.040702116 0.42699999 1.7324323e-38
0.019781217 0.040606797 0.426 2.055117e-38
0.021246517 0.040606797 0.426 1.4654946e-38
0.022658477 0.040511478 0.42500001 1.6591054e-38
0.024120308 0.040511478 0.42500001 1.7786442e-38
-0.0007550079 0.040324315 0.43900001 1.2445283e-38
0.0007532594 0.040232457 0.43799999 1.0879749e-38
0.0022546763 0.040140606 0.43700001 1.5028552e-38
0.003749185 0.040048748 0.43599999 1.7141039e-38
0.0052247755 0.039865039 0.43399999 1.6680061e-38
0.0067175645 0.039865039 0.43399999 1.9169086e-38
0.0081725186 0.03968133 0.43200001 1.5204674e-38
0.0096584288 0.03968133 0.43200001 1.4833634e-38
0.011118541 0.039589472 0.43099999 1.3819482e-38
0.012601039 0.039589472 0.43099999 1.1884805e-38
0.014116187 0.03968133 0.43200001 1.2898941e-38
0.015602097 0.03968133 0.43200001 1.8060155e-38
0.016890228 0.039222054 0.42699999 1.6953807e-38
0.018315945 0.0391302 0.426 1.6127533e-38
0.019734783 0.039038345 0.42500001 2.06451e-38
0.021196645 0.039038345 0.42500001 1.7696792e-38
0.022658477 0.039038345 0.42500001 1.3824576e-38
0.024120308 0.039038345 0.42500001 1.6587865e-38
0.0007532594 0.038714245 0.43799999 1.2262697e-38
0.0022598356 0.038714245 0.43799999 1.2539284e-38
0.003749185 0.038537465 0.43599999 1.6219848e-38
0.0052368147 0.038449079 0.435 1.658863e-38
0.0067330436 0.038449079 0.435 1.8799906e-38
0.0082103536 0.038360689 0.43399999 1.5019885e-38
0.0096807862 0.038272299 0.433 1.4925837e-38
0.011118541 0.038095523 0.43099999 1.4372663e-38
0.012601039 0.038095523 0.43099999 1.317484e-38
0.014116187 0.038183913 0.43200001 1.169971e-38
0.015602097 0.038183913 0.43200001 1.5018013e-38
0.017127562 0.038272299 0.433 1.9904381e-38
0.018315945 0.03765358 0.426 1.6404149e-38
0.019734783 0.03756519 0.42500001 1.7971475e-38
0.021196645 0.03756519 0.42500001 1.9167957e-38
0.022658477 0.03756519 0.42500001 1.5019153e-38
0.024120308 0.03756519 0.42500001 1.6771198e-38
-0.00075672776 0.037365872 0.44 1.4288819e-38
0.00075497921 0.037280954 0.43900001 1.5021339e-38
0.0022649951 0.037280954 0.43900001 1.4929144e-38
0.003749185 0.037026182 0.43599999 1.4929497e-38
0.0052368147 0.03694126 0.435 1.5851453e-38
0.0067330436 0.03694126 0.435 1.5942898e-38
0.0082292724 0.03694126 0.435 1.5942898e-38
0.0097255008 0.03694126 0.435 1.4651041e-38
0.011118541 0.03660157 0.43099999 1.4190063e-38
0.012601039 0.03660157 0.43099999 1.3635794e-38
0.014116187 0.036686495 0.43200001 1.1976281e-38
0.015602097 0.036686495 0.43200001 1.1422757e-38
0.017127562 0.036771417 0.433 2.0642299e-38
0.019734783 0.036092039 0.42500001 1.5388587e-38
0.021196645 0.036092039 0.42500001 1.4006738e-38
0.022658477 0.036092039 0.42500001 1.3361368e-38
0.024120308 0.036092039 0.42500001 1.6680473e-38
0.025642334 0.036176957 0.426 1.336143e-38
-0.00075672776 0.03584075 0.44 1.4196248e-38
0.0007532594 0.035677835 0.43799999 1.5573797e-38
0.0022598356 0.035677835 0.43799999 1.4836232e-38
0.0037577841 0.035596382 0.43700001 1.4837664e-38
0.0052488535 0.035514921 0.43599999 1.5298642e-38
0.0067330436 0.035433467 0.435 1.5850715e-38
0.0082292724 0.035433467 0.435 1.6219497e-38
0.0097255008 0.035433467 0.435 1.4835446e-38
0.011118541 0.035107642 0.43099999 1.4005685e-38
0.012601039 0.035107642 0.43099999 1.4372649e-38
0.014116187 0.0351891 0.43200001 1.1791175e-38
0.015638212 0.035270553 0.433 1.4926633e-38
0.01818696 0.034455992 0.42300001 2.1013618e-38
0.019641913 0.034455992 0.42300001 1.760238e-38
0.021146769 0.034537446 0.42399999 1.6404216e-38
0.022658477 0.034618903 0.42500001 1.2624196e-38
0.024120308 0.034618903 0.42500001 1.6771952e-38
0.025642334 0.03470036 0.426 1.3268518e-38
0.0007532594 0.034159619 0.43799999 1.5297207e-38
0.0022598356 0.034159619 0.43799999 1.5573794e-38
0.003766383 0.034159619 0.43799999 1.5482671e-38
0.0052488535 0.034003641 0.43599999 1.5482671e-38
0.0067485217 0.034003641 0.43599999 1.5019895e-38
0.0082292724 0.033925653 0.435 1.6402829e-38
0.0097255008 0.033925653 0.435 1.5663784e-38
0.011144338 0.033691682 0.43200001 1.4373045e-38
0.012630276 0.033691682 0.43200001 1.3726896e-38
0.014116187 0.033691682 0.43200001 1.1145457e-38
0.015638212 0.033769671 0.433 1.9168381e-38
0.018143963 0.032911777 0.42199999 1.5754451e-38
0.019595478 0.032911777 0.42199999 1.8612506e-38
0.021096895 0.03298977 0.42300001 1.7600949e-38
0.022605162 0.033067759 0.42399999 1.4466298e-38
0.024120308 0.033145752 0.42500001 1.6955602e-38
0.025642334 0.033223741 0.426 1.3452168e-38
0.0022598356 0.032641426 0.43799999 1.575963e-38
0.003766383 0.032641426 0.43799999 1.6036207e-38
0.0052608922 0.032566905 0.43700001 1.5390838e-38
0.0067485217 0.032492381 0.43599999 1.4927702e-38
0.0082481895 0.032492381 0.43599999 1.5019897e-38
0.0097478582 0.032492381 0.43599999 1.566451e-38
0.011195932 0.032343332 0.43399999 1.566451e-38
0.012630276 0.032194287 0.43200001 1.2162464e-38
0.014116187 0.032194287 0.43200001 1.6126856e-38
0.015602097 0.032194287 0.43200001 2.0459061e-38
0.018100969 0.031374522 0.421 1.4277551e-38
0.019549044 0.031374522 0.421 1.6674638e-38
0.020997146 0.031374522 0.421 1.6677521e-38
0.022605162 0.031598091 0.42399999 1.4741413e-38
0.024120308 0.031672619 0.42500001 1.6219459e-38
0.025642334 0.03174714 0.426 1.3730177e-38
0.0037835813 0.031265326 0.44 1.5389753e-38
0.0052608922 0.031052155 0.43700001 1.4928775e-38
0.0067640003 0.031052155 0.43700001 1.4650399e-38
0.0082671084 0.031052155 0.43700001 1.4650399e-38
0.0097702164 0.031052155 0.43700001 1.6309519e-38
0.011195932 0.030838981 0.43399999 1.5387563e-38
0.012630276 0.030696867 0.43200001 1.4005733e-38
0.014116187 0.030696867 0.43200001 2.1842361e-38
0.015602097 0.030696867 0.43200001 1.9260567e-38
0.018100969 0.029915232 0.421 2.3133888e-38
0.019549044 0.029915232 0.421 1.5942629e-38
0.020997146 0.029915232 0.421 1.6955165e-38
0.022711789 0.030270521 0.426 1.4926861e-38
0.024177061 0.030270521 0.426 1.6586748e-38
0.025642334 0.030270521 0.426 1.465064e-38
0.0037835813 0.029740181 0.44 1.4744402e-38
0.0052729305 0.029604997 0.43799999 1.4283424e-38
0.0067794779 0.029604997 0.43799999 1.3911026e-38
0.0082671084 0.029537408 0.43700001 1.2528092e-38
0.0097702164 0.029537408 0.43700001 1.3455458e-38
0.011273324 0.029537408 0.43700001 1.7512066e-38
0.012630276 0.029199449 0.43200001 2.138183e-38
0.014116187 0.029199449 0.43200001 2.1105243e-38
0.019595478 0.028523535 0.42199999 1.7598553e-38
0.021047018 0.028523535 0.42199999 1.7691352e-38
0.022711789 0.028793901 0.426 1.8982091e-38
0.024177061 0.028793901 0.426 1.6311565e-38
0.025642334 0.028793901 0.426 1.6127174e-38
0.0067949565 0.028150931 0.43900001 1.1514345e-38
0.0083049433 0.028150931 0.43900001 1.4372409e-38
0.0098149311 0.028150931 0.43900001 1.7971684e-38
0.011170136 0.027766177 0.433 2.2028291e-38
0.012630276 0.027702054 0.43200001 2.2768733e-38
0.014116187 0.027702054 0.43200001 2.3508092e-38
0.021296391 0.027381426 0.42699999 1.6122617e-38
0.022765102 0.027381426 0.42699999 1.9626051e-38
0.024233814 0.027381426 0.42699999 1.7509482e-38
0.025702527 0.027381426 0.42699999 1.8892417e-38
0.0067794779 0.02656861 0.43799999 1.6492921e-38
0.0082860254 0.02656861 0.43799999 1.7599269e-38
0.0097925728 0.02656861 0.43799999 2.0830464e-38
0.011170136 0.026265316 0.433 2.2305594e-38
0.012659513 0.026265316 0.433 2.341769e-38
0.014148863 0.026265316 0.433 2.3233299e-38
0.022765102 0.02590136 0.42699999 1.6951327e-38
0.024233814 0.02590136 0.42699999 1.990625e-38
0.025702527 0.02590136 0.42699999 1.8615512e-38
0.0067794779 0.025050396 0.43799999 1.7411998e-38
0.0082860254 0.025050396 0.43799999 1.9071519e-38
0.0097925728 0.025050396 0.43799999 2.1752783e-38
0.0052849692 0.023585908 0.43900001 1.7690055e-38
0.0067640003 0.023478454 0.43700001 1.6581174e-38
0.0082671084 0.023478454 0.43700001 1.7871913e-38
0.0097702164 0.023478454 0.43700001 2.3322267e-38
0.011273324 0.023478454 0.43700001 2.3137876e-38
0.00075841881 0.022164769 0.44100001 1.9723025e-38
0.0022753139 0.022164769 0.44100001 1.8524482e-38
0.0037835813 0.022114508 0.44 1.842726e-38
0.0052849692 0.022064248 0.43900001 1.7597499e-38
0.0067640003 0.021963727 0.43700001 1.6579749e-38
0.0082671084 0.021963727 0.43700001 2.0728552e-38
0.0097702164 0.021963727 0.43700001 2.3228983e-38
0.011273324 0.021963727 0.43700001 1.8987984e-38
0.00075841881 0.020636156 0.44100001 1.9170207e-38
0.0022753139 0.020636156 0.44100001 1.8248251e-38
0.0037835813 0.020589361 0.44 1.8703481e-38
0.0052849692 0.020542568 0.43900001 1.7504938e-38
0.0067794779 0.020495772 0.43799999 1.722619e-38
0.0082860254 0.020495772 0.43799999 2.2942319e-38
0.0097925728 0.020495772 0.43799999 2.1004734e-38
0.01129912 0.020495772 0.43799999 1.2983714e-38
0.012805697 0.020495772 0.43799999 1.2886027e-38
0.0007601385 0.01915089 0.442 1.9169141e-38
0.0022804732 0.01915089 0.442 1.8523771e-38
0.0037749822 0.019020908 0.43900001 1.8333617e-38
0.0052849692 0.019020908 0.43900001 1.7780443e-38
0.0067794779 0.018977579 0.43799999 1.7410228e-38
0.0082860254 0.018977579 0.43799999 2.137464e-38
0.0097925728 0.018977579 0.43799999 1.639096e-38
0.01129912 0.018977579 0.43799999 1.4731439e-38
0.00075841881 0.01757895 0.44100001 1.9722678e-38
0.0022753139 0.01757895 0.44100001 1.8524134e-38
0.0037749822 0.017499227 0.43900001 1.8058465e-38
0.0052849692 0.017499227 0.43900001 1.7228704e-38
0.0067794779 0.017459365 0.43799999 1.7964121e-38
0.0082860254 0.017459365 0.43799999 1.9623642e-38
0.0097925728 0.017459365 0.43799999 1.4906504e-38
0.011324918 0.017499227 0.43900001 1.6934808e-38
0.00075841881 0.016050335 0.44100001 1.9077305e-38
0.0022753139 0.016050335 0.44100001 1.8063153e-38
0.0037749822 0.015977545 0.43900001 1.7966269e-38
0.0052849692 0.015977545 0.43900001 1.7413095e-38
0.0067794779 0.015941149 0.43799999 1.7686449e-38
0.0082860254 0.015941149 0.43799999 1.9806949e-38
0.0098149311 0.015977545 0.43900001 1.4633171e-38
0.011324918 0.015977545 0.43900001 1.6384888e-38
0.00075841881 0.014521744 0.44100001 1.9723031e-38
0.0022701544 0.014488814 0.44 1.7879118e-38
0.0037749822 0.014455886 0.43900001 1.7781878e-38
0.0052849692 0.014455886 0.43900001 1.73209e-38
0.0067794779 0.014422956 0.43799999 1.7225824e-38
0.0082860254 0.014422956 0.43799999 1.9438519e-38
0.0098149311 0.014455886 0.43900001 1.7036025e-38
0.011324918 0.014455886 0.43900001 1.4546743e-38
0.00075841881 0.012993152 0.44100001 1.9261687e-38
0.0022701544 0.012963688 0.44 1.7878752e-38
0.0037749822 0.012934226 0.43900001 1.7597121e-38
0.0052849692 0.012934226 0.43900001 1.7504925e-38
0.0067794779 0.012904762 0.43799999 1.7133276e-38
0.0082860254 0.012904762 0.43799999 1.851621e-38
0.0097925728 0.012904762 0.43799999 1.9719791e-38
0.011324918 0.012934226 0.43900001 1.8244661e-38
0.00075669901 0.011438541 0.44 1.898475e-38
0.0022701544 0.011438541 0.44 1.7694011e-38
0.0037749822 0.011412544 0.43900001 1.7227988e-38
0.0052729305 0.011386547 0.43799999 1.7320184e-38
0.0067794779 0.011386547 0.43799999 1.7318035e-38
0.0082860254 0.011386547 0.43799999 1.80556e-38
0.0097925728 0.011386547 0.43799999 1.9073712e-38
0.011324918 0.011412544 0.43900001 1.8428343e-38
0.012601039 0.011204571 0.43099999 1.879639e-38
0.014083509 0.011204571 0.43099999 1.6952477e-38
0.00075669901 0.0099133933 0.44 1.8707807e-38
0.0022701544 0.0099133933 0.44 1.7324872e-38
0.0037749822 0.0098908637 0.43900001 1.7321275e-38
0.0052729305 0.0098683322 0.43799999 1.6952493e-38
0.0067640003 0.0098458026 0.43700001 1.685778e-38
0.0082671084 0.0098458026 0.43700001 1.7871932e-38
0.0097925728 0.0098683322 0.43799999 1.8982236e-38
0.011324918 0.0098908637 0.43900001 1.8060279e-38
0.012601039 0.0097106192 0.43099999 1.7963742e-38
0.014083509 0.0097106192 0.43099999 1.5751047e-38
0.018702902 0.0098007414 0.435 1.5573094e-38
0.020199129 0.0098007414 0.435 1.4927724e-38
0.00075669901 0.0083882678 0.44 1.8892561e-38
0.0022701544 0.0083882678 0.44 1.7140844e-38
0.0037749822 0.0083692037 0.43900001 1.7045411e-38
0.0052729305 0.0083501395 0.43799999 1.6400042e-38
0.0067640003 0.0083310753 0.43700001 1.7412392e-38
0.0082671084 0.0083310753 0.43700001 1.7412392e-38
0.0097925728 0.0083501395 0.43799999 1.879856e-38
0.011324918 0.0083692037 0.43900001 1.7600017e-38
0.012601039 0.0082166893 0.43099999 1.6855615e-38
0.014083509 0.0082166893 0.43099999 1.5749268e-38
0.01556598 0.0082166893 0.43099999 1.6302063e-38
0.017088007 0.0082357535 0.43200001 1.6486454e-38
0.018659905 0.0082738819 0.43399999 1.4924151e-38
0.020199129 0.008292946 0.435 1.5016347e-38
0.00075669901 0.00686312 0.44 1.8801444e-38
0.0022701544 0.00686312 0.44 1.7510705e-38
0.0037749822 0.0068475222 0.43900001 1.7045409e-38
0.0052729305 0.006831924 0.43799999 1.6768822e-38
0.0067640003 0.0068163262 0.43700001 1.731948e-38
0.0082671084 0.0068163262 0.43700001 1.7780458e-38
0.0097702164 0.0068163262 0.43700001 1.8705649e-38
0.011273324 0.0068163262 0.43700001 1.8244671e-38
0.012601039 0.006722738 0.43099999 1.6579767e-38
0.014083509 0.006722738 0.43099999 1.5750006e-38
0.01556598 0.006722738 0.43099999 1.6025479e-38
0.017088007 0.0067383363 0.43200001 1.6670848e-38
0.018616911 0.0067539341 0.433 1.5476972e-38
0.020199129 0.0067851301 0.435 1.5661363e-38
0.021795137 0.0068163262 0.43700001 1.5017791e-38
0.023404872 0.0068475222 0.43900001 1.6031943e-38
0.0022701544 0.0053379945 0.44 1.7327393e-38
0.0037835813 0.0053379945 0.44 1.778333e-38
0.0052729305 0.0053137308 0.43799999 1.8059916e-38
0.0067485217 0.0052894671 0.43599999 1.8334711e-38
0.0082481895 0.0052894671 0.43599999 1.9072276e-38
0.0097255008 0.0052773356 0.435 1.9626892e-38
0.011221729 0.0052773356 0.435 1.9442501e-38
0.012659513 0.0052530719 0.433 1.7134367e-38
0.014083509 0.0052288081 0.43099999 1.6212411e-38
0.01556598 0.0052288081 0.43099999 1.6302795e-38
0.01704845 0.0052288081 0.43099999 1.6948164e-38
0.018616911 0.0052530719 0.433 1.6123776e-38
0.020152694 0.0052652033 0.43399999 1.5847189e-38
0.021795137 0.0053015989 0.43700001 1.5755356e-38
0.023404872 0.0053258627 0.43900001 1.5478769e-38
0.025141872 0.0053743897 0.44299999 1.6403259e-38
0.026665619 0.0053743897 0.44299999 1.9537911e-38
0.0022701544 0.003812847 0.44 1.8064232e-38
0.0037835813 0.003812847 0.44 1.8613453e-38
0.0052849692 0.0038041815 0.43900001 1.9166627e-38
0.0067485217 0.0037781845 0.43599999 1.999675e-38
0.0082292724 0.0037695193 0.435 2.0181142e-38
0.0097255008 0.0037695193 0.435 2.1378969e-38
0.011195932 0.0037608533 0.43399999 2.008823e-38
0.012630276 0.0037435226 0.43200001 1.7413108e-38
0.014083509 0.0037348568 0.43099999 1.6122369e-38
0.01556598 0.0037348568 0.43099999 1.6488272e-38
0.01704845 0.0037348568 0.43099999 1.6672663e-38
0.018573917 0.0037435226 0.43200001 1.6585117e-38
0.020152694 0.0037608533 0.43399999 1.6400726e-38
0.021695387 0.0037695193 0.435 1.6215972e-38
0.023298245 0.0037868503 0.43700001 1.5939385e-38
0.024914859 0.0038041815 0.43900001 1.6311058e-38
0.026545234 0.0038215127 0.44100001 1.9353514e-38
0.0022701544 0.0022876994 0.44 1.8157144e-38
0.0037749822 0.0022825003 0.43900001 1.8890759e-38
0.0052608922 0.0022721016 0.43700001 1.9536128e-38
0.0067330436 0.0022617029 0.435 2.0642483e-38
0.0082292724 0.0022617029 0.435 2.1195657e-38
0.0097255008 0.0022617029 0.435 2.239419e-38
0.011195932 0.0022565036 0.43399999 1.9997104e-38
0.012630276 0.0022461049 0.43200001 1.7596777e-38
0.014083509 0.0022409055 0.43099999 1.6951408e-38
0.01556598 0.0022409055 0.43099999 1.6764493e-38
0.01704845 0.0022409055 0.43099999 1.6856689e-38
0.018573917 0.0022461049 0.43200001 1.7505994e-38
0.020152694 0.0022565036 0.43399999 1.7229407e-38
0.021695387 0.0022617029 0.435 1.6953894e-38
0.023191616 0.0022617029 0.435 1.6677307e-38
0.024858104 0.0022773009 0.43799999 1.6126291e-38
0.026485041 0.0022876994 0.44 1.953753e-38
0.027998466 0.0022876994 0.44 1.8069602e-38
0.029511893 0.0022876994 0.44 1.8069602e-38
0.0022649951 0.00076084066 0.43900001 1.8893993e-38
0.003766383 0.00075910747 0.43799999 1.8891116e-38
0.0052608922 0.00075737439 0.43700001 1.9352094e-38
0.0067330436 0.00075390813 0.435 1.9811999e-38
0.0082292724 0.00075390813 0.435 2.0365173e-38
0.0097031426 0.00075217499 0.43399999 1.9808744e-38
0.011170136 0.00075044186 0.433 1.8057027e-38
0.012630276 0.00074870879 0.43200001 1.7595336e-38
0.014083509 0.00074697559 0.43099999 1.7779727e-38
0.01556598 0.00074697559 0.43099999 1.7410932e-38
0.01704845 0.00074697559 0.43099999 1.639678e-38
0.018573917 0.00074870879 0.43200001 1.7412364e-38
0.020152694 0.00075217499 0.43399999 1.7596755e-38
0.021645512 0.00075217499 0.43399999 1.7324121e-38
0.023191616 0.00075390813 0.435 1.7416317e-38
0.024744598 0.0007556412 0.43599999 1.6494714e-38
0.026424848 0.00076084066 0.43900001 1.9352778e-38
0.027934834 0.00076084066 0.43900001 1.8252917e-38
0.029511893 0.00076257373 0.44 1.8345113e-38
0.0022598356 -0.00075910747 0.43799999 1.8709965e-38
0.0037577841 -0.00075737439 0.43700001 1.8890037e-38
0.0052608922 -0.00075737439 0.43700001 1.8705646e-38
0.0067485217 -0.0007556412 0.43599999 1.8704557e-38
0.0082292724 -0.00075390813 0.435 1.8335775e-38
0.0097031426 -0.00075217499 0.43399999 1.8243216e-38
0.011144338 -0.00074870879 0.43200001 1.7782238e-38
0.012630276 -0.00074870879 0.43200001 1.7780093e-38
0.014083509 -0.00074697559 0.43099999 1.7780093e-38
0.01556598 -0.00074697559 0.43099999 1.7596039e-38
0.01704845 -0.00074697559 0.43099999 1.6581887e-38
0.018573917 -0.00074870879 0.43200001 1.7227975e-38
0.020106262 -0.00075044186 0.433 1.796554e-38
0.021645512 -0.00075217499 0.43399999 1.7692548e-38
0.023191616 -0.00075390813 0.435 1.8337917e-38
0.024744598 -0.0007556412 0.43599999 1.7139377e-38
0.026304461 -0.00075737439 0.43700001 1.8245724e-38
0.027934834 -0.00076084066 0.43900001 1.8712816e-38
0.029444821 -0.00076084066 0.43900001 1.8344034e-38
0.0022598356 -0.0022773009 0.43799999 1.8618482e-38
0.0037577841 -0.0022721016 0.43700001 1.8522334e-38
0.0052608922 -0.0022721016 0.43700001 1.8337942e-38
0.0067485217 -0.0022669022 0.43599999 1.8243582e-38
0.0082292724 -0.0022617029 0.435 1.8335777e-38
0.0097031426 -0.0022565036 0.43399999 1.8057756e-38
0.011144338 -0.0022461049 0.43200001 1.7596777e-38
0.012630276 -0.0022461049 0.43200001 1.7965197e-38
0.014083509 -0.0022409055 0.43099999 1.7873001e-38
0.01556598 -0.0022409055 0.43099999 1.7780793e-38
0.01704845 -0.0022409055 0.43099999 1.7043228e-38
0.018573917 -0.0022461049 0.43200001 1.6766291e-38
0.020059826 -0.0022461049 0.43200001 1.7780443e-38
0.021595638 -0.0022513042 0.433 1.7876576e-38
0.023138301 -0.0022565036 0.43399999 1.8153163e-38
0.024687845 -0.0022617029 0.435 1.7600345e-38
0.026304461 -0.0022721016 0.43700001 1.6678389e-38
0.027934834 -0.0022825003 0.43900001 1.7884138e-38
0.029444821 -0.0022825003 0.43900001 1.8160724e-38
0.003766383 -0.0037955157 0.43799999 1.852305e-38
0.0052608922 -0.0037868503 0.43700001 1.7969876e-38
0.0067485217 -0.0037781845 0.43599999 1.8151389e-38
0.0082292724 -0.0037695193 0.435 1.8151389e-38
0.0097031426 -0.0037608533 0.43399999 1.8057758e-38
0.011170136 -0.0037521881 0.433 1.8057758e-38
0.012630276 -0.0037435226 0.43200001 1.7966269e-38
0.014083509 -0.0037348568 0.43099999 1.7874073e-38
0.01556598 -0.0037348568 0.43099999 1.7688247e-38
0.01704845 -0.0037348568 0.43099999 1.7319465e-38
0.018573917 -0.0037435226 0.43200001 1.7411269e-38
0.020059826 -0.0037435226 0.43200001 1.7964443e-38
0.021595638 -0.0037521881 0.433 1.6767708e-38
0.023138301 -0.0037608533 0.43399999 1.4278426e-38
0.024687845 -0.0037695193 0.435 1.5025329e-38
0.026304461 -0.0037868503 0.43700001 1.8067785e-38
0.0052729305 -0.0053137089 0.43799999 1.8063509e-38
0.0067640003 -0.0053015775 0.43700001 1.8152825e-38
0.0082481895 -0.0052894456 0.43599999 1.7876238e-38
0.0097255008 -0.0052773138 0.435 1.8058474e-38
0.011195932 -0.0052651819 0.43399999 1.7966279e-38
0.012688749 -0.0052651819 0.43399999 1.7966263e-38
0.014116187 -0.0052409186 0.43200001 1.8058459e-38
0.015602097 -0.0052409186 0.43200001 1.8426153e-38
0.017088007 -0.0052409186 0.43200001 1.8333957e-38
0.018573917 -0.0052409186 0.43200001 1.1512447e-38
0.020059826 -0.0052409186 0.43200001 7.732477e-39
0.021645512 -0.0052651819 0.43399999 4.6054557e-39
0.02324493 -0.0052894456 0.43599999 1.8395868e-39
0.024801353 -0.0053015775 0.43700001 1.3830764e-38
0.026364652 -0.0053137089 0.43799999 1.8256154e-38
0.0067794779 -0.006831924 0.43799999 1.8706352e-38
0.0082481895 -0.0068007279 0.43599999 1.833757e-38
0.0097255008 -0.0067851301 0.435 1.8427963e-38
0.011221729 -0.0067851301 0.435 1.8612354e-38
0.012717986 -0.0067851301 0.435 1.8149926e-38
0.014181538 -0.0067695319 0.43399999 1.6490405e-38
0.015674327 -0.0067695319 0.43399999 1.2992359e-38
0.017167116 -0.0067695319 0.43399999 9.3967292e-39
0.018659905 -0.0067695319 0.43399999 3.5966511e-39
0.020199129 -0.0067851301 0.435 4.610796e-39
0.021745261 -0.0068007279 0.43599999 6.1764037e-39
0.023298245 -0.0068163262 0.43700001 4.9778606e-39
0.024801353 -0.0068163262 0.43700001 1.438395e-38
0.026304461 -0.0068163262 0.43700001 1.7887384e-38
0.027934834 -0.0068475222 0.43900001 1.7517863e-38
0.0082481895 -0.0083119888 0.43599999 1.5573155e-38
0.0097478582 -0.0083119888 0.43599999 1.3821779e-38
0.011247527 -0.0083119888 0.43599999 1.0779323e-38
0.012717986 -0.0082929246 0.435 6.8087845e-39
0.014181538 -0.0082738604 0.43399999 5.1492632e-39
0.015674327 -0.0082738604 0.43399999 3.9637086e-39
0.017206673 -0.0082929246 0.435 2.3041873e-39
0.018745895 -0.0083119888 0.43599999 4.702015e-39
0.020245565 -0.0083119888 0.43599999 6.177145e-39
0.021795137 -0.0083310539 0.43700001 7.0090385e-39
0.023298245 -0.0083310539 0.43700001 4.7041477e-39
0.024801353 -0.0083310539 0.43700001 1.4661244e-38
0.026304461 -0.0083310539 0.43700001 1.7980286e-38
0.027934834 -0.0083691822 0.43900001 1.7426031e-38
0.0082671084 -0.0098458026 0.43700001 6.2704197e-39
0.0097478582 -0.0098232711 0.43599999 5.256981e-39
0.011247527 -0.0098232711 0.43599999 5.3491766e-39
0.012717986 -0.0098007414 0.435 5.3480878e-39
0.014214215 -0.0098007414 0.435 5.9012616e-39
0.015710443 -0.0098007414 0.435 5.9012588e-39
0.017246228 -0.0098232711 0.43599999 4.9793025e-39
0.018745895 -0.0098232711 0.43599999 5.2551859e-39
0.020245565 -0.0098232711 0.43599999 6.0849466e-39
0.021745261 -0.0098232711 0.43599999 6.9154037e-39
0.02324493 -0.0098232711 0.43599999 5.7168605e-39
0.024744598 -0.0098232711 0.43599999 1.4659806e-38
0.026304461 -0.0098458026 0.43700001 1.7702262e-38
0.027934834 -0.0098908637 0.43900001 1.7610056e-38
0.0082860254 -0.011386526 0.43799999 8.3905632e-39
0.0097702164 -0.01136053 0.43700001 7.6540674e-39
0.011273324 -0.01136053 0.43700001 7.1008936e-39
0.012747223 -0.011334532 0.43599999 6.455527e-39
0.014246891 -0.011334532 0.43599999 6.455527e-39
0.01574656 -0.011334532 0.43599999 6.0885241e-39
0.017246228 -0.011334532 0.43599999 4.1524159e-39
0.018745895 -0.011334532 0.43599999 4.8885614e-39
0.020245565 -0.011334532 0.43599999 5.4417352e-39
0.021745261 -0.011334532 0.43599999 6.9154037e-39
0.02324493 -0.011334532 0.43599999 6.4544256e-39
0.024744598 -0.011334532 0.43599999 1.3092486e-38
0.026304461 -0.01136053 0.43700001 1.7978854e-38
0.027934834 -0.011412523 0.43900001 1.7425665e-38
0.0083238613 -0.012963667 0.44 8.3909163e-39
0.0097925728 -0.012904741 0.43799999 7.2849317e-39
0.011273324 -0.012875278 0.43700001 6.9161492e-39
0.012747223 -0.012845815 0.43599999 7.2834828e-39
0.014246891 -0.012845815 0.43599999 6.8225046e-39
0.01574656 -0.012845815 0.43599999 6.5484205e-39
0.017206673 -0.012816352 0.435 4.6123122e-39
0.018702902 -0.012816352 0.435 4.702015e-39
0.020245565 -0.012845815 0.43599999 5.6239713e-39
0.021745261 -0.012845815 0.43599999 6.7306565e-39
0.02324493 -0.012845815 0.43599999 6.0852871e-39
0.024744598 -0.012845815 0.43599999 1.1618081e-38
0.026304461 -0.012875278 0.43700001 1.7795189e-38
0.027934834 -0.012934204 0.43900001 1.7057233e-38
0.0097925728 -0.014422956 0.43799999 7.1001901e-39
0.011273324 -0.014390027 0.43700001 7.1923858e-39
0.012747223 -0.014357097 0.43599999 7.1008908e-39
0.014246891 -0.014357097 0.43599999 6.1789345e-39
0.01574656 -0.014357097 0.43599999 6.9154037e-39
0.017206673 -0.014324169 0.435 6.085643e-39
0.018702902 -0.014324169 0.435 5.8991134e-39
0.020245565 -0.014357097 0.43599999 7.6508304e-39
0.021745261 -0.014357097 0.43599999 7.1919906e-39
0.02324493 -0.014357097 0.43599999 5.9934474e-39
0.024801353 -0.014390027 0.43700001 1.1339346e-38
0.026304461 -0.014390027 0.43700001 1.7977432e-38
0.027871199 -0.014422956 0.43799999 1.7148349e-38
0.0097925728 -0.015941149 0.43799999 7.1923858e-39
0.011273324 -0.015904754 0.43700001 7.2845814e-39
0.012747223 -0.015868358 0.43599999 7.4685775e-39
0.014246891 -0.015868358 0.43599999 6.6388168e-39
0.01574656 -0.015868358 0.43599999 6.5459149e-39
0.017246228 -0.015868358 0.43599999 5.9927412e-39
0.018745895 -0.015868358 0.43599999 5.3473816e-39
0.020245565 -0.015868358 0.43599999 7.0990985e-39
0.021745261 -0.015868358 0.43599999 6.5484233e-39
0.02324493 -0.015868358 0.43599999 5.9952495e-39
0.024744598 -0.015868358 0.43599999 9.2188469e-39
0.026304461 -0.015904754 0.43700001 1.7608649e-38
0.027871199 -0.015941149 0.43799999 1.7240558e-38
0.0098149311 -0.017499227 0.43900001 6.7335656e-39
0.01129912 -0.017459365 0.43799999 6.4569787e-39
0.012747223 -0.01737964 0.43599999 7.0990859e-39
0.014246891 -0.01737964 0.43599999 6.7303034e-39
0.01574656 -0.01737964 0.43599999 6.0870948e-39
0.017246228 -0.01737964 0.43599999 5.6261166e-39
0.018745895 -0.01737964 0.43599999 5.0729555e-39
0.020245565 -0.01737964 0.43599999 5.7183249e-39
0.021745261 -0.01737964 0.43599999 6.4558773e-39
0.02324493 -0.01737964 0.43599999 6.2714861e-39
0.024744598 -0.01737964 0.43599999 6.4558773e-39
0.026304461 -0.017419502 0.43700001 1.5583245e-38
0.027807569 -0.017419502 0.43700001 1.7149078e-38
0.0083238613 -0.019064212 0.44 8.4841812e-39
0.0098149311 -0.019020885 0.43900001 7.1927389e-39
0.01129912 -0.018977556 0.43799999 6.8239564e-39
0.012747223 -0.018890901 0.43599999 6.8235878e-39
0.014246891 -0.018890901 0.43599999 6.7313922e-39
0.015710443 -0.018847574 0.435 5.811947e-39
0.017206673 -0.018847574 0.435 5.5353601e-39
0.018745895 -0.018890901 0.43599999 5.6257607e-39
0.020245565 -0.018890901 0.43599999 6.6399126e-39
0.021745261 -0.018890901 0.43599999 6.7303062e-39
0.02324493 -0.018890901 0.43599999 6.9146975e-39
0.024744598 -0.018890901 0.43599999 8.2054391e-39
0.026304461 -0.018934229 0.43700001 1.4474742e-38
0.027807569 -0.018934229 0.43700001 1.7057248e-38
0.0068259132 -0.020636156 0.44100001 9.5901728e-39
0.0083049433 -0.020542568 0.43900001 8.1150427e-39
0.0098149311 -0.020542568 0.43900001 7.929941e-39
0.011273324 -0.020448979 0.43700001 7.7455497e-39
0.012747223 -0.020402184 0.43599999 7.1008936e-39
0.014214215 -0.02035539 0.435 6.6399154e-39
0.015710443 -0.02035539 0.435 5.9023532e-39
0.017206673 -0.02035539 0.435 6.1789401e-39
0.018702902 -0.02035539 0.435 6.1771352e-39
0.020199129 -0.02035539 0.435 7.5600697e-39
0.021695387 -0.02035539 0.435 7.5618619e-39
0.023191616 -0.02035539 0.435 8.3916226e-39
0.024687845 -0.02035539 0.435 7.3778308e-39
0.026244266 -0.020402184 0.43599999 1.2909569e-38
0.02742577 -0.020168213 0.43099999 1.7517147e-38
0.02890824 -0.020168213 0.43099999 1.6871778e-38
0.030461224 -0.020215008 0.43200001 1.7055801e-38
0.031947162 -0.020215008 0.43200001 1.6779214e-38
0.0068259132 -0.022164747 0.44100001 9.4079423e-39
0.0083049433 -0.022064228 0.43900001 8.2093992e-39
0.0097925728 -0.022013966 0.43799999 8.3891241e-39
0.011273324 -0.021963706 0.43700001 7.8359503e-39
0.012747223 -0.021913445 0.43599999 7.2852849e-39
0.014214215 -0.021863185 0.435 5.994546e-39
0.015710443 -0.021863185 0.435 6.5455646e-39
0.017206673 -0.021863185 0.435 6.8221515e-39
0.018702902 -0.021863185 0.435 6.1771352e-39
0.020199129 -0.021863185 0.435 7.3756784e-39
0.021695387 -0.021863185 0.435 7.3778308e-39
0.023191616 -0.021863185 0.435 8.0232002e-39
0.024687845 -0.021863185 0.435 8.2997773e-39
0.026184073 -0.021863185 0.435 1.1157842e-38
0.02742577 -0.021662144 0.43099999 1.7240555e-38
0.02890824 -0.021662144 0.43099999 1.6871772e-38
0.030461224 -0.021712406 0.43200001 1.6872128e-38
0.031947162 -0.021712406 0.43200001 1.6779933e-38
0.0082481895 -0.023424728 0.43599999 9.4075822e-39
0.0097478582 -0.023424728 0.43599999 7.8406292e-39
0.011273324 -0.023478454 0.43700001 7.4718467e-39
0.012747223 -0.023424728 0.43599999 7.4693132e-39
0.014214215 -0.023371002 0.435 6.6395525e-39
0.015710443 -0.023371002 0.435 7.1927263e-39
0.017206673 -0.023371002 0.435 6.4551612e-39
0.018702902 -0.023371002 0.435 5.4424386e-39
0.020199129 -0.023371002 0.435 6.1800037e-39
0.021695387 -0.023371002 0.435 6.9161394e-39
0.023191616 -0.023371002 0.435 7.4693132e-39
0.024687845 -0.023371002 0.435 7.6544079e-39
0.026184073 -0.023371002 0.435 1.0604668e-38
0.027489405 -0.023209823 0.43200001 1.7699731e-38
0.028975314 -0.023209823 0.43200001 1.7054361e-38
0.030461224 -0.023209823 0.43200001 1.6779579e-38
0.0082481895 -0.024935989 0.43599999 9.0366515e-39
0.0097478582 -0.024935989 0.43599999 7.7473574e-39
0.011247527 -0.024935989 0.43599999 7.5629662e-39
0.012747223 -0.024935989 0.43599999 7.8366566e-39
0.014246891 -0.024935989 0.43599999 7.6522653e-39
0.015710443 -0.024878796 0.435 7.285275e-39
0.017206673 -0.024878796 0.435 6.9164925e-39
0.018702902 -0.024878796 0.435 5.9016147e-39
0.020199129 -0.024878796 0.435 6.2703972e-39
0.021695387 -0.024878796 0.435 6.1785842e-39
0.023191616 -0.024878796 0.435 7.2849317e-39
0.024687845 -0.024878796 0.435 8.760052e-39
0.026184073 -0.024878796 0.435 9.5898127e-39
0.027680302 -0.024878796 0.435 1.6132768e-38
0.029176531 -0.024878796 0.435 1.7054724e-38
0.0083049433 -0.026629249 0.43900001 9.5898225e-39
0.0097925728 -0.02656859 0.43799999 7.839553e-39
0.011247527 -0.02644727 0.43599999 7.3785749e-39
0.012747223 -0.02644727 0.43599999 7.9288522e-39
0.014246891 -0.02644727 0.43599999 7.7444609e-39
0.015710443 -0.026386613 0.435 7.5600697e-39
0.017206673 -0.026386613 0.435 7.2834828e-39
0.018702902 -0.026386613 0.435 4.7974476e-39
0.020199129 -0.026386613 0.435 6.2725777e-39
0.021695387 -0.026386613 0.435 6.7328271e-39
0.023191616 -0.026386613 0.435 7.4703922e-39
0.024687845 -0.026386613 0.435 8.3909135e-39
0.026184073 -0.026386613 0.435 9.2206742e-39
0.027680302 -0.026386613 0.435 1.4015152e-38
0.029176531 -0.026386613 0.435 1.659663e-38
0.0083049433 -0.028150931 0.43900001 7.9324521e-39
0.0098149311 -0.028150931 0.43900001 7.9281431e-39
0.011247527 -0.027958553 0.43599999 8.0203388e-39
0.012747223 -0.027958553 0.43599999 7.6537044e-39
0.014246891 -0.027958553 0.43599999 7.1005307e-39
0.015710443 -0.027894428 0.435 6.8250256e-39
0.017206673 -0.027894428 0.435 6.5484387e-39
0.018702902 -0.027894428 0.435 4.980757e-39
0.020199129 -0.027894428 0.435 7.0090609e-39
0.021695387 -0.027894428 0.435 7.1912816e-39
0.023191616 -0.027894428 0.435 7.5600641e-39
0.024687845 -0.027894428 0.435 8.2065223e-39
0.026184073 -0.027894428 0.435 9.9582393e-39
0.027743934 -0.027958553 0.43599999 1.3829332e-38
0.00536924 -0.030145729 0.44600001 1.0697249e-38
0.0069033043 -0.030145729 0.44600001 8.9476831e-39
0.008437369 -0.030145729 0.44600001 6.9193792e-39
0.0098149311 -0.029672589 0.43900001 7.4696733e-39
0.011273324 -0.029537408 0.43700001 7.8384558e-39
0.012747223 -0.029469814 0.43599999 7.5618717e-39
0.014246891 -0.029469814 0.43599999 7.2852849e-39
0.01574656 -0.029469814 0.43599999 6.9161492e-39
0.017206673 -0.029402224 0.435 7.1005405e-39
0.018702902 -0.029402224 0.435 4.3364694e-39
0.020199129 -0.029402224 0.435 5.9959908e-39
0.021695387 -0.029402224 0.435 6.6377574e-39
0.023191616 -0.029402224 0.435 7.5597137e-39
0.024687845 -0.029402224 0.435 8.574216e-39
0.026184073 -0.029402224 0.435 1.0141542e-38
0.027743934 -0.029469814 0.43599999 1.1526972e-38
0.0053572012 -0.031620614 0.44499999 9.3168355e-39
0.0068878261 -0.031620614 0.44499999 9.6841691e-39
0.008437369 -0.031691674 0.44600001 8.0246478e-39
0.0098149311 -0.031194272 0.43900001 7.9295556e-39
0.011273324 -0.031052155 0.43700001 8.5749251e-39
0.01277646 -0.031052155 0.43700001 7.5611585e-39
0.014246891 -0.030981096 0.43599999 7.6533541e-39
0.015710443 -0.030910039 0.435 6.8243193e-39
0.017206673 -0.030910039 0.435 7.0087106e-39
0.018702902 -0.030910039 0.435 5.7197514e-39
0.020199129 -0.030910039 0.435 6.0885339e-39
0.021695387 -0.030910039 0.435 5.9963439e-39
0.023191616 -0.030910039 0.435 5.719757e-39
0.024687845 -0.030910039 0.435 8.390531e-39
0.026184073 -0.030910039 0.435 1.0142248e-38
0.027743934 -0.030981096 0.43599999 1.1157116e-38
0.0053572012 -0.033163071 0.44499999 9.7752927e-39
0.0068878261 -0.033163071 0.44499999 9.77492e-39
0.0084184511 -0.033163071 0.44499999 8.3919855e-39
0.0098149311 -0.032715932 0.43900001 8.2068782e-39
0.01129912 -0.032641407 0.43799999 1.0142986e-38
0.01277646 -0.032566883 0.43700001 7.5643955e-39
0.014246891 -0.032492358 0.43599999 7.1034173e-39
0.015710443 -0.032417834 0.435 7.1001803e-39
0.017206673 -0.032417834 0.435 6.9157891e-39
0.018702902 -0.032417834 0.435 4.7974476e-39
0.020152694 -0.032343309 0.43399999 6.0881864e-39
0.021645512 -0.032343309 0.43399999 6.5480729e-39
0.023138301 -0.032343309 0.43399999 6.6402686e-39
0.02463109 -0.032343309 0.43399999 7.2841834e-39
0.026184073 -0.032417834 0.435 9.4968786e-39
0.027680302 -0.032417834 0.435 1.087946e-38
0.0053451625 -0.034627561 0.44400001 1.0142636e-38
0.006872348 -0.034627561 0.44400001 8.3012318e-39
0.0083427802 -0.034393594 0.44100001 7.3792755e-39
0.0098149311 -0.034237612 0.43900001 7.6537044e-39
0.01129912 -0.034159619 0.43799999 1.0235182e-38
0.01277646 -0.03408163 0.43700001 7.9299354e-39
0.014246891 -0.034003641 0.43599999 7.4689572e-39
0.01574656 -0.034003641 0.43599999 7.9288522e-39
0.017206673 -0.033925653 0.435 7.5600697e-39
0.018702902 -0.033925653 0.435 5.717606e-39
0.020152694 -0.03384766 0.43399999 6.3629754e-39
0.021645512 -0.03384766 0.43399999 6.7317453e-39
0.023138301 -0.03384766 0.43399999 6.9161366e-39
0.02463109 -0.03384766 0.43399999 6.1789373e-39
0.026123879 -0.03384766 0.43399999 8.8526106e-39
0.027616668 -0.03384766 0.43399999 9.8649548e-39
0.0053451625 -0.036166552 0.44400001 1.1619208e-38
0.0068568694 -0.036085095 0.44299999 8.6682165e-39
0.0083427802 -0.035922185 0.44100001 8.0228471e-39
0.0098149311 -0.03575927 0.43900001 8.2065223e-39
0.01129912 -0.035677813 0.43799999 8.022131e-39
0.01277646 -0.03559636 0.43700001 8.0206919e-39
0.014246891 -0.035514902 0.43599999 8.0206919e-39
0.01574656 -0.035514902 0.43599999 7.5615088e-39
0.017206673 -0.035433445 0.435 7.1927263e-39
0.018702902 -0.035433445 0.435 6.2711329e-39
0.020152694 -0.035351988 0.43399999 6.2711329e-39
0.021645512 -0.035351988 0.43399999 6.7321013e-39
0.023138301 -0.035351988 0.43399999 7.1930794e-39
0.02463109 -0.035351988 0.43399999 7.1923704e-39
0.026123879 -0.035351988 0.43399999 8.3909135e-39
0.027616668 -0.035351988 0.43399999 9.1291876e-39
0.0068568694 -0.037620641 0.44299999 8.1125344e-39
0.0083616972 -0.03753572 0.442 8.3891213e-39
0.0098372884 -0.037365872 0.44 8.6660613e-39
0.011324918 -0.037280954 0.43900001 8.6660613e-39
0.01277646 -0.037111107 0.43700001 8.022131e-39
0.014246891 -0.037026182 0.43599999 8.022131e-39
0.01574656 -0.037026182 0.43599999 7.9288522e-39
0.017206673 -0.03694126 0.435 7.467874e-39
0.018659905 -0.036856338 0.43399999 5.994546e-39
0.020152694 -0.036856338 0.43399999 6.8243067e-39
0.021645512 -0.036856338 0.43399999 6.9161394e-39
0.023138301 -0.036856338 0.43399999 7.7459001e-39
0.02463109 -0.036856338 0.43399999 7.7459001e-39
0.026184073 -0.03694126 0.435 8.2068782e-39
0.027680302 -0.03694126 0.435 8.3919827e-39
0.029377747 -0.037196029 0.43799999 1.5859829e-38
0.0068568694 -0.039156165 0.44299999 7.0105197e-39
0.0083616972 -0.039067779 0.442 7.1027153e-39
0.0098820031 -0.039067779 0.442 7.746263e-39
0.011324918 -0.038802613 0.43900001 7.6540674e-39
0.01277646 -0.038625836 0.43700001 7.6540674e-39
0.014279569 -0.038625836 0.43700001 7.6540674e-39
0.01574656 -0.038537443 0.43599999 7.6540576e-39
0.017206673 -0.038449056 0.435 7.1930794e-39
0.018659905 -0.038360666 0.43399999 5.8137547e-39
0.020152694 -0.038360666 0.43399999 6.3669285e-39
0.021645512 -0.038360666 0.43399999 6.917203e-39
0.023138301 -0.038360666 0.43399999 7.5625724e-39
0.02463109 -0.038360666 0.43399999 7.8384488e-39
0.026184073 -0.038449056 0.435 7.9306445e-39
0.027680302 -0.038449056 0.435 7.4700138e-39
0.029310677 -0.038625836 0.43700001 1.6689577e-38
0.0038523737 -0.041150987 0.44800001 1.0973476e-38
0.0053933174 -0.041150987 0.44800001 8.3919982e-39
0.0068568694 -0.040691711 0.44299999 7.9292319e-39
0.0083616972 -0.040599857 0.442 7.4682538e-39
0.0098820031 -0.040599857 0.442 7.7451938e-39
0.011350715 -0.040416148 0.44 7.5608026e-39
0.012805697 -0.040232439 0.43799999 7.7455497e-39
0.014279569 -0.040140584 0.43700001 7.7455497e-39
0.015782677 -0.040140584 0.43700001 7.9288522e-39
0.017246228 -0.040048726 0.43599999 7.9288522e-39
0.018702902 -0.039956871 0.435 7.1923704e-39
0.020152694 -0.039865017 0.43399999 6.9157835e-39
0.021645512 -0.039865017 0.43399999 7.1934395e-39
0.023138301 -0.039865017 0.43399999 7.4700264e-39
0.02463109 -0.039865017 0.43399999 7.9309948e-39
0.026184073 -0.039956871 0.435 7.7466035e-39
0.027680302 -0.039956871 0.435 7.7469538e-39
0.029310677 -0.040140584 0.43700001 1.4938213e-38
0.0038523737 -0.042703863 0.44800001 1.1709956e-38
0.0053572012 -0.042417899 0.44499999 8.022131e-39
0.0068568694 -0.042227257 0.44299999 7.5611585e-39
0.0083616972 -0.042131938 0.442 7.3767672e-39
0.0098596457 -0.042036619 0.44100001 8.1125344e-39
0.011350715 -0.041941296 0.44 7.5593606e-39
0.012834934 -0.041845974 0.43900001 7.5615186e-39
0.014279569 -0.041655332 0.43700001 7.3771274e-39
0.015782677 -0.041655332 0.43700001 7.1934395e-39
0.017246228 -0.041560009 0.43599999 7.2856352e-39
0.018702902 -0.04146469 0.435 7.1927263e-39
0.020152694 -0.041369367 0.43399999 6.7317481e-39
0.021645512 -0.041369367 0.43399999 6.7321013e-39
0.023138301 -0.041369367 0.43399999 7.285275e-39
0.02463109 -0.041369367 0.43399999 7.285275e-39
0.026184073 -0.04146469 0.435 7.285275e-39
0.027743934 -0.041560009 0.43599999 7.5607703e-39
0.029377747 -0.041750651 0.43799999 1.3830073e-38
0.031166343 -0.042131938 0.442 2.2864501e-38
0.032834582 -0.04232258 0.44400001 2.1942544e-38
0.0038523737 -0.044256717 0.44800001 1.1066022e-38
0.0053572012 -0.043960359 0.44499999 7.009414e-39
0.006872348 -0.043861572 0.44400001 7.3771274e-39
0.0083616972 -0.043663997 0.442 7.469323e-39
0.0098596457 -0.04356521 0.44100001 7.6533541e-39
0.011350715 -0.043466419 0.44 7.4689629e-39
0.012864171 -0.043466419 0.44 8.0206919e-39
0.014344921 -0.043367635 0.43900001 8.2972788e-39
0.015818791 -0.043268844 0.43799999 7.008335e-39
0.017285785 -0.043170061 0.43700001 7.7459001e-39
0.018702902 -0.042972483 0.435 7.5618689e-39
0.020152694 -0.042873695 0.43399999 6.547717e-39
0.021645512 -0.042873695 0.43399999 7.0086882e-39
0.023138301 -0.042873695 0.43399999 7.1008838e-39
0.02463109 -0.042873695 0.43399999 7.3771175e-39
0.026184073 -0.042972483 0.435 7.5615088e-39
0.027743934 -0.04307127 0.43599999 7.7451644e-39
0.029578967 -0.04356521 0.44100001 1.1709576e-38
0.031166343 -0.043663997 0.442 2.2864504e-38
0.032834582 -0.043861572 0.44400001 2.2034743e-38
0.0038265765 -0.045502834 0.44499999 9.130645e-39
0.0053572012 -0.045502834 0.44499999 6.8257542e-39
0.006872348 -0.045400582 0.44400001 7.2852821e-39
0.0083616972 -0.045196075 0.442 7.5618689e-39
0.0098596457 -0.045093823 0.44100001 7.1008936e-39
0.011350715 -0.044991568 0.44 7.3774805e-39
0.012864171 -0.044991568 0.44 7.4693132e-39
0.014344921 -0.044889316 0.43900001 8.1146826e-39
0.015782677 -0.044684809 0.43700001 7.8384586e-39
0.017246228 -0.044582553 0.43599999 8.1150455e-39
0.018702902 -0.044480301 0.435 7.008698e-39
0.020152694 -0.044378046 0.43399999 5.5335679e-39
0.021645512 -0.044378046 0.43399999 6.5484331e-39
0.023138301 -0.044378046 0.43399999 6.7328243e-39
0.02463109 -0.044378046 0.43399999 7.8384586e-39
0.026184073 -0.044480301 0.435 7.8384586e-39
0.027743934 -0.044582553 0.43599999 7.3778182e-39
0.029511893 -0.044991568 0.44 1.1157839e-38
0.031166343 -0.045196075 0.442 2.2864504e-38
0.0038265765 -0.047045294 0.44499999 1.0512858e-38
0.0053572012 -0.047045294 0.44499999 7.6547932e-39
0.006872348 -0.046939574 0.44400001 7.6540646e-39
0.0083616972 -0.046728134 0.442 8.3916296e-39
0.0098596457 -0.046622414 0.44100001 8.1168434e-39
0.011350715 -0.046516694 0.44 7.6558652e-39
0.012864171 -0.046516694 0.44 7.6537044e-39
0.014344921 -0.046410974 0.43900001 7.9302913e-39
0.015782677 -0.046199534 0.43700001 8.0221436e-39
0.017206673 -0.045988094 0.435 8.2065349e-39
0.018702902 -0.045988094 0.435 7.8363006e-39
0.020152694 -0.045882374 0.43399999 7.2831269e-39
0.021645512 -0.045882374 0.43399999 6.8242969e-39
0.023138301 -0.045882374 0.43399999 7.285275e-39
0.02463109 -0.045882374 0.43399999 8.0228499e-39
0.026184073 -0.045988094 0.435 8.0228499e-39
0.027743934 -0.046093814 0.43599999 7.1015942e-39
0.029511893 -0.046516694 0.44 1.1342593e-38
0.031166343 -0.046728134 0.442 2.2587917e-38
0.032908533 -0.047045294 0.44499999 2.2034743e-38
0.0038265765 -0.048587773 0.44499999 9.2235539e-39
0.0053572012 -0.048587773 0.44499999 7.2874457e-39
0.006872348 -0.048478588 0.44400001 8.022131e-39
0.0083616972 -0.048260216 0.442 8.3909135e-39
0.0098596457 -0.048151031 0.44100001 8.2990837e-39
0.011350715 -0.048041843 0.44 8.1146924e-39
0.012864171 -0.048041843 0.44 8.0224968e-39
0.014344921 -0.047932658 0.43900001 7.5615186e-39
0.015782677 -0.047714286 0.43700001 7.4693258e-39
0.017206673 -0.047495913 0.435 7.9303039e-39
0.018702902 -0.047495913 0.435 7.192376e-39
0.020152694 -0.047386725 0.43399999 6.9157891e-39
0.021645512 -0.047386725 0.43399999 7.0086882e-39
0.023138301 -0.047386725 0.43399999 7.285275e-39
0.02463109 -0.047386725 0.43399999 7.9302913e-39
0.026184073 -0.047495913 0.435 7.6537044e-39
0.027680302 -0.047495913 0.435 6.7331803e-39
0.029511893 -0.048041843 0.44 1.032881e-38
0.031307369 -0.048478588 0.44400001 2.2587917e-38
0.032908533 -0.048587773 0.44499999 2.1942547e-38
0.0038351754 -0.050242882 0.44600001 9.0384438e-39
0.0053572012 -0.050130229 0.44499999 8.2086831e-39
0.006872348 -0.050017577 0.44400001 8.5756705e-39
0.0083616972 -0.049792271 0.442 8.6678662e-39
0.0098596457 -0.049679622 0.44100001 8.5756733e-39
0.011350715 -0.049566966 0.44 7.9303039e-39
0.012834934 -0.049454316 0.43900001 8.5749545e-39
0.014312244 -0.04934166 0.43799999 8.6671501e-39
0.01574656 -0.049116358 0.43599999 8.9440873e-39
0.017206673 -0.049003705 0.435 8.9440873e-39
0.018702902 -0.049003705 0.435 7.1930892e-39
0.020152694 -0.048891053 0.43399999 5.994546e-39
0.021645512 -0.048891053 0.43399999 6.5484331e-39
0.023138301 -0.048891053 0.43399999 7.3781937e-39
0.02463109 -0.048891053 0.43399999 8.2050832e-39
0.026123879 -0.048891053 0.43399999 7.8363006e-39
0.027680302 -0.049003705 0.435 7.5607703e-39
0.029511893 -0.049566966 0.44 1.1432987e-38
0.031307369 -0.050017577 0.44400001 2.2403525e-38
0.032908533 -0.050130229 0.44499999 2.1758156e-38
0.0038351754 -0.051788829 0.44600001 8.5771153e-39
0.0053572012 -0.051672708 0.44499999 8.1161371e-39
0.006872348 -0.051556591 0.44400001 8.1161371e-39
0.0083616972 -0.051324353 0.442 8.5771153e-39
0.0098596457 -0.051208235 0.44100001 8.7600646e-39
0.011324918 -0.050975997 0.43900001 8.7600646e-39
0.012805697 -0.050859876 0.43799999 8.6696668e-39
0.014279569 -0.050743759 0.43700001 8.6696668e-39
0.01574656 -0.050627638 0.43599999 8.7604177e-39
0.017206673 -0.050511524 0.435 8.8526134e-39
0.018702902 -0.050511524 0.435 7.3774805e-39
0.020152694 -0.050395403 0.43399999 6.2711329e-39
0.021645512 -0.050395403 0.43399999 6.547717e-39
0.023138301 -0.050395403 0.43399999 7.1008908e-39
0.02463109 -0.050395403 0.43399999 9.2213959e-39
0.026123879 -0.050395403 0.43399999 7.5618745e-39
0.027680302 -0.050511524 0.435 6.5491421e-39
0.029511893 -0.051092114 0.44 1.0421359e-38
0.031307369 -0.051556591 0.44400001 2.1942544e-38
0.032908533 -0.051672708 0.44499999 2.1665958e-38
0.0038351754 -0.05333475 0.44600001 9.3153964e-39
0.0053572012 -0.053215165 0.44499999 8.0246576e-39
0.006872348 -0.053095579 0.44400001 9.3128755e-39
0.0083616972 -0.052856412 0.442 9.3128755e-39
0.0098372884 -0.052617241 0.44 9.0362886e-39
0.011324918 -0.052497659 0.43900001 8.7597017e-39
0.01277646 -0.052258488 0.43700001 9.0366515e-39
0.014246891 -0.052138899 0.43599999 8.8522602e-39
0.01574656 -0.052138899 0.43599999 8.6682193e-39
0.017206673 -0.052019317 0.435 8.3916324e-39
0.018702902 -0.052019317 0.435 6.6402784e-39
0.020152694 -0.051899731 0.43399999 5.3495396e-39
0.021645512 -0.051899731 0.43399999 7.0068959e-39
0.023138301 -0.051899731 0.43399999 7.9288522e-39
0.02463109 -0.051899731 0.43399999 1.0512129e-38
0.026123879 -0.051899731 0.43399999 8.299434e-39
