# .PCD v0.7 - Point Cloud Data file format
VERSION 0.7
FIELDS x y z rgb
SIZE 4 4 4 4
TYPE F F F F
COUNT 1 1 1 1
WIDTH 986
HEIGHT 1
VIEWPOINT 0 0 0 1 0 0 0
POINTS 986
DATA ascii
-0.0083049582 0.014455886 0.43900001 1.999456e-38
-0.0067949709 0.014455886 0.43900001 1.9256995e-38
-0.0052729305 0.014422956 0.43799999 1.9344519e-38
-0.003766383 0.014422956 0.43799999 1.7961584e-38
-0.0022649951 0.014455886 0.43900001 1.7312978e-38
-0.00071717153 0.013731444 0.417 2.1646173e-38
0.00071370468 0.013665586 0.41499999 1.8245975e-38
0.0021411683 0.013665586 0.41499999 1.9905497e-38
0.0035858031 0.013731444 0.417 1.8705584e-38
0.0051164282 0.013994877 0.42500001 2.0088519e-38
0.0063151303 0.013435082 0.40799999 2.0918597e-38
0.0077184895 0.013435082 0.40799999 1.7230772e-38
0.0094795683 0.013961948 0.42399999 1.750671e-38
0.010808976 0.013797302 0.419 1.8613058e-38
0.012220962 0.013764373 0.41800001 2.0920039e-38
0.013658717 0.013764373 0.41800001 2.0459061e-38
0.015096473 0.013764373 0.41800001 1.7509142e-38
0.016376005 0.013632657 0.414 1.7693533e-38
0.017800003 0.013632657 0.414 1.8057997e-38
0.019223999 0.013632657 0.414 1.7504823e-38
0.020598149 0.013599727 0.41299999 1.7969378e-38
0.022018706 0.013599727 0.41299999 2.2394769e-38
0.023325758 0.013533871 0.41100001 1.8430722e-38
0.026216745 0.013566799 0.412 1.6583618e-38
0.027633864 0.013566799 0.412 1.5753857e-38
0.029050982 0.013566799 0.412 1.7321585e-38
0.030468127 0.013566799 0.412 1.805915e-38
0.031962637 0.013599727 0.41299999 1.5935802e-38
0.033868179 0.013797302 0.419 1.5843606e-38
0.035393644 0.013830231 0.41999999 1.7687153e-38
0.03675057 0.013797302 0.419 1.7871544e-38
0.038100615 0.013764373 0.41800001 1.7870468e-38
0.039538369 0.013764373 0.41800001 1.7962663e-38
0.040780094 0.013698515 0.41600001 1.7503127e-38
0.042109501 0.013665586 0.41499999 1.7595323e-38
0.043432031 0.013632657 0.414 1.7410941e-38
0.044856027 0.013632657 0.414 1.7687528e-38
0.046056449 0.013566799 0.412 1.7319465e-38
0.047358342 0.013533871 0.41100001 1.7319465e-38
0.048534714 0.013468012 0.40900001 1.7411658e-38
0.049819402 0.013435082 0.40799999 1.7319462e-38
0.050971668 0.013369223 0.40599999 1.7135789e-38
0.052368149 0.013369223 0.40599999 1.6951398e-38
0.053632207 0.013336295 0.405 1.5014552e-38
0.05502525 0.013336295 0.405 5.3340104e-39
0.056418288 0.013336295 0.405 1.1051189e-38
0.057811357 0.013336295 0.405 1.4554623e-38
0.059204396 0.013336295 0.405 1.2534922e-38
0.060447816 0.013303366 0.40400001 1.08754e-38
0.061837416 0.013303366 0.40400001 1.0688845e-38
0.063227013 0.013303366 0.40400001 1.142641e-38
0.064616621 0.013303366 0.40400001 1.2447104e-38
0.066006243 0.013303366 0.40400001 1.7056885e-38
0.067395844 0.013303366 0.40400001 1.6963618e-38
-0.032083031 0.013405632 0.45500001 1.5669256e-38
-0.030450922 0.013376169 0.454 1.6221289e-38
-0.028889341 0.013376169 0.454 1.5391529e-38
-0.027267568 0.013346707 0.45300001 1.2626305e-38
-0.025652656 0.013317242 0.45199999 1.6590714e-38
-0.02404464 0.01328778 0.45100001 1.769939e-38
-0.022443503 0.013258317 0.44999999 1.7883782e-38
-0.02089568 0.013258317 0.44999999 1.9541846e-38
-0.019347843 0.013258317 0.44999999 2.0463802e-38
-0.016035503 0.01308154 0.44400001 1.9358546e-38
-0.014508303 0.01308154 0.44400001 1.9818085e-38
-0.012922644 0.013022615 0.442 1.9910281e-38
-0.011402338 0.013022615 0.442 2.0184707e-38
-0.0083049582 0.012934226 0.43900001 1.9905962e-38
-0.0067949709 0.012934226 0.43900001 2.0274744e-38
-0.0052729305 0.012904762 0.43799999 2.0183984e-38
-0.003766383 0.012904762 0.43799999 1.9077636e-38
-0.00071717153 0.012286041 0.417 2.0544141e-38
0.00071542454 0.012256578 0.41600001 1.8153094e-38
0.0021463279 0.012256578 0.41600001 1.8521877e-38
0.0035858031 0.012286041 0.417 1.7966619e-38
0.0051164282 0.012521745 0.42500001 1.8243206e-38
0.0065627825 0.01249228 0.42399999 1.7968025e-38
0.0080211759 0.01249228 0.42399999 1.6031917e-38
0.009457211 0.012462818 0.42300001 1.713649e-38
0.010808976 0.012344967 0.419 1.7505273e-38
0.012220962 0.012315503 0.41800001 1.7508801e-38
0.013658717 0.012315503 0.41800001 1.8246366e-38
0.014915893 0.01216819 0.41299999 1.6124412e-38
0.01633645 0.01216819 0.41299999 1.575563e-38
0.017757008 0.01216819 0.41299999 1.6767671e-38
0.019177565 0.01216819 0.41299999 1.7505236e-38
0.020598149 0.01216819 0.41299999 1.649356e-38
0.022018706 0.01216819 0.41299999 1.7876495e-38
0.024739435 0.012109264 0.41100001 1.6307705e-38
0.026153114 0.012109264 0.41100001 1.6213795e-38
0.027566792 0.012109264 0.41100001 1.6305991e-38
0.029050982 0.012138726 0.412 1.5752477e-38
0.030468127 0.012138726 0.412 1.5936868e-38
0.031962637 0.01216819 0.41299999 1.6397511e-38
0.033868179 0.012344967 0.419 1.5752142e-38
0.035309374 0.012344967 0.419 1.6396061e-38
0.036838278 0.012374429 0.41999999 1.6396061e-38
0.038191762 0.012344967 0.419 1.6672275e-38
0.039538369 0.012315503 0.41800001 1.6856666e-38
0.040780094 0.012256578 0.41600001 1.6488966e-38
0.042109501 0.012227115 0.41499999 1.7134335e-38
0.043432031 0.012197653 0.414 1.7134708e-38
0.044856027 0.012197653 0.414 1.7319099e-38
0.046056449 0.012138726 0.412 1.6858484e-38
0.047358342 0.012109264 0.41100001 1.7135071e-38
0.048772044 0.012109264 0.41100001 1.7228698e-38
0.049941514 0.012050338 0.40900001 1.7044307e-38
0.050971668 0.011961948 0.40599999 1.6951751e-38
0.052368149 0.011961948 0.40599999 1.6859556e-38
0.053764626 0.011961948 0.40599999 1.4833037e-38
0.055161107 0.011961948 0.40599999 8.4715387e-39
0.056557588 0.011961948 0.40599999 1.1057695e-38
0.060597438 0.011932486 0.405 1.4749807e-38
0.061990477 0.011932486 0.405 1.530444e-38
0.06338352 0.011932486 0.405 1.7240548e-38
-0.027327759 0.011802494 0.454 1.6867413e-38
-0.025652656 0.011750501 0.45199999 1.8250347e-38
-0.024097955 0.011750501 0.45199999 2.0280518e-38
-0.022493379 0.011724504 0.45100001 2.0557105e-38
-0.020942116 0.011724504 0.45100001 1.9822051e-38
-0.00071717153 0.010840617 0.417 1.9353857e-38
0.00071714428 0.010840617 0.417 1.7875477e-38
0.0021514874 0.010840617 0.417 1.8428651e-38
0.0035858031 0.010840617 0.417 1.7966276e-38
0.0051164282 0.011048591 0.42500001 1.7320907e-38
0.006578261 0.011048591 0.42500001 1.7320881e-38
0.0080211759 0.011022594 0.42399999 1.5845751e-38
0.009457211 0.010996597 0.42300001 1.6678036e-38
0.010808976 0.01089261 0.419 1.6954623e-38
0.012250199 0.01089261 0.419 1.7415186e-38
0.013691394 0.01089261 0.419 1.732299e-38
0.014915893 0.01073663 0.41299999 1.5938261e-38
0.01633645 0.01073663 0.41299999 1.6399239e-38
0.017757008 0.01073663 0.41299999 1.6306357e-38
0.019177565 0.01073663 0.41299999 1.8058074e-38
0.020598149 0.01073663 0.41299999 1.6032267e-38
0.021965394 0.010710634 0.412 1.5018115e-38
0.023325758 0.010684637 0.41100001 1.5290746e-38
0.024739435 0.010684637 0.41100001 1.6028311e-38
0.026153114 0.010684637 0.41100001 1.6398202e-38
0.027566792 0.010684637 0.41100001 1.6490398e-38
0.029050982 0.010710634 0.412 1.6029782e-38
0.030468127 0.010710634 0.412 1.5661e-38
0.031962637 0.01073663 0.41299999 1.649077e-38
0.033787347 0.010866614 0.41800001 1.5568814e-38
0.035309374 0.01089261 0.419 1.4459602e-38
0.036838278 0.010918606 0.41999999 1.8792797e-38
0.038191762 0.01089261 0.419 1.7883416e-38
0.039632957 0.01089261 0.419 1.631609e-38
0.040780094 0.01081462 0.41600001 1.6956415e-38
0.04221097 0.01081462 0.41600001 1.6587632e-38
0.043641847 0.01081462 0.41600001 1.6770945e-38
0.044856027 0.010762627 0.414 1.6586553e-38
0.046280023 0.010762627 0.414 1.677131e-38
0.047473568 0.010710634 0.412 1.7232288e-38
0.048772044 0.010684637 0.41100001 1.7047532e-38
0.050063614 0.01065864 0.41 1.6586553e-38
0.05134831 0.010632644 0.40900001 1.6491121e-38
0.052368149 0.010554654 0.40599999 1.6767708e-38
0.053764626 0.010554654 0.40599999 1.5110688e-38
0.055161107 0.010554654 0.40599999 1.5295079e-38
0.056557588 0.010554654 0.40599999 1.6776355e-38
0.0051164282 0.0095754368 0.42500001 1.7230153e-38
0.006578261 0.0095754368 0.42500001 1.676736e-38
0.0080022579 0.0095303757 0.42300001 1.6398578e-38
0.0093901381 0.009462784 0.41999999 1.7322326e-38
0.010808976 0.0094402535 0.419 1.7137935e-38
0.012220962 0.0094177239 0.41800001 1.6860244e-38
0.013560688 0.0093501322 0.41499999 1.5938287e-38
0.014952009 0.0093276026 0.414 1.6028698e-38
0.01633645 0.0093050711 0.41299999 1.639748e-38
0.017757008 0.0093050711 0.41299999 1.6306006e-38
0.019177565 0.0093050711 0.41299999 1.6121615e-38
0.020548275 0.0092825415 0.412 1.5936858e-38
0.021965394 0.0092825415 0.412 1.5844663e-38
0.023325758 0.0092600109 0.41100001 1.5568085e-38
0.024739435 0.0092600109 0.41100001 1.5660281e-38
0.026153114 0.0092600109 0.41100001 1.6306013e-38
0.027566792 0.0092600109 0.41100001 1.6398209e-38
0.029050982 0.0092825415 0.412 1.5476974e-38
0.030468127 0.0092825415 0.412 1.4923801e-38
0.031962637 0.0093050711 0.41299999 1.5292943e-38
0.033787347 0.0094177239 0.41800001 1.4739769e-38
0.035309374 0.0094402535 0.419 1.3817113e-38
0.036838278 0.009462784 0.41999999 1.9902024e-38
0.038282912 0.009462784 0.41999999 1.7978841e-38
0.039632957 0.0094402535 0.419 1.8071037e-38
0.040976152 0.0094177239 0.41800001 1.8163233e-38
0.042413909 0.0094177239 0.41800001 1.7702255e-38
0.043851662 0.0094177239 0.41800001 1.7885927e-38
0.044964373 0.0093501322 0.41499999 1.7978123e-38
0.046391811 0.0093501322 0.41499999 1.7793381e-38
0.0051164282 0.0081023043 0.42500001 1.7323418e-38
0.0065627825 0.0080832392 0.42399999 1.7320544e-38
0.00798334 0.0080451109 0.42199999 1.7689326e-38
0.0093677808 0.0079879183 0.419 1.750637e-38
0.01078318 0.0079688542 0.41800001 1.7137587e-38
0.012220962 0.0079688542 0.41800001 1.7043584e-38
0.013560688 0.0079116616 0.41499999 1.6213823e-38
0.014952009 0.0078925975 0.414 1.6581884e-38
0.016376005 0.0078925975 0.414 1.6489689e-38
0.017757008 0.0078735333 0.41299999 1.6213821e-38
0.019177565 0.0078735333 0.41299999 1.5845038e-38
0.020548275 0.0078544691 0.412 1.5845035e-38
0.021965394 0.0078544691 0.412 1.575284e-38
0.023325758 0.0078354049 0.41100001 1.5107836e-38
0.024739435 0.0078354049 0.41100001 1.5292227e-38
0.026153114 0.0078354049 0.41100001 1.6121625e-38
0.027566792 0.0078354049 0.41100001 1.6398212e-38
0.029050982 0.0078544691 0.412 1.54777e-38
0.030468127 0.0078544691 0.412 1.4279157e-38
0.031962637 0.0078735333 0.41299999 1.4369911e-38
0.033787347 0.0079688542 0.41800001 1.3908933e-38
0.035309374 0.0079879183 0.419 1.391254e-38
0.036838278 0.0080069825 0.41999999 1.9259886e-38
0.038282912 0.0080069825 0.41999999 1.7795166e-38
0.039727546 0.0080069825 0.41999999 1.7702971e-38
0.0051164282 0.0066291504 0.42500001 1.732486e-38
0.0065473043 0.0065979543 0.42300001 1.7597494e-38
0.0079265861 0.0065355618 0.419 1.7597494e-38
0.0093454234 0.006519964 0.41800001 1.74149e-38
0.01078318 0.006519964 0.41800001 1.6585139e-38
0.012191725 0.0065043662 0.417 1.7412379e-38
0.013560688 0.0064731701 0.41499999 1.759677e-38
0.014988124 0.0064731701 0.41499999 1.6768805e-38
0.016376005 0.0064575723 0.414 1.6123435e-38
0.017757008 0.0064419741 0.41299999 1.6397859e-38
0.019177565 0.0064419741 0.41299999 1.6029076e-38
0.020548275 0.0064263763 0.412 1.5844325e-38
0.021965394 0.0064263763 0.412 1.5752129e-38
0.023382511 0.0064263763 0.412 1.575141e-38
0.024739435 0.0064107785 0.41100001 1.5935802e-38
0.026153114 0.0064107785 0.41100001 1.593796e-38
0.027566792 0.0064107785 0.41100001 1.6030155e-38
0.029050982 0.0064263763 0.412 1.5755356e-38
0.030468127 0.0064263763 0.412 1.5017791e-38
0.031962637 0.0064419741 0.41299999 1.4644697e-38
0.033868179 0.0065355618 0.419 1.4183719e-38
0.035309374 0.0065355618 0.419 1.6034124e-38
0.036838278 0.0065511595 0.41999999 1.9629753e-38
0.038282912 0.0065511595 0.41999999 1.8070318e-38
0.0036373974 0.0051317536 0.42300001 1.8429775e-38
0.0050923508 0.0051317536 0.42300001 1.7876601e-38
0.0065318258 0.0051196218 0.42199999 1.7230519e-38
0.0079265861 0.0050832261 0.419 1.6953932e-38
0.0093454234 0.0050710947 0.41800001 1.6953919e-38
0.010757382 0.0050589629 0.417 1.6492941e-38
0.012191725 0.0050589629 0.417 1.7138313e-38
0.013560688 0.0050346991 0.41499999 1.6769531e-38
0.014988124 0.0050346991 0.41499999 1.6677335e-38
0.016376005 0.0050225677 0.414 1.6031966e-38
0.017757008 0.0050104358 0.41299999 1.6214199e-38
0.019177565 0.0050104358 0.41299999 1.6767373e-38
0.020548275 0.0049983039 0.412 1.6491852e-38
0.021965394 0.0049983039 0.412 1.612307e-38
0.023325758 0.0049861725 0.41100001 1.6305663e-38
0.024739435 0.0049861725 0.41100001 1.6029076e-38
0.026153114 0.0049861725 0.41100001 1.6214196e-38
0.027566792 0.0049861725 0.41100001 1.6306392e-38
0.029050982 0.0049983039 0.412 1.5755e-38
0.030468127 0.0049983039 0.412 1.5201827e-38
0.031962637 0.0050104358 0.41299999 1.4923798e-38
0.03394901 0.005095358 0.41999999 1.4186233e-38
0.035393644 0.005095358 0.41999999 1.6862803e-38
0.036838278 0.005095358 0.41999999 1.9536476e-38
0.038374063 0.0051074899 0.421 1.7794457e-38
0.0021876034 0.0036741977 0.42399999 1.9908142e-38
0.0036373974 0.0036655325 0.42300001 1.8062074e-38
0.0050923508 0.0036655325 0.42300001 1.7877683e-38
0.0065163481 0.0036482012 0.421 1.741491e-38
0.0079265861 0.00363087 0.419 1.7046127e-38
0.0093454234 0.0036222045 0.41800001 1.7506017e-38
0.010757382 0.003613539 0.417 1.7045039e-38
0.012162489 0.0036048733 0.41600001 1.7045039e-38
0.013560688 0.0035962081 0.41499999 1.6768452e-38
0.014988124 0.0035962081 0.41499999 1.6307476e-38
0.016376005 0.0035875426 0.414 1.6030889e-38
0.017757008 0.0035788768 0.41299999 1.6859212e-38
0.019177565 0.0035788768 0.41299999 1.7412386e-38
0.020548275 0.0035702114 0.412 1.7597837e-38
0.021965394 0.0035702114 0.412 1.7044663e-38
0.023325758 0.0035615459 0.41100001 1.6490773e-38
0.024739435 0.0035615459 0.41100001 1.6398578e-38
0.026153114 0.0035615459 0.41100001 1.649042e-38
0.027566792 0.0035615459 0.41100001 1.649042e-38
0.029050982 0.0035702114 0.412 1.5939397e-38
0.030468127 0.0035702114 0.412 1.5386224e-38
0.031962637 0.0035788768 0.41299999 1.5476972e-38
0.03394901 0.0036395355 0.41999999 1.4555015e-38
0.035393644 0.0036395355 0.41999999 1.667768e-38
0.03692599 0.0036482012 0.421 1.9812331e-38
0.038374063 0.0036482012 0.421 1.7610422e-38
0.0021876034 0.0022045104 0.42399999 2.0000338e-38
0.0036373974 0.002199311 0.42300001 1.8245387e-38
0.005080312 0.0021941117 0.42199999 1.8060995e-38
0.0065008695 0.002183713 0.41999999 1.7875878e-38
0.0079265861 0.0021785137 0.419 1.7322704e-38
0.0093454234 0.0021733146 0.41800001 1.7876238e-38
0.010757382 0.0021681152 0.417 1.7230869e-38
0.012162489 0.0021629159 0.41600001 1.7320546e-38
0.013560688 0.0021577165 0.41499999 1.7412742e-38
0.014952009 0.0021525174 0.414 1.6858852e-38
0.016376005 0.0021525174 0.414 1.7043244e-38
0.017757008 0.0021473179 0.41299999 1.759821e-38
0.019177565 0.0021473179 0.41299999 1.7506014e-38
0.020548275 0.0021421188 0.412 1.695284e-38
0.021965394 0.0021421188 0.412 1.6676253e-38
0.023325758 0.0021369194 0.41100001 1.6676243e-38
0.024739435 0.0021369194 0.41100001 1.6676243e-38
0.026153114 0.0021369194 0.41100001 1.6124156e-38
0.027566792 0.0021369194 0.41100001 1.6124156e-38
0.029050982 0.0021421188 0.412 1.5939397e-38
0.030468127 0.0021421188 0.412 1.5294028e-38
0.031962637 0.0021473179 0.41299999 1.5663528e-38
0.033383194 0.0021473179 0.41299999 1.4280593e-38
0.035477918 0.0021889124 0.421 1.6123423e-38
0.03692599 0.0021889124 0.421 1.9811248e-38
0.038465213 0.0021941117 0.42199999 1.7885208e-38
0.0021876034 0.00073484372 0.42399999 1.9815596e-38
0.0036287983 0.00073137751 0.42199999 1.8061349e-38
0.0050682737 0.00072964438 0.421 1.8430131e-38
0.0065008695 0.00072791125 0.41999999 1.8153904e-38
0.0079076681 0.00072444504 0.41800001 1.7324144e-38
0.0093230661 0.00072271196 0.417 1.8058828e-38
0.010731585 0.00072097877 0.41600001 1.7690045e-38
0.012162489 0.00072097877 0.41600001 1.787372e-38
0.013560688 0.0007192457 0.41499999 1.7597133e-38
0.014952009 0.00071751256 0.414 1.7413821e-38
0.016376005 0.00071751256 0.414 1.7690408e-38
0.017757008 0.00071577943 0.41299999 1.7874434e-38
0.01913113 0.00071404636 0.412 1.7505651e-38
0.020548275 0.00071404636 0.412 1.7136155e-38
0.021912079 0.00071231322 0.41100001 1.704396e-38
0.023325758 0.00071231322 0.41100001 1.6768089e-38
0.024739435 0.00071231322 0.41100001 1.6399306e-38
0.026153114 0.00071231322 0.41100001 1.6399306e-38
0.027633864 0.00071404636 0.412 1.6491502e-38
0.029050982 0.00071404636 0.412 1.6215984e-38
0.030468127 0.00071404636 0.412 1.6031593e-38
0.031962637 0.00071577943 0.41299999 1.603231e-38
0.033544853 0.0007192457 0.41499999 1.5479137e-38
0.034972291 0.0007192457 0.41499999 1.5294012e-38
0.037013698 0.00073137751 0.42199999 1.935062e-38
0.038465213 0.00073137751 0.42199999 1.7701539e-38
0.0021824441 -0.00073311065 0.42300001 1.9539009e-38
0.0036287983 -0.00073137751 0.42199999 1.916734e-38
0.0050682737 -0.00072964438 0.421 1.9904905e-38
0.0064853914 -0.00072617811 0.419 1.9259526e-38
0.0078887502 -0.00072271196 0.417 1.9075135e-38
0.0093007088 -0.00072097877 0.41600001 1.8796753e-38
0.010731585 -0.00072097877 0.41600001 1.8704557e-38
0.012133251 -0.0007192457 0.41499999 1.8243579e-38
0.013528012 -0.00071751256 0.414 1.8243579e-38
0.014952009 -0.00071751256 0.414 1.7691131e-38
0.01633645 -0.00071577943 0.41299999 1.750674e-38
0.017757008 -0.00071577943 0.41299999 1.7690045e-38
0.01913113 -0.00071404636 0.412 1.7690045e-38
0.020498401 -0.00071231322 0.41100001 1.7045039e-38
0.021912079 -0.00071231322 0.41100001 1.6860647e-38
0.023325758 -0.00071231322 0.41100001 1.6674814e-38
0.024739435 -0.00071231322 0.41100001 1.6951401e-38
0.026153114 -0.00071231322 0.41100001 1.6584058e-38
0.027633864 -0.00071404636 0.412 1.6399666e-38
0.029050982 -0.00071404636 0.412 1.6124509e-38
0.030542077 -0.00071577943 0.41299999 1.6124509e-38
0.031962637 -0.00071577943 0.41299999 1.6216704e-38
0.033544853 -0.0007192457 0.41499999 1.6216704e-38
0.035056561 -0.00072097877 0.41600001 1.4922706e-38
0.0021772843 -0.0021941117 0.42199999 1.9908142e-38
0.0036287983 -0.0021941117 0.42199999 2.0182208e-38
0.0050682737 -0.0021889124 0.421 2.0182208e-38
0.0064853914 -0.0021785137 0.419 1.9628669e-38
0.0078887502 -0.0021681152 0.417 1.9352082e-38
0.0092783514 -0.0021577165 0.41499999 1.889039e-38
0.010705788 -0.0021577165 0.41499999 1.8521608e-38
0.012133251 -0.0021577165 0.41499999 1.8521255e-38
0.013528012 -0.0021525174 0.414 1.8060277e-38
0.014915893 -0.0021473179 0.41299999 1.8057756e-38
0.016296895 -0.0021421188 0.412 1.7873364e-38
0.017714012 -0.0021421188 0.412 1.7873364e-38
0.01913113 -0.0021421188 0.412 1.7596777e-38
0.020498401 -0.0021369194 0.41100001 1.7413458e-38
0.021912079 -0.0021369194 0.41100001 1.695248e-38
0.023382511 -0.0021421188 0.412 1.6953196e-38
0.024799628 -0.0021421188 0.412 1.6861e-38
0.026216745 -0.0021421188 0.412 1.6676609e-38
0.027633864 -0.0021421188 0.412 1.6584414e-38
0.029050982 -0.0021421188 0.412 1.667696e-38
0.030542077 -0.0021473179 0.41299999 1.6400373e-38
0.031962637 -0.0021473179 0.41299999 1.6307471e-38
0.033464022 -0.0021525174 0.414 1.759821e-38
0.035056561 -0.0021629159 0.41600001 1.5476621e-38
0.0021772843 -0.0036568667 0.42199999 1.9814495e-38
0.0036287983 -0.0036568667 0.42199999 1.9813416e-38
0.0050682737 -0.0036482012 0.421 1.972122e-38
0.0064853914 -0.00363087 0.419 1.9719791e-38
0.0078887502 -0.003613539 0.417 1.9627595e-38
0.0092783514 -0.0035962081 0.41499999 1.9442125e-38
0.010705788 -0.0035962081 0.41499999 1.9165538e-38
0.012133251 -0.0035962081 0.41499999 1.8981873e-38
0.013528012 -0.0035875426 0.414 1.8705286e-38
0.014915893 -0.0035788768 0.41299999 1.851909e-38
0.016296895 -0.0035702114 0.412 1.8150307e-38
0.017714012 -0.0035702114 0.412 1.8334335e-38
0.01913113 -0.0035702114 0.412 1.759677e-38
0.020498401 -0.0035615459 0.41100001 1.7781146e-38
0.021912079 -0.0035615459 0.41100001 1.7688951e-38
0.023382511 -0.0035702114 0.412 1.7505641e-38
0.024799628 -0.0035702114 0.412 1.7505641e-38
0.026216745 -0.0035702114 0.412 1.7227975e-38
0.027633864 -0.0035702114 0.412 1.7320171e-38
0.029121494 -0.0035788768 0.41299999 1.6770229e-38
0.030542077 -0.0035788768 0.41299999 1.6585837e-38
0.031962637 -0.0035788768 0.41299999 1.5939764e-38
0.033464022 -0.0035875426 0.414 1.6124156e-38
0.035393644 -0.0036395355 0.41999999 1.5201467e-38
0.036838278 -0.0036395355 0.41999999 1.8243922e-38
0.0021772843 -0.0051196008 0.42199999 1.0597769e-38
0.0036287983 -0.0051196008 0.42199999 9.9513673e-39
0.0050682737 -0.0051074694 0.421 9.4903891e-39
0.0065163481 -0.0051074694 0.421 9.4911276e-39
0.007945504 -0.0050953371 0.41999999 9.6755189e-39
0.0093901381 -0.0050953371 0.41999999 1.105809e-38
0.010834773 -0.0050953371 0.41999999 1.2809807e-38
0.012279435 -0.0050953371 0.41999999 1.4651555e-38
0.01372407 -0.0050953371 0.41999999 1.5020337e-38
0.014915893 -0.0050104153 0.41299999 1.6125963e-38
0.016296895 -0.0049982835 0.412 1.6125963e-38
0.017714012 -0.0049982835 0.412 1.6769888e-38
0.01913113 -0.0049982835 0.412 1.6124519e-38
0.020847522 -0.0050710742 0.41800001 1.6033032e-38
0.021965394 -0.0049982835 0.412 1.5111076e-38
0.023382511 -0.0049982835 0.412 1.4557909e-38
0.024799628 -0.0049982835 0.412 1.3635953e-38
0.026216745 -0.0049982835 0.412 1.280799e-38
0.027700936 -0.0050104153 0.41299999 1.1148469e-38
0.029121494 -0.0050104153 0.41299999 8.93683e-39
0.03061603 -0.0050225472 0.414 6.3553524e-39
0.034110669 -0.0051196008 0.42199999 9.7694872e-39
0.035393644 -0.0050953371 0.41999999 1.3915779e-38
0.036838278 -0.0050953371 0.41999999 1.7880191e-38
0.0021927629 -0.0066291504 0.42500001 7.3760035e-39
0.0036459966 -0.0066135516 0.42399999 6.6381106e-39
0.0050923508 -0.0065979543 0.42300001 6.2693281e-39
0.0065473043 -0.0065979543 0.42300001 5.6243244e-39
0.00798334 -0.0065823556 0.42199999 5.71652e-39
0.0094124964 -0.0065667578 0.421 5.1636966e-39
0.010834773 -0.0065511595 0.41999999 4.8871097e-39
0.012279435 -0.0065511595 0.41999999 3.9666079e-39
0.01372407 -0.0065511595 0.41999999 3.690021e-39
0.015168704 -0.0065511595 0.41999999 3.3165694e-39
0.016573783 -0.0065355618 0.419 2.4868087e-39
0.018014979 -0.0065355618 0.419 2.8595289e-39
0.019456174 -0.0065355618 0.419 3.1361158e-39
0.020897396 -0.0065355618 0.419 3.2261464e-39
0.022285277 -0.006519964 0.41800001 2.9495595e-39
0.023666279 -0.0065043662 0.417 2.484299e-39
0.024980208 -0.0064731701 0.41499999 2.484299e-39
0.026407644 -0.0064731701 0.41499999 4.0577021e-39
0.02783508 -0.0064731701 0.41499999 2.9513546e-39
0.029262517 -0.0064731701 0.41499999 3.7800208e-39
0.030763933 -0.0064887679 0.41600001 3.5034339e-39
0.034110669 -0.0065823556 0.42199999 8.6660389e-39
0.035562184 -0.0065823556 0.42199999 1.7055113e-38
0.037013698 -0.0065823556 0.42199999 1.7792678e-38
0.0021927629 -0.0081022829 0.42500001 8.2068782e-39
0.0036459966 -0.0080832187 0.42399999 7.8366566e-39
0.0051043895 -0.0080832187 0.42399999 6.9147003e-39
0.0065473043 -0.0080641545 0.42300001 6.1796407e-39
0.00798334 -0.0080450894 0.42199999 6.5484233e-39
0.0094124964 -0.0080260262 0.421 6.6395329e-39
0.010860571 -0.0080260262 0.421 6.6395329e-39
0.012279435 -0.0080069611 0.41999999 6.547717e-39
0.01372407 -0.0080069611 0.41999999 6.0867389e-39
0.015168704 -0.0080069611 0.41999999 5.9001924e-39
0.016573783 -0.0079878978 0.419 5.5314099e-39
0.018014979 -0.0079878978 0.419 4.9796584e-39
0.019456174 -0.0079878978 0.419 4.7030715e-39
0.020847522 -0.0079688337 0.41800001 4.3296395e-39
0.022285277 -0.0079688337 0.41800001 4.1452482e-39
0.023609526 -0.0079307053 0.41600001 4.2406865e-39
0.025040401 -0.0079307053 0.41600001 6.6377729e-39
0.026407644 -0.0079116412 0.41499999 5.9037727e-39
0.02783508 -0.0079116412 0.41499999 4.9818164e-39
0.029333031 -0.0079307053 0.41600001 5.2544475e-39
0.030763933 -0.0079307053 0.41600001 4.3324912e-39
0.032659154 -0.0080450894 0.42199999 2.6780047e-39
0.034110669 -0.0080450894 0.42199999 6.6424168e-39
0.035562184 -0.0080450894 0.42199999 1.8619905e-38
0.037013698 -0.0080450894 0.42199999 1.788234e-38
0.0021927629 -0.0095754368 0.42500001 8.3934275e-39
0.0036459966 -0.0095529063 0.42399999 7.5618689e-39
0.0051043895 -0.0095529063 0.42399999 6.547717e-39
0.0065473043 -0.0095303757 0.42300001 6.7306565e-39
0.0080022579 -0.0095303757 0.42300001 6.9150478e-39
0.0094348537 -0.0095078452 0.42199999 6.3636817e-39
0.010886367 -0.0095078452 0.42199999 6.3636817e-39
0.012308673 -0.0094853146 0.421 7.9274145e-39
0.013756746 -0.0094853146 0.421 6.9132625e-39
0.015168704 -0.009462784 0.41999999 4.6116214e-39
0.016573783 -0.0094402535 0.419 4.8882083e-39
0.018014979 -0.0094402535 0.419 5.2551859e-39
0.019409738 -0.0094177239 0.41800001 4.4254253e-39
0.020847522 -0.0094177239 0.41800001 4.1517251e-39
0.022231963 -0.0093951933 0.417 6.3644202e-39
0.023609526 -0.0093726628 0.41600001 6.4558773e-39
0.024980208 -0.0093501322 0.41499999 6.3636817e-39
0.026407644 -0.0093501322 0.41499999 6.547717e-39
0.02783508 -0.0093501322 0.41499999 5.5335651e-39
0.029333031 -0.0093726628 0.41600001 5.0715009e-39
0.030911837 -0.0094177239 0.41800001 4.9793053e-39
0.032504376 -0.009462784 0.41999999 4.6105228e-39
0.034110669 -0.0095078452 0.42199999 4.057349e-39
0.035562184 -0.0095078452 0.42199999 1.7054361e-38
0.037013698 -0.0095078452 0.42199999 1.7884122e-38
0.038465213 -0.0095078452 0.42199999 1.7240567e-38
0.0021927629 -0.011048569 0.42500001 7.3800042e-39
0.0036545957 -0.011048569 0.42500001 7.6508276e-39
0.0051043895 -0.011022572 0.42399999 7.2820451e-39
0.0065627825 -0.011022572 0.42399999 6.730309e-39
0.0080022579 -0.010996576 0.42300001 6.5459177e-39
0.0094348537 -0.010970579 0.42199999 6.3611706e-39
0.010886367 -0.010970579 0.42199999 6.0845837e-39
0.012337908 -0.010970579 0.42199999 5.9920377e-39
0.013756746 -0.010944583 0.421 6.2686246e-39
0.015132588 -0.01089259 0.419 4.9796879e-39
0.016573783 -0.01089259 0.419 4.7952966e-39
0.017971983 -0.010866593 0.41800001 5.2551915e-39
0.019363305 -0.010840597 0.417 5.8083653e-39
0.020797648 -0.010840597 0.417 6.8250228e-39
0.02217865 -0.0108146 0.41600001 6.5484359e-39
0.023609526 -0.0108146 0.41600001 7.2834828e-39
0.024980208 -0.010788604 0.41499999 6.4537221e-39
0.026407644 -0.010788604 0.41499999 7.1902026e-39
0.02783508 -0.010788604 0.41499999 6.7292244e-39
0.029333031 -0.0108146 0.41600001 4.6119745e-39
0.030911837 -0.010866593 0.41800001 4.980757e-39
0.032504376 -0.010918586 0.41999999 5.3473816e-39
0.034029841 -0.010944583 0.421 3.1346864e-39
0.035562184 -0.010970579 0.42199999 1.3461606e-38
0.037013698 -0.010970579 0.42199999 1.7702605e-38
0.038465213 -0.010970579 0.42199999 1.7240207e-38
0.039916724 -0.010970579 0.42199999 1.7240207e-38
0.0021927629 -0.012521723 0.42500001 7.0101427e-39
0.0036545957 -0.012521723 0.42500001 7.8359475e-39
0.0051043895 -0.01249226 0.42399999 7.1905781e-39
0.0065627825 -0.01249226 0.42399999 6.731395e-39
0.0080022579 -0.012462798 0.42300001 6.3626125e-39
0.009457211 -0.012462798 0.42300001 6.2711357e-39
0.010886367 -0.012433334 0.42199999 6.1789401e-39
0.012337908 -0.012433334 0.42199999 5.7154508e-39
0.013756746 -0.012403872 0.421 6.2686246e-39
0.015132588 -0.012344945 0.419 5.9019973e-39
0.016534228 -0.012315483 0.41800001 6.2707798e-39
0.017928988 -0.01228602 0.417 7.0086952e-39
0.019316871 -0.012256557 0.41600001 7.0086952e-39
0.020697897 -0.012227095 0.41499999 6.4569591e-39
0.022125334 -0.012227095 0.41499999 6.2725679e-39
0.023552772 -0.012227095 0.41499999 6.9161394e-39
0.024980208 -0.012227095 0.41499999 6.4551612e-39
0.026407644 -0.012227095 0.41499999 6.6384609e-39
0.02783508 -0.012227095 0.41499999 6.4540696e-39
0.029333031 -0.012256557 0.41600001 5.3491766e-39
0.030911837 -0.012315483 0.41800001 5.8101548e-39
0.032426983 -0.012344945 0.419 5.2551859e-39
0.03394901 -0.012374408 0.41999999 5.2551859e-39
0.035477918 -0.012403872 0.421 9.4032102e-39
0.037013698 -0.012433334 0.42199999 1.7700817e-38
0.038465213 -0.012433334 0.42199999 1.7056532e-38
0.039916724 -0.012433334 0.42199999 1.6964336e-38
0.0021927629 -0.013994877 0.42500001 8.482026e-39
0.0036545957 -0.013994877 0.42500001 7.1927361e-39
0.0051043895 -0.013961948 0.42399999 6.7317579e-39
0.0065473043 -0.013929019 0.42300001 6.5480856e-39
0.0080022579 -0.013929019 0.42300001 6.5480856e-39
0.0094348537 -0.013896089 0.42199999 6.5480856e-39
0.010886367 -0.013896089 0.42199999 6.7324768e-39
0.012308673 -0.01386316 0.421 5.9016442e-39
0.013691394 -0.013797302 0.419 5.9938398e-39
0.015132588 -0.013797302 0.419 6.6377602e-39
0.016534228 -0.013764373 0.41800001 7.190934e-39
0.017928988 -0.013731444 0.417 7.1909312e-39
0.019316871 -0.013698515 0.41600001 7.2831269e-39
0.020697897 -0.013665586 0.41499999 6.9146947e-39
0.022125334 -0.013665586 0.41499999 6.5459121e-39
0.023552772 -0.013665586 0.41499999 6.6381106e-39
0.024980208 -0.013665586 0.41499999 6.6381106e-39
0.026407644 -0.013665586 0.41499999 6.7306565e-39
0.02783508 -0.013665586 0.41499999 6.4540696e-39
0.029333031 -0.013698515 0.41600001 6.3636817e-39
0.030911837 -0.013764373 0.41800001 6.3636817e-39
0.032426983 -0.013797302 0.419 5.5335651e-39
0.03394901 -0.013830231 0.41999999 5.9023476e-39
0.035477918 -0.01386316 0.421 5.5335357e-39
0.037013698 -0.013896089 0.42199999 1.5675055e-38
0.038465213 -0.013896089 0.42199999 1.7241274e-38
0.039916724 -0.013896089 0.42199999 1.6872491e-38
0.0021927629 -0.01546801 0.42500001 8.1150427e-39
0.0036545957 -0.01546801 0.42500001 7.1927389e-39
0.0051043895 -0.015431614 0.42399999 6.5473695e-39
0.0065473043 -0.015395219 0.42300001 7.0079847e-39
0.00798334 -0.015358823 0.42199999 7.0079847e-39
0.0094348537 -0.015358823 0.42199999 6.731395e-39
0.010860571 -0.015322428 0.421 7.2845688e-39
0.012279435 -0.015286032 0.41999999 6.4551711e-39
0.013691394 -0.015249638 0.419 6.9161492e-39
0.015096473 -0.015213243 0.41800001 7.1005307e-39
0.016494673 -0.015176848 0.417 7.1927263e-39
0.017842997 -0.015104057 0.41499999 6.9157835e-39
0.019270435 -0.015104057 0.41499999 6.6391966e-39
0.020697897 -0.015104057 0.41499999 6.1789373e-39
0.022125334 -0.015104057 0.41499999 5.8101548e-39
0.023552772 -0.015104057 0.41499999 6.2693309e-39
0.024980208 -0.015104057 0.41499999 6.730309e-39
0.026407644 -0.015104057 0.41499999 6.3636817e-39
0.02783508 -0.015104057 0.41499999 6.3636817e-39
0.029333031 -0.015140451 0.41600001 6.5480729e-39
0.030911837 -0.015213243 0.41800001 6.8246598e-39
0.032426983 -0.015249638 0.419 6.2725651e-39
0.03394901 -0.015286032 0.41999999 6.3647607e-39
0.035477918 -0.015322428 0.421 5.2562453e-39
0.037013698 -0.015358823 0.42199999 1.2078722e-38
0.038465213 -0.015358823 0.42199999 1.8067797e-38
0.039916724 -0.015358823 0.42199999 1.7330232e-38
0.0021927629 -0.016941164 0.42500001 8.8518917e-39
0.0036459966 -0.016901301 0.42399999 7.1916711e-39
0.0051043895 -0.016901301 0.42399999 6.9150842e-39
0.0065473043 -0.016861441 0.42300001 7.4686069e-39
0.00798334 -0.016821578 0.42199999 7.7451938e-39
0.0094124964 -0.016781718 0.421 7.6537044e-39
0.010834773 -0.016741855 0.41999999 7.5615088e-39
0.012250199 -0.016701994 0.419 8.022131e-39
0.013658717 -0.016662132 0.41800001 7.6533485e-39
0.015096473 -0.016662132 0.41800001 7.3774777e-39
0.016455118 -0.016582409 0.41600001 6.7321083e-39
0.017842997 -0.016542548 0.41499999 7.1912872e-39
0.019270435 -0.016542548 0.41499999 7.0990915e-39
0.020697897 -0.016542548 0.41499999 6.7303062e-39
0.022125334 -0.016542548 0.41499999 6.0849368e-39
0.023552772 -0.016542548 0.41499999 6.1789373e-39
0.024980208 -0.016542548 0.41499999 6.3633286e-39
0.026407644 -0.016542548 0.41499999 7.0068903e-39
0.02783508 -0.016542548 0.41499999 7.0068903e-39
0.029333031 -0.016582409 0.41600001 7.0068903e-39
0.030911837 -0.016662132 0.41800001 7.1912816e-39
0.032426983 -0.016701994 0.419 6.7317481e-39
0.03394901 -0.016741855 0.41999999 6.8239438e-39
0.035393644 -0.016741855 0.41999999 5.9037699e-39
0.037013698 -0.016821578 0.42199999 7.6554869e-39
0.038465213 -0.016821578 0.42199999 1.7605737e-38
0.039916724 -0.016821578 0.42199999 1.7513542e-38
0.0021927629 -0.018414296 0.42500001 8.3912793e-39
0.0036459966 -0.018370967 0.42399999 8.0217807e-39
0.0051043895 -0.018370967 0.42399999 7.2842157e-39
0.0065473043 -0.01832764 0.42300001 8.390566e-39
0.007964422 -0.018240985 0.421 8.6671529e-39
0.0094124964 -0.018240985 0.421 8.3012318e-39
0.010834773 -0.018197656 0.41999999 8.3012318e-39
0.012250199 -0.018154329 0.419 8.6707402e-39
0.013658717 -0.018111002 0.41800001 7.1034145e-39
0.015060357 -0.018067675 0.417 7.6533485e-39
0.016455118 -0.018024346 0.41600001 7.284566e-39
0.017842997 -0.017981019 0.41499999 5.9956278e-39
0.019270435 -0.017981019 0.41499999 6.8253885e-39
0.020697897 -0.017981019 0.41499999 7.008335e-39
0.022072021 -0.017937692 0.414 6.27077e-39
0.023496017 -0.017937692 0.414 6.7303062e-39
0.024920015 -0.017937692 0.414 6.1771324e-39
0.026344011 -0.017937692 0.414 6.9161394e-39
0.02783508 -0.017981019 0.41499999 6.9161394e-39
0.029333031 -0.018024346 0.41600001 7.1912816e-39
0.030911837 -0.018111002 0.41800001 7.4678684e-39
0.032349594 -0.018111002 0.41800001 7.008335e-39
0.033868179 -0.018154329 0.419 7.008335e-39
0.035393644 -0.018197656 0.41999999 5.7197514e-39
0.03692599 -0.018240985 0.421 4.8899907e-39
0.038465213 -0.018284312 0.42199999 1.5487755e-38
0.039916724 -0.018284312 0.42199999 1.7608254e-38
0.041368265 -0.018284312 0.42199999 1.6687747e-38
0.0021927629 -0.019887451 0.42500001 8.9444531e-39
0.0036459966 -0.019840656 0.42399999 8.9440873e-39
0.0051043895 -0.019840656 0.42399999 8.8518917e-39
0.0065318258 -0.019747067 0.42199999 8.8518973e-39
0.007964422 -0.019700274 0.421 8.4831148e-39
0.0093901381 -0.019653479 0.41999999 8.5753048e-39
0.010834773 -0.019653479 0.41999999 8.6675004e-39
0.012220962 -0.019559892 0.41800001 9.220677e-39
0.013626041 -0.019513099 0.417 7.4689601e-39
0.015024241 -0.019466303 0.41600001 7.6533485e-39
0.016455118 -0.019466303 0.41600001 7.3767616e-39
0.017842997 -0.01941951 0.41499999 7.3771175e-39
0.019270435 -0.01941951 0.41499999 7.4693132e-39
0.020648023 -0.019372717 0.414 7.2849219e-39
0.022072021 -0.019372717 0.414 7.7459001e-39
0.023496017 -0.019372717 0.414 7.4685775e-39
0.024920015 -0.019372717 0.414 7.3763819e-39
0.026344011 -0.019372717 0.414 7.3756728e-39
0.02783508 -0.01941951 0.41499999 7.6522597e-39
0.029333031 -0.019466303 0.41600001 6.9154037e-39
0.030763933 -0.019466303 0.41600001 7.099795e-39
0.032349594 -0.019559892 0.41800001 6.8239438e-39
0.033868179 -0.019606685 0.419 7.008335e-39
0.035393644 -0.019653479 0.41999999 7.1005307e-39
0.03692599 -0.019700274 0.421 5.6254006e-39
0.038465213 -0.019747067 0.42199999 1.2905558e-38
0.039916724 -0.019747067 0.42199999 1.751534e-38
0.041368265 -0.019747067 0.42199999 1.6688097e-38
0.00073090248 -0.021360584 0.42500001 8.1146952e-39
0.0021927629 -0.021360584 0.42500001 8.7600646e-39
0.0036459966 -0.021310322 0.42399999 8.4831092e-39
0.0050923508 -0.021260062 0.42300001 8.1143267e-39
0.0065318258 -0.021209801 0.42199999 8.1143323e-39
0.007964422 -0.021159543 0.421 8.1143323e-39
0.0093901381 -0.021109281 0.41999999 8.1143267e-39
0.010834773 -0.021109281 0.41999999 7.9299354e-39
0.012220962 -0.021008762 0.41800001 8.2983676e-39
0.013626041 -0.020958502 0.417 8.3905632e-39
0.015024241 -0.02090824 0.41600001 7.2849219e-39
0.016455118 -0.02090824 0.41600001 7.2849219e-39
0.017842997 -0.020857982 0.41499999 7.284566e-39
0.019270435 -0.020857982 0.41499999 7.3767616e-39
0.020648023 -0.020807723 0.414 7.3771175e-39
0.022072021 -0.020807723 0.414 7.1005307e-39
0.023496017 -0.020807723 0.414 7.0997922e-39
0.024920015 -0.020807723 0.414 7.2841834e-39
0.026344011 -0.020807723 0.414 7.4678684e-39
0.02783508 -0.020857982 0.41499999 7.836651e-39
0.029333031 -0.02090824 0.41600001 7.1934297e-39
0.030763933 -0.02090824 0.41600001 8.115386e-39
0.032349594 -0.021008762 0.41800001 7.285275e-39
0.033787347 -0.021008762 0.41800001 6.9164925e-39
0.035309374 -0.021059021 0.419 7.2834828e-39
0.036838278 -0.021109281 0.41999999 6.5459177e-39
0.038374063 -0.021159543 0.421 9.3117586e-39
0.039916724 -0.021209801 0.42199999 1.6595213e-38
0.041368265 -0.021209801 0.42199999 1.6503706e-38
0.00073090248 -0.022833737 0.42500001 7.933178e-39
0.0021927629 -0.022833737 0.42500001 7.4721999e-39
0.0036459966 -0.02278001 0.42399999 8.0221366e-39
0.0050923508 -0.022726284 0.42300001 7.7455497e-39
0.0065318258 -0.022672556 0.42199999 7.6537044e-39
0.007964422 -0.02261883 0.421 7.9302913e-39
0.0093901381 -0.022565102 0.41999999 7.8381055e-39
0.010834773 -0.022565102 0.41999999 7.6537142e-39
0.012220962 -0.022457652 0.41800001 8.206888e-39
0.013626041 -0.022403926 0.417 7.6537142e-39
0.015024241 -0.022350198 0.41600001 7.2820451e-39
0.016455118 -0.022350198 0.41600001 7.5586319e-39
0.017842997 -0.022296473 0.41499999 7.284566e-39
0.019223999 -0.022242747 0.414 7.3767616e-39
0.020648023 -0.022242747 0.414 7.7444553e-39
0.022072021 -0.022242747 0.414 7.1912816e-39
0.023496017 -0.022242747 0.414 6.8246472e-39
0.024920015 -0.022242747 0.414 7.0090385e-39
0.026344011 -0.022242747 0.414 7.0090385e-39
0.02783508 -0.022296473 0.41499999 7.4700166e-39
0.029333031 -0.022350198 0.41600001 7.6522653e-39
0.030763933 -0.022350198 0.41600001 8.0210478e-39
0.032272201 -0.022403926 0.417 8.2047048e-39
0.033787347 -0.022457652 0.41800001 7.651531e-39
0.035309374 -0.022511378 0.419 7.1927263e-39
0.03675057 -0.022511378 0.419 6.5473569e-39
0.038282912 -0.022565102 0.41999999 7.377821e-39
0.039916724 -0.022672556 0.42199999 1.5122254e-38
0.041466299 -0.022726284 0.42300001 1.6780298e-38
-0.00074124924 -0.024650024 0.43099999 8.2119201e-39
0.00074122101 -0.024650024 0.43099999 7.5622221e-39
0.0022030817 -0.024421254 0.42699999 7.9310046e-39
0.0036545957 -0.024306869 0.42500001 8.1146826e-39
0.0050923508 -0.024192484 0.42300001 7.7459001e-39
0.0065318258 -0.02413529 0.42199999 7.3774777e-39
0.007964422 -0.024078099 0.421 7.3774777e-39
0.0093901381 -0.024020905 0.41999999 7.929941e-39
0.010808976 -0.023963712 0.419 7.8377454e-39
0.012220962 -0.023906521 0.41800001 8.5753048e-39
0.013626041 -0.023849329 0.417 6.4548053e-39
0.015024241 -0.023792136 0.41600001 6.9147003e-39
0.016415561 -0.023734944 0.41499999 7.1912872e-39
0.017842997 -0.023734944 0.41499999 7.1001747e-39
0.019223999 -0.023677751 0.414 7.284566e-39
0.020648023 -0.023677751 0.414 7.0086882e-39
0.022018706 -0.023620559 0.41299999 6.9164925e-39
0.023439264 -0.023620559 0.41299999 6.5484359e-39
0.024859821 -0.023620559 0.41299999 6.8250228e-39
0.026280379 -0.023620559 0.41299999 6.1803694e-39
0.027768008 -0.023677751 0.414 6.7335432e-39
0.029262517 -0.023734944 0.41499999 7.1008838e-39
0.030763933 -0.023792136 0.41600001 7.5618619e-39
0.032194812 -0.023792136 0.41600001 7.9295528e-39
0.033787347 -0.023906521 0.41800001 7.1919878e-39
0.035225105 -0.023906521 0.41800001 7.0068903e-39
0.03675057 -0.023963712 0.419 7.0990859e-39
0.038282912 -0.024020905 0.41999999 5.3505989e-39
0.039822139 -0.024078099 0.421 1.3279423e-38
0.041368265 -0.02413529 0.42199999 1.6688463e-38
0.042819779 -0.02413529 0.42199999 1.6043093e-38
-0.00074124924 -0.026143976 0.43099999 8.8518917e-39
0.00073778152 -0.026022658 0.42899999 7.6540646e-39
0.0022030817 -0.02590134 0.42699999 7.6540646e-39
0.0036631944 -0.025840681 0.426 8.1146826e-39
0.0050923508 -0.025658706 0.42300001 7.3771175e-39
0.0065318258 -0.025598045 0.42199999 8.1132435e-39
0.007964422 -0.025537388 0.421 8.2976347e-39
0.0093901381 -0.025476728 0.41999999 7.8380957e-39
0.010808976 -0.025416069 0.419 7.9302913e-39
0.012220962 -0.025355412 0.41800001 7.8381055e-39
0.013593365 -0.025234094 0.41600001 6.3629754e-39
0.015024241 -0.025234094 0.41600001 6.1800191e-39
0.016415561 -0.025173435 0.41499999 6.6409972e-39
0.017800003 -0.025112778 0.414 7.008698e-39
0.019223999 -0.025112778 0.414 7.1008936e-39
0.020648023 -0.025112778 0.414 7.1927263e-39
0.022018706 -0.025052117 0.41299999 7.008335e-39
0.023439264 -0.025052117 0.41299999 7.2834828e-39
0.024859821 -0.025052117 0.41299999 7.5600697e-39
0.026280379 -0.025052117 0.41299999 7.1927263e-39
0.027768008 -0.025112778 0.414 7.5615088e-39
0.029192006 -0.025112778 0.414 7.9277676e-39
0.030689981 -0.025173435 0.41499999 7.7433763e-39
0.032194812 -0.025234094 0.41600001 7.0090357e-39
0.033625688 -0.025234094 0.41600001 6.3636663e-39
0.035225105 -0.025355412 0.41800001 6.2714861e-39
0.03675057 -0.025416069 0.419 6.3636817e-39
0.038282912 -0.025476728 0.41999999 6.9154037e-39
0.039822139 -0.025537388 0.421 1.1893968e-38
0.041270241 -0.025537388 0.421 1.7054727e-38
0.042819779 -0.025598045 0.42199999 1.6501553e-38
-0.0022237194 -0.027637927 0.43099999 8.1182951e-39
-0.00073952938 -0.027573803 0.43000001 7.1963388e-39
0.00073778152 -0.027509676 0.42899999 7.8352216e-39
0.0022030817 -0.027381426 0.42699999 7.743026e-39
0.0036717935 -0.027381426 0.42699999 7.5611529e-39
0.0051284665 -0.027317302 0.426 7.6533485e-39
0.0065473043 -0.027124926 0.42300001 7.8384558e-39
0.00798334 -0.027060801 0.42199999 8.0228471e-39
0.0093901381 -0.026932551 0.41999999 7.5618717e-39
0.010808976 -0.026868425 0.419 8.1150455e-39
0.012220962 -0.026804302 0.41800001 7.6533541e-39
0.013593365 -0.026676051 0.41600001 7.2845716e-39
0.015024241 -0.026676051 0.41600001 6.5480856e-39
0.016415561 -0.026611926 0.41499999 6.8246724e-39
0.017800003 -0.026547803 0.414 7.1923704e-39
0.019223999 -0.026547803 0.414 7.4689572e-39
0.020598149 -0.026483675 0.41299999 6.7321013e-39
0.022018706 -0.026483675 0.41299999 6.8242969e-39
0.023439264 -0.026483675 0.41299999 7.008335e-39
0.024859821 -0.026483675 0.41299999 7.1927263e-39
0.026280379 -0.026483675 0.41299999 7.2849219e-39
0.027768008 -0.026547803 0.414 7.2849219e-39
0.029192006 -0.026547803 0.414 7.5600641e-39
0.030689981 -0.026611926 0.41499999 7.7444553e-39
0.032117419 -0.026611926 0.41499999 7.1919878e-39
0.033625688 -0.026676051 0.41600001 6.638814e-39
0.035225105 -0.026804302 0.41800001 5.9023476e-39
0.03675057 -0.026868425 0.419 6.6399126e-39
0.038282912 -0.026932551 0.41999999 6.1792904e-39
0.039822139 -0.026996676 0.421 8.5763768e-39
0.041270241 -0.026996676 0.421 1.6316443e-38
0.042819779 -0.027060801 0.42199999 1.6685226e-38
0.044376206 -0.027124926 0.42300001 1.6226759e-38
-0.0022237194 -0.029131858 0.43099999 8.2983704e-39
-0.00073952938 -0.029064268 0.43000001 7.5608054e-39
0.00073778152 -0.028996674 0.42899999 6.8243193e-39
0.0022030817 -0.028861491 0.42699999 7.2852975e-39
0.0036717935 -0.028861491 0.42699999 7.3771274e-39
0.0051284665 -0.028793901 0.426 7.7459099e-39
0.006578261 -0.028726311 0.42500001 7.6540674e-39
0.0080022579 -0.028591128 0.42300001 7.8384586e-39
0.0094124964 -0.028455945 0.421 8.0242946e-39
0.010834773 -0.028388351 0.41999999 8.7618597e-39
0.012191725 -0.02818558 0.417 7.7455497e-39
0.013593365 -0.028117988 0.41600001 7.7455497e-39
0.015024241 -0.028117988 0.41600001 6.9165023e-39
0.016415561 -0.028050397 0.41499999 6.8243067e-39
0.017800003 -0.027982807 0.414 7.1008936e-39
0.019177565 -0.027915215 0.41299999 7.3774805e-39
0.020598149 -0.027915215 0.41299999 7.2849219e-39
0.022018706 -0.027915215 0.41299999 7.008335e-39
0.023439264 -0.027915215 0.41299999 7.7430232e-39
0.024799628 -0.027847623 0.412 7.6508276e-39
0.026216745 -0.027847623 0.412 7.1912816e-39
0.027768008 -0.027982807 0.414 7.1912816e-39
0.029192006 -0.027982807 0.414 7.1919906e-39
0.03061603 -0.027982807 0.414 7.3763819e-39
0.032117419 -0.028050397 0.41499999 6.9154037e-39
0.033625688 -0.028117988 0.41600001 6.5466212e-39
0.035225105 -0.028253172 0.41800001 6.5459149e-39
0.03675057 -0.028320761 0.419 6.9146975e-39
0.038282912 -0.028388351 0.41999999 6.2722147e-39
0.039822139 -0.028455945 0.421 5.9956278e-39
0.041368265 -0.028523535 0.42199999 1.3276862e-38
0.042819779 -0.028523535 0.42199999 1.6595904e-38
0.044376206 -0.028591128 0.42300001 1.6042012e-38
-0.0022185601 -0.030554753 0.43000001 5.725173e-39
-0.00073952938 -0.030554753 0.43000001 6.5549337e-39
0.00073778152 -0.030483693 0.42899999 8.206888e-39
0.0022082413 -0.030412637 0.428 8.0224968e-39
0.0036717935 -0.030341577 0.42699999 7.4711209e-39
0.0051284665 -0.030270521 0.426 7.6555121e-39
0.006578261 -0.030199464 0.42500001 8.1146952e-39
0.0080022579 -0.030057348 0.42300001 8.1146952e-39
0.0094124964 -0.029915232 0.421 8.4831092e-39
0.010834773 -0.029844174 0.41999999 8.5753048e-39
0.012191725 -0.029631004 0.417 8.2065279e-39
0.013593365 -0.029559946 0.41600001 8.1143323e-39
0.015024241 -0.029559946 0.41600001 7.746263e-39
0.016415561 -0.02948889 0.41499999 6.2711329e-39
0.017800003 -0.029417831 0.414 6.9186631e-39
0.019177565 -0.029346773 0.41299999 6.8264675e-39
0.020598149 -0.029346773 0.41299999 7.1008908e-39
0.022018706 -0.029346773 0.41299999 6.6399126e-39
0.023439264 -0.029346773 0.41299999 7.1912816e-39
0.024799628 -0.029275717 0.412 7.0990859e-39
0.026216745 -0.029275717 0.412 6.7303062e-39
0.027700936 -0.029346773 0.41299999 7.0990887e-39
0.029192006 -0.029417831 0.414 6.9168429e-39
0.03061603 -0.029417831 0.414 6.8246472e-39
0.032117419 -0.02948889 0.41499999 6.6395329e-39
0.033625688 -0.029559946 0.41600001 6.5473373e-39
0.035225105 -0.029702062 0.41800001 6.2714861e-39
0.03675057 -0.029773118 0.419 6.3636817e-39
0.038282912 -0.029844174 0.41999999 7.0068959e-39
0.039822139 -0.029915232 0.421 6.5459177e-39
0.041368265 -0.02998629 0.42199999 1.0786876e-38
0.042819779 -0.02998629 0.42199999 1.6134223e-38
0.044376206 -0.030057348 0.42300001 1.5858342e-38
-0.0022185601 -0.032045215 0.43000001 6.9165023e-39
-0.00073952938 -0.032045215 0.43000001 8.5760237e-39
0.00073778152 -0.031970691 0.42899999 8.4834749e-39
0.0022082413 -0.031896167 0.428 8.1146924e-39
0.0036717935 -0.031821642 0.42699999 7.9306543e-39
0.0051284665 -0.031747121 0.426 7.8384586e-39
0.006578261 -0.031672597 0.42500001 8.2990837e-39
0.0080022579 -0.031523548 0.42300001 8.1146924e-39
0.0094348537 -0.031449024 0.42199999 8.8526106e-39
0.010834773 -0.031299975 0.41999999 9.0370018e-39
0.012191725 -0.031076407 0.417 8.0242946e-39
0.013626041 -0.031076407 0.417 7.8399034e-39
0.015024241 -0.031001883 0.41600001 7.6544177e-39
0.016415561 -0.03092736 0.41499999 7.3778308e-39
0.017757008 -0.030778311 0.41299999 7.3774805e-39
0.019177565 -0.030778311 0.41299999 7.4696761e-39
0.020598149 -0.030778311 0.41299999 7.6522597e-39
0.022018706 -0.030778311 0.41299999 7.0068903e-39
0.023439264 -0.030778311 0.41299999 6.4565808e-39
0.024799628 -0.030703789 0.412 6.640972e-39
0.026216745 -0.030703789 0.412 6.7324516e-39
0.027633864 -0.030703789 0.412 6.640256e-39
0.029121494 -0.030778311 0.41299999 7.0075993e-39
0.03061603 -0.030852837 0.414 7.099795e-39
0.032117419 -0.03092736 0.41499999 6.7324488e-39
0.033625688 -0.031001883 0.41600001 6.7324488e-39
0.035225105 -0.03115093 0.41800001 6.4558773e-39
0.03675057 -0.031225452 0.419 7.1934424e-39
0.038282912 -0.031299975 0.41999999 6.3636817e-39
0.039822139 -0.031374503 0.421 5.8105079e-39
0.041270241 -0.031374503 0.421 7.7466007e-39
0.042819779 -0.031449024 0.42199999 1.493786e-38
0.044376206 -0.031523548 0.42300001 1.5767939e-38
0.045939505 -0.031598072 0.42399999 1.5491352e-38
-0.0022185601 -0.0335357 0.43000001 7.1912872e-39
-0.00073952938 -0.0335357 0.43000001 8.3898303e-39
0.00073778152 -0.033457708 0.42899999 8.6682165e-39
0.0022082413 -0.033379719 0.428 8.299434e-39
0.0036717935 -0.03330173 0.42699999 7.7462602e-39
0.0051164282 -0.033145752 0.42500001 7.8384558e-39
0.0065627825 -0.033067759 0.42399999 7.8384586e-39
0.0080022579 -0.03298977 0.42300001 7.9306543e-39
0.0094348537 -0.032911777 0.42199999 9.036992e-39
0.010834773 -0.0327558 0.41999999 9.2213833e-39
0.012191725 -0.032521833 0.417 7.8399034e-39
0.013626041 -0.032521833 0.417 7.7477077e-39
0.015024241 -0.03244384 0.41600001 7.0086882e-39
0.016415561 -0.032365851 0.41499999 7.4696663e-39
0.017757008 -0.032209869 0.41299999 7.3767616e-39
0.019177565 -0.032209869 0.41299999 7.6533485e-39
0.020548275 -0.032131881 0.412 7.6544079e-39
0.021965394 -0.032131881 0.412 7.4700166e-39
0.023382511 -0.032131881 0.412 7.1934297e-39
0.024799628 -0.032131881 0.412 7.1012341e-39
0.026216745 -0.032131881 0.412 7.099795e-39
0.027633864 -0.032131881 0.412 7.099795e-39
0.029121494 -0.032209869 0.41299999 6.9154037e-39
0.03061603 -0.032287862 0.414 6.9154037e-39
0.032117419 -0.032365851 0.41499999 7.1909088e-39
0.033625688 -0.03244384 0.41600001 7.1909088e-39
