# .PCD v0.7 - Point Cloud Data file format
VERSION 0.7
FIELDS x y z rgb
SIZE 4 4 4 4
TYPE F F F F
COUNT 1 1 1 1
WIDTH 865
HEIGHT 1
VIEWPOINT 0 0 0 1 0 0 0
POINTS 865
DATA ascii
-0.012583853 0.080314092 0.81300002 2.1202439e-38
-0.0097874263 0.080314092 0.81300002 2.0556341e-38
-0.012583853 0.077496074 0.81300002 2.1665539e-38
-0.0097874263 0.077496074 0.81300002 2.313812e-38
-0.0069910265 0.077496074 0.81300002 2.3507262e-38
-0.0041946266 0.077496074 0.81300002 2.2212939e-38
-0.0014016661 0.077686712 0.815 2.0276831e-38
-0.012552896 0.074494347 0.81099999 2.2398407e-38
-0.0097633488 0.074494347 0.81099999 2.2857162e-38
-0.0069738282 0.074494347 0.81099999 2.1289836e-38
-0.0041739885 0.074310638 0.80900002 2.2672751e-38
-0.0013844678 0.073943213 0.80500001 2.3506473e-38
0.0013809756 0.073759511 0.80299997 2.3417973e-38
0.0041430318 0.073759511 0.80299997 2.3417973e-38
0.0069222338 0.073943213 0.80500001 2.2214759e-38
0.0097151939 0.074126922 0.80699998 2.0647434e-38
0.012490956 0.074126922 0.80699998 1.99117e-38
0.015304554 0.074310638 0.80900002 1.9358526e-38
0.018087195 0.074310638 0.80900002 1.8715697e-38
0.020869838 0.074310638 0.80900002 1.8715697e-38
0.023652531 0.074310638 0.80900002 1.8715703e-38
-0.018087223 0.071506448 0.80900002 2.0283026e-38
-0.012521939 0.071506448 0.80900002 2.0374807e-38
-0.0097392714 0.071506448 0.80900002 2.2762083e-38
-0.0069566299 0.071506448 0.80900002 2.3130865e-38
-0.0041739885 0.071506448 0.80900002 2.1935855e-38
-0.0013844678 0.071152888 0.80500001 2.3508943e-38
0.0013809756 0.070976116 0.80299997 2.2950077e-38
0.0041430318 0.070976116 0.80299997 2.2950077e-38
0.0069222338 0.071152888 0.80500001 2.3326167e-38
0.0096911173 0.071152888 0.80500001 1.8716744e-38
0.012490956 0.071329661 0.80699998 2.0644847e-38
0.015304554 0.071506448 0.80900002 2.1658999e-38
0.018087195 0.071506448 0.80900002 1.8623858e-38
0.020869838 0.071506448 0.80900002 1.8531662e-38
0.023652531 0.071506448 0.80900002 1.8715703e-38
0.026435172 0.071506448 0.80900002 1.8623507e-38
-0.012521939 0.068702251 0.80900002 1.880278e-38
-0.0097392714 0.068702251 0.80900002 2.2949726e-38
-0.0069394317 0.068532407 0.80699998 2.35029e-38
-0.0041636694 0.068532407 0.80699998 2.2857878e-38
-0.0013810281 0.06819272 0.80299997 2.2950074e-38
0.0013809756 0.06819272 0.80299997 2.2575867e-38
0.0041533508 0.068362564 0.80500001 1.390949e-38
0.0069222338 0.068362564 0.80500001 1.944199e-38
0.0096911173 0.068362564 0.80500001 2.2576642e-38
0.012490956 0.068532407 0.80699998 1.8617911e-38
0.015304554 0.068702251 0.80900002 2.0000845e-38
0.018087195 0.068702251 0.80900002 2.0372661e-38
0.020869838 0.068702251 0.80900002 1.9358509e-38
0.023652531 0.068702251 0.80900002 1.8623505e-38
0.026435172 0.068702251 0.80900002 1.8623505e-38
-0.012521939 0.065898106 0.80900002 2.2676397e-38
-0.0097151939 0.065735184 0.80699998 2.2952609e-38
-0.0069394317 0.065735184 0.80699998 2.1569674e-38
-0.0041636694 0.065735184 0.80699998 2.2762448e-38
-0.0013810281 0.065409362 0.80299997 1.9627797e-38
0.0013809756 0.065409362 0.80299997 1.7049475e-38
0.0041533508 0.065572277 0.80500001 1.4283648e-38
0.0069394317 0.065735184 0.80699998 1.3540713e-38
0.0097151939 0.065735184 0.80699998 2.0731949e-38
0.012490956 0.065735184 0.80699998 2.1196228e-38
0.015304554 0.065898106 0.80900002 1.8891338e-38
0.018087195 0.065898106 0.80900002 1.7974045e-38
0.020869838 0.065898106 0.80900002 2.018674e-38
0.023652531 0.065898106 0.80900002 1.8623502e-38
0.02656588 0.066223927 0.81300002 1.8531306e-38
-0.018422585 0.064263761 0.824 2.2035106e-38
-0.012490982 0.06293793 0.80699998 2.1474607e-38
-0.0097151939 0.06293793 0.80699998 2.1840175e-38
-0.0069222338 0.062781952 0.80500001 2.1932371e-38
-0.0041533508 0.062781952 0.80500001 2.1380266e-38
-0.0013810281 0.062625974 0.80299997 2.1011484e-38
0.0013809756 0.062625974 0.80299997 1.6495972e-38
0.0041430318 0.062625974 0.80299997 1.6311581e-38
0.0069394317 0.06293793 0.80699998 1.2713835e-38
0.0097392714 0.063093908 0.80900002 1.4188943e-38
0.012521913 0.063093908 0.80900002 2.0644169e-38
0.015304554 0.063093908 0.80900002 2.0275386e-38
0.018087195 0.063093908 0.80900002 1.732903e-38
0.020869838 0.063093908 0.80900002 2.0094899e-38
0.023652531 0.063093908 0.80900002 1.8624574e-38
0.02656588 0.063405871 0.81300002 1.8163596e-38
-0.01558835 0.061407618 0.824 2.0644062e-38
-0.012490982 0.060140707 0.80699998 2.0644062e-38
-0.0097151939 0.060140707 0.80699998 2.1471443e-38
-0.0069222338 0.059991661 0.80500001 1.9535335e-38
-0.0041533508 0.059991661 0.80500001 1.4930188e-38
-0.0013810281 0.059842616 0.80299997 1.6128731e-38
0.0013809756 0.059842616 0.80299997 1.9257246e-38
0.0041430318 0.059842616 0.80299997 1.9626029e-38
0.0069394317 0.060140707 0.80699998 1.6309885e-38
0.0097392714 0.060289759 0.80900002 1.1054734e-38
0.01255287 0.060438804 0.81099999 1.5294556e-38
0.01534239 0.060438804 0.81099999 1.8060424e-38
0.01813191 0.060438804 0.81099999 1.8063372e-38
0.020869838 0.060289759 0.80900002 2.0921437e-38
0.023652531 0.060289759 0.80900002 1.8716051e-38
0.02663123 0.060736902 0.815 1.8716051e-38
-0.024091084 0.058551434 0.824 1.9268877e-38
-0.0184673 0.058693547 0.82599998 2.1756692e-38
-0.01558835 0.058551434 0.824 2.0457532e-38
-0.012490982 0.057343449 0.80699998 2.3407793e-38
-0.0096911173 0.057201337 0.80500001 2.1013363e-38
-0.0069050356 0.057059225 0.80299997 1.7878712e-38
-0.0041430318 0.057059225 0.80299997 1.5667087e-38
-0.0013810281 0.057059225 0.80299997 1.4284153e-38
0.0013809756 0.057059225 0.80299997 1.5758141e-38
0.0041430318 0.057059225 0.80299997 1.6864488e-38
0.0069394317 0.057343449 0.80699998 2.0733506e-38
0.0097392714 0.057485566 0.80900002 1.1790529e-38
0.01255287 0.057627682 0.81099999 1.4465167e-38
0.01534239 0.057627682 0.81099999 1.7784184e-38
0.01813191 0.057627682 0.81099999 1.6958119e-38
0.020869838 0.057485566 0.80900002 2.0369357e-38
0.023652531 0.057485566 0.80900002 1.8254709e-38
0.02663123 0.05791191 0.815 1.8346905e-38
-0.029831814 0.05583043 0.82599998 1.8900094e-38
-0.026990671 0.05583043 0.82599998 1.8623142e-38
-0.024091084 0.055695247 0.824 1.843875e-38
-0.021256847 0.055695247 0.824 2.092478e-38
-0.018422585 0.055695247 0.824 2.1201367e-38
-0.01558835 0.055695247 0.824 2.0826706e-38
-0.012521939 0.054681376 0.80900002 2.2578423e-38
-0.0096911173 0.054411009 0.80500001 2.046126e-38
-0.0069050356 0.054275829 0.80299997 1.4468544e-38
-0.0041430318 0.054275829 0.80299997 1.6957445e-38
-0.0013810281 0.054275829 0.80299997 1.4836945e-38
0.0013809756 0.054275829 0.80299997 1.437449e-38
0.0041533508 0.054411009 0.80500001 1.6402794e-38
0.0069394317 0.054546189 0.80699998 1.7232189e-38
0.0097392714 0.054681376 0.80900002 1.2438016e-38
0.01255287 0.054816555 0.81099999 1.529494e-38
0.015380226 0.054951742 0.81300002 1.6677875e-38
0.018176626 0.054951742 0.81300002 2.0092812e-38
0.020973027 0.054951742 0.81300002 2.0738182e-38
0.023769479 0.054951742 0.81300002 1.8530943e-38
-0.029831814 0.052967351 0.82599998 2.0190843e-38
-0.026990671 0.052967351 0.82599998 2.2770876e-38
-0.024091084 0.052839104 0.824 2.3509161e-38
-0.021256847 0.052839104 0.824 2.341769e-38
-0.01837787 0.052710854 0.82200003 2.2772321e-38
-0.015550514 0.052710854 0.82200003 2.1560426e-38
-0.012521939 0.051877223 0.80900002 1.9071144e-38
-0.0097392714 0.051877223 0.80900002 2.0087415e-38
-0.0069222338 0.051620722 0.80500001 1.7782524e-38
-0.0041533508 0.051620722 0.80500001 1.658722e-38
-0.0013810281 0.051492475 0.80299997 1.575746e-38
0.0013809756 0.051492475 0.80299997 1.557055e-38
0.0041533508 0.051620722 0.80500001 1.4003225e-38
0.0069394317 0.051748972 0.80699998 1.8520785e-38
0.0097392714 0.051877223 0.80900002 1.2251482e-38
0.012521913 0.051877223 0.80900002 1.2072486e-38
0.015304554 0.051877223 0.80900002 1.7973006e-38
0.01813191 0.052005474 0.81099999 1.9169392e-38
0.020869838 0.051877223 0.80900002 1.8524022e-38
0.023652531 0.051877223 0.80900002 1.8529854e-38
-0.039005272 0.050953496 0.83999997 2.323258e-38
-0.036115974 0.050953496 0.83999997 2.3509167e-38
-0.032989372 0.050589547 0.83399999 2.341769e-38
-0.029831814 0.050104275 0.82599998 2.341769e-38
-0.026990671 0.050104275 0.82599998 2.3325494e-38
-0.024091084 0.049982958 0.824 2.3141103e-38
-0.021256847 0.049982958 0.824 2.3141103e-38
-0.01837787 0.049861643 0.82200003 2.3233299e-38
-0.015474843 0.049619004 0.81800002 2.341769e-38
-0.012614809 0.049437024 0.815 1.604204e-38
-0.0097392714 0.049073074 0.80900002 1.6121175e-38
-0.0069394317 0.048951752 0.80699998 1.8610457e-38
-0.0041636694 0.048951752 0.80699998 1.6216302e-38
-0.0013879074 0.048951752 0.80699998 1.4741172e-38
0.0013844152 0.048830435 0.80500001 1.436739e-38
0.0041533508 0.048830435 0.80500001 1.2062499e-38
0.0069566299 0.049073074 0.80900002 1.9441309e-38
0.0097392714 0.049073074 0.80900002 1.8058375e-38
0.012490956 0.048951752 0.80699998 1.9718349e-38
0.015266717 0.048951752 0.80699998 2.2668609e-38
0.018042481 0.048951752 0.80699998 2.3044945e-38
0.020818243 0.048951752 0.80699998 2.2860553e-38
0.023594057 0.048951752 0.80699998 1.9079814e-38
-0.041595295 0.047698699 0.83399999 2.3508809e-38
-0.038726665 0.047698699 0.83399999 2.3325494e-38
-0.035858005 0.047698699 0.83399999 2.3141103e-38
-0.032989372 0.047698699 0.83399999 2.3233299e-38
-0.029976277 0.047469929 0.82999998 2.3141103e-38
-0.027056023 0.047355544 0.82800001 2.3325494e-38
-0.024091084 0.047126774 0.824 2.3325494e-38
-0.021205254 0.047012389 0.82200003 2.3141103e-38
-0.018333154 0.046898 0.81999999 2.2864516e-38
-0.015455923 0.046726421 0.81699997 2.341769e-38
-0.012583853 0.046497654 0.81300002 1.9914256e-38
-0.0097392714 0.04626888 0.80900002 1.8506084e-38
-0.0069566299 0.04626888 0.80900002 2.3486449e-38
-0.0041636694 0.046154492 0.80699998 1.7038539e-38
-0.0013879074 0.046154492 0.80699998 1.4364866e-38
0.0013878547 0.046154492 0.80699998 1.9159064e-38
0.0041636694 0.046154492 0.80699998 1.8144912e-38
0.0069566299 0.04626888 0.80900002 2.045552e-38
0.0097151939 0.046154492 0.80699998 2.3499417e-38
0.01246 0.04604011 0.80500001 2.2395266e-38
0.015228883 0.04604011 0.80500001 2.3040636e-38
0.017953051 0.045925725 0.80299997 2.341769e-38
0.020663461 0.045811336 0.801 2.341769e-38
0.023330927 0.045639761 0.79799998 2.341769e-38
0.025879676 0.045296606 0.792 2.0283039e-38
0.028603842 0.045296606 0.792 1.815821e-38
-0.044783808 0.045130204 0.83999997 2.341769e-38
-0.041595295 0.044807851 0.83399999 2.3325494e-38
-0.038726665 0.044807851 0.83399999 2.2772321e-38
-0.035858005 0.044807851 0.83399999 2.341769e-38
-0.032989372 0.044807851 0.83399999 2.2679409e-38
-0.03004851 0.044700395 0.83200002 2.1480866e-38
-0.027056023 0.044485494 0.82800001 2.341769e-38
-0.024091084 0.044270586 0.824 2.2034756e-38
-0.021205254 0.044163138 0.82200003 2.1842814e-38
-0.018333154 0.044055682 0.81999999 2.2027205e-38
-0.015455923 0.0438945 0.81699997 2.3325494e-38
-0.012583853 0.043679595 0.81300002 2.341769e-38
-0.0097392714 0.04346469 0.80900002 2.2489983e-38
-0.0069566299 0.04346469 0.80900002 2.1014853e-38
-0.0041636694 0.043357234 0.80699998 2.1470078e-38
-0.0013879074 0.043357234 0.80699998 1.9902753e-38
0.0013878547 0.043357234 0.80699998 1.7963036e-38
0.0041636694 0.043357234 0.80699998 1.7409862e-38
0.0069394317 0.043357234 0.80699998 2.248566e-38
0.0097151939 0.043357234 0.80699998 2.3501252e-38
0.012429043 0.04314233 0.80299997 2.1196013e-38
0.015153212 0.043034878 0.801 2.3501984e-38
0.01786362 0.042927425 0.79900002 2.3325494e-38
0.020534474 0.042766247 0.796 2.3141103e-38
0.023155507 0.042551339 0.792 2.3141103e-38
0.025814323 0.04244389 0.79000002 2.341769e-38
0.028531611 0.04244389 0.79000002 2.3136009e-38
0.031248901 0.04244389 0.79000002 1.9448184e-38
0.033837203 0.042282708 0.787 1.8162164e-38
0.036544174 0.042282708 0.787 1.8254359e-38
-0.044783808 0.042218603 0.83999997 2.3139308e-38
-0.04189454 0.042218603 0.83999997 2.2493939e-38
-0.038819533 0.042017564 0.83600003 2.1936809e-38
-0.035858005 0.041917045 0.83399999 2.3504855e-38
-0.032989372 0.041917045 0.83399999 2.1475098e-38
-0.03004851 0.041816521 0.83200002 2.2581446e-38
-0.027056023 0.041615486 0.82800001 2.3414463e-38
-0.024091084 0.041414443 0.824 1.9357855e-38
-0.021205254 0.041313924 0.82200003 2.1194934e-38
-0.018333154 0.041213401 0.81999999 2.2670064e-38
-0.015455923 0.041062616 0.81699997 2.3140384e-38
-0.012583853 0.040861581 0.81300002 2.3416971e-38
-0.0097392714 0.040660538 0.80900002 2.2954561e-38
-0.0069394317 0.040560015 0.80699998 2.1479431e-38
-0.0041636694 0.040560015 0.80699998 2.0458798e-38
-0.0013879074 0.040560015 0.80699998 1.704756e-38
0.0013878547 0.040560015 0.80699998 1.7775398e-38
0.0041636694 0.040560015 0.80699998 1.6576855e-38
0.0069394317 0.040560015 0.80699998 2.2483874e-38
0.0097151939 0.040560015 0.80699998 2.1838505e-38
0.012398086 0.040258456 0.801 2.2491433e-38
0.015115376 0.040157937 0.79900002 2.3507733e-38
0.017796548 0.040007155 0.796 2.3141103e-38
0.020431288 0.039806113 0.792 2.3233299e-38
0.023097035 0.039705593 0.79000002 2.341769e-38
0.025814323 0.039705593 0.79000002 2.1204995e-38
0.028531611 0.039705593 0.79000002 1.3164044e-38
0.031169787 0.03960507 0.78799999 2.2567978e-38
0.033837203 0.039554816 0.787 1.8896455e-38
0.036451306 0.039454296 0.78500003 1.815889e-38
0.039151445 0.039454296 0.78500003 1.7149431e-38
0.041851539 0.039454296 0.78500003 1.8071387e-38
-0.044677183 0.039213371 0.838 2.0091785e-38
-0.041794792 0.039213371 0.838 2.2396676e-38
-0.038726665 0.039026197 0.83399999 2.2025407e-38
-0.035772014 0.038932607 0.83200002 2.3316146e-38
-0.032910261 0.038932607 0.83200002 2.1012337e-38
-0.029976277 0.03883902 0.82999998 2.2487467e-38
-0.027121376 0.03883902 0.82999998 2.2301994e-38
-0.024149556 0.038651846 0.82599998 1.879856e-38
-0.021256847 0.03855826 0.824 2.110383e-38
-0.01837787 0.038464673 0.82200003 2.3502711e-38
-0.015474843 0.038277496 0.81800002 2.3233299e-38
-0.012614809 0.038137108 0.815 2.2956712e-38
-0.0097151939 0.037762757 0.80699998 2.2492146e-38
-0.0069394317 0.037762757 0.80699998 2.1017016e-38
-0.0041533508 0.037669171 0.80500001 2.0087492e-38
-0.0013844678 0.037669171 0.80500001 1.7229427e-38
0.0013878547 0.037762757 0.80699998 1.7685e-38
0.0041636694 0.037762757 0.80699998 1.6486457e-38
0.0069394317 0.037762757 0.80699998 2.2854112e-38
0.0097151939 0.037762757 0.80699998 1.9627265e-38
0.012398086 0.037481993 0.801 2.341769e-38
0.015115376 0.037388407 0.79900002 2.3325494e-38
0.017796548 0.037248023 0.796 2.341769e-38
0.020431288 0.037060849 0.792 2.341769e-38
0.023097035 0.036967263 0.79000002 2.2395963e-38
0.025814323 0.036967263 0.79000002 9.9495526e-39
0.028531611 0.036967263 0.79000002 1.9907066e-38
0.031169787 0.036873672 0.78799999 2.3507016e-38
0.033837203 0.036826879 0.787 2.0834045e-38
0.036451306 0.036733292 0.78500003 2.2309175e-38
0.039151445 0.036733292 0.78500003 1.9819504e-38
0.041744906 0.036639702 0.78299999 1.8067787e-38
0.04443812 0.036639702 0.78299999 1.7885577e-38
-0.041695043 0.036222044 0.83600003 1.7978829e-38
-0.038726665 0.03613539 0.83399999 1.9537189e-38
-0.035772014 0.036048733 0.83200002 2.0643537e-38
-0.032910261 0.036048733 0.83200002 2.1194568e-38
-0.029976277 0.035962079 0.82999998 2.1747742e-38
-0.027121376 0.035962079 0.82999998 2.1376072e-38
-0.024149556 0.035788767 0.82599998 2.100729e-38
-0.021256847 0.035702113 0.824 2.3045323e-38
-0.01837787 0.035615459 0.82200003 2.3508092e-38
-0.015474843 0.035442147 0.81800002 2.3141103e-38
-0.012583853 0.035225507 0.81300002 2.3048907e-38
-0.0097151939 0.034965537 0.80699998 2.2584702e-38
-0.0069394317 0.034965537 0.80699998 2.1386159e-38
-0.0041533508 0.034878884 0.80500001 1.9811633e-38
-0.0013844678 0.034878884 0.80500001 1.6676982e-38
0.0013878547 0.034965537 0.80699998 1.7316581e-38
0.0041636694 0.034965537 0.80699998 1.7408776e-38
0.0069394317 0.034965537 0.80699998 2.3225052e-38
0.0097151939 0.034965537 0.80699998 1.9168444e-38
0.012429043 0.03479223 0.80299997 2.2857346e-38
0.015153212 0.034705572 0.801 1.9722694e-38
0.017796548 0.034488935 0.796 2.341769e-38
0.020431288 0.034315623 0.792 2.3325494e-38
0.023097035 0.034228966 0.79000002 1.4275756e-38
0.025814323 0.034228966 0.79000002 1.5382087e-38
0.028531611 0.034228966 0.79000002 2.3323699e-38
0.031169787 0.034142312 0.78799999 1.8806113e-38
0.033751212 0.034012329 0.78500003 2.341769e-38
0.036451306 0.034012329 0.78500003 2.3233299e-38
0.039151445 0.034012329 0.78500003 2.332438e-38
0.041744906 0.033925671 0.78299999 1.9175577e-38
0.04443812 0.033925671 0.78299999 1.8253993e-38
-0.041695043 0.033324264 0.83600003 1.9268874e-38
-0.038819533 0.033324264 0.83600003 1.8253268e-38
-0.029976277 0.033085097 0.82999998 1.8251132e-38
-0.027121376 0.033085097 0.82999998 1.7238412e-38
-0.02420803 0.033005375 0.82800001 1.8805738e-38
-0.021256847 0.032845929 0.824 2.341769e-38
-0.018333154 0.032686479 0.81999999 2.3141103e-38
-0.015455923 0.032566894 0.81699997 2.3141103e-38
-0.012583853 0.032407451 0.81300002 2.2956712e-38
-0.0097151939 0.032168277 0.80699998 2.2676898e-38
-0.0069394317 0.032168277 0.80699998 2.1386159e-38
-0.0041533508 0.032088555 0.80500001 1.9903829e-38
-0.0013844678 0.032088555 0.80500001 1.6308199e-38
0.0013878547 0.032168277 0.80699998 1.6486114e-38
0.0041636694 0.032168277 0.80699998 1.8422222e-38
0.0069394317 0.032168277 0.80699998 2.313214e-38
0.0097151939 0.032168277 0.80699998 1.8245772e-38
0.012429043 0.032008834 0.80299997 1.9992072e-38
0.015153212 0.031929109 0.801 1.9254507e-38
0.017841263 0.031809524 0.79799998 2.2762266e-38
0.020482883 0.031650081 0.79400003 1.9812006e-38
0.023155507 0.031570356 0.792 1.3909957e-38
0.025814323 0.031490635 0.79000002 1.5016305e-38
0.028531611 0.031490635 0.79000002 2.101301e-38
0.031130234 0.03137105 0.787 1.658762e-38
0.033751212 0.031291328 0.78500003 2.3322595e-38
0.036451306 0.031291328 0.78500003 2.0556726e-38
0.039051697 0.031211603 0.78299999 1.8522143e-38
0.041744906 0.031211603 0.78299999 1.3727972e-38
0.04443812 0.031211603 0.78299999 1.8069955e-38
-0.026859967 0.029916953 0.82200003 1.8900808e-38
-0.02403261 0.029916953 0.82200003 1.9730568e-38
-0.021205254 0.029916953 0.82200003 2.341769e-38
-0.018288441 0.029771371 0.81800002 2.3141103e-38
-0.015455923 0.029734973 0.81699997 2.3141103e-38
-0.012583853 0.029589394 0.81300002 2.3233299e-38
-0.0097151939 0.029371019 0.80699998 2.2492506e-38
-0.0069394317 0.029371019 0.80699998 2.157055e-38
-0.0041533508 0.029298229 0.80500001 1.9535772e-38
-0.0013844678 0.029298229 0.80500001 1.5847947e-38
0.0013844152 0.029298229 0.80500001 1.5566313e-38
0.0041636694 0.029371019 0.80699998 1.9346334e-38
0.0069566299 0.029443812 0.80900002 2.1378634e-38
0.0097151939 0.029371019 0.80699998 1.3818592e-38
0.01246 0.029298229 0.80500001 1.7140822e-38
0.015191047 0.029225441 0.80299997 1.76018e-38
0.01786362 0.029079858 0.79900002 1.7700832e-38
0.020482883 0.028897883 0.79400003 1.7424245e-38
0.023155507 0.028825091 0.792 1.8346552e-38
0.025814323 0.028752301 0.79000002 1.8254356e-38
0.028531611 0.028752301 0.79000002 1.8068876e-38
0.031130234 0.028643116 0.787 1.6317159e-38
0.033751212 0.028570326 0.78500003 1.8253258e-38
0.036451306 0.028570326 0.78500003 1.6778128e-38
0.039051697 0.028497534 0.78299999 1.3921778e-38
0.041744906 0.028497534 0.78299999 1.5028126e-38
-0.02403261 0.027067741 0.82200003 1.8346918e-38
-0.021205254 0.027067741 0.82200003 2.341769e-38
-0.018288441 0.026936024 0.81800002 2.3141103e-38
-0.015455923 0.026903091 0.81699997 2.3141103e-38
-0.012583853 0.026771378 0.81300002 2.3141103e-38
-0.0097151939 0.0265738 0.80699998 2.2493585e-38
-0.0069394317 0.0265738 0.80699998 2.1295042e-38
-0.0041533508 0.026507944 0.80500001 1.9812728e-38
-0.0013844678 0.026507944 0.80500001 1.5571729e-38
0.0013844152 0.026507944 0.80500001 1.5843603e-38
0.0041636694 0.0265738 0.80699998 1.7318733e-38
0.0069394317 0.0265738 0.80699998 2.1654499e-38
0.0097151939 0.0265738 0.80699998 1.3264697e-38
0.012490956 0.0265738 0.80699998 1.8711735e-38
0.015266717 0.0265738 0.80699998 1.9172713e-38
0.018042481 0.0265738 0.80699998 1.7793741e-38
-0.02403261 0.024218528 0.82200003 1.9730203e-38
-0.021205254 0.024218528 0.82200003 2.341769e-38
-0.018288441 0.024100676 0.81800002 2.3141103e-38
-0.015455923 0.024071211 0.81699997 2.2863797e-38
-0.012583853 0.02395336 0.81300002 2.2771602e-38
-0.0097392714 0.023835508 0.80900002 2.2677977e-38
-0.0069394317 0.023776582 0.80699998 2.1571629e-38
-0.0041636694 0.023776582 0.80699998 2.0090757e-38
-0.0013879074 0.023776582 0.80699998 1.6495127e-38
0.0013878547 0.023776582 0.80699998 1.6120909e-38
0.0041636694 0.023776582 0.80699998 1.7042865e-38
0.0069394317 0.023776582 0.80699998 2.2210177e-38
0.0097151939 0.023776582 0.80699998 1.5295505e-38
0.012490956 0.023776582 0.80699998 1.8251107e-38
0.015266717 0.023776582 0.80699998 1.8988672e-38
0.018042481 0.023776582 0.80699998 1.8161447e-38
-0.02403261 0.021369275 0.82200003 2.1113137e-38
-0.021205254 0.021369275 0.82200003 2.341769e-38
-0.018288441 0.021265289 0.81800002 2.3141103e-38
-0.015455923 0.02123929 0.81699997 2.2863797e-38
-0.012614809 0.021187296 0.815 2.2495015e-38
-0.0097392714 0.021031316 0.80900002 2.2584342e-38
-0.0069394317 0.020979322 0.80699998 2.1662386e-38
-0.0041636694 0.020979322 0.80699998 2.1011621e-38
-0.0013879074 0.020979322 0.80699998 1.8891122e-38
0.0013878547 0.020979322 0.80699998 1.8057042e-38
0.0041636694 0.020979322 0.80699998 1.9071194e-38
0.0069394317 0.020979322 0.80699998 2.02701e-38
0.0097151939 0.020979322 0.80699998 1.5199341e-38
0.012490956 0.020979322 0.80699998 1.778905e-38
0.015266717 0.020979322 0.80699998 1.9079788e-38
0.018042481 0.020979322 0.80699998 1.7978135e-38
-0.021102065 0.0184299 0.81800002 2.341769e-38
-0.018288441 0.0184299 0.81800002 2.3233299e-38
-0.015455923 0.018407367 0.81699997 2.2771605e-38
-0.012614809 0.018362308 0.815 2.2587213e-38
-0.0097392714 0.018227125 0.80900002 2.2214125e-38
-0.0069394317 0.018182063 0.80699998 2.1292168e-38
-0.0041636694 0.018182063 0.80699998 2.1841013e-38
-0.0013879074 0.018182063 0.80699998 1.981271e-38
0.0013878547 0.018182063 0.80699998 1.7872661e-38
0.0041636694 0.018182063 0.80699998 1.7503878e-38
0.0069394317 0.018182063 0.80699998 1.6490045e-38
0.0097151939 0.018182063 0.80699998 1.363198e-38
0.012521913 0.018227125 0.80900002 1.6496509e-38
0.015304554 0.018227125 0.80900002 1.9815551e-38
0.018087195 0.018227125 0.80900002 1.8162524e-38
-0.021153659 0.015632682 0.81999999 2.341769e-38
-0.018288441 0.015594553 0.81800002 2.341769e-38
-0.015455923 0.015575487 0.81699997 2.341769e-38
-0.012614809 0.015537359 0.815 2.2587929e-38
-0.0097392714 0.015422974 0.80900002 2.2582184e-38
-0.0069566299 0.015422974 0.80900002 2.1014858e-38
-0.0041636694 0.015384845 0.80699998 2.1379675e-38
-0.0013879074 0.015384845 0.80699998 2.0365523e-38
0.0013878547 0.015384845 0.80699998 1.8335071e-38
0.0041636694 0.015384845 0.80699998 1.6767745e-38
0.0069394317 0.015384845 0.80699998 1.6029429e-38
0.0097392714 0.015422974 0.80900002 1.4462104e-38
0.012521913 0.015422974 0.80900002 1.5114656e-38
0.015304554 0.015422974 0.80900002 1.9724438e-38
0.018087195 0.015422974 0.80900002 1.7977769e-38
0.020973027 0.01549923 0.81300002 1.7977769e-38
-0.021153659 0.01279036 0.81999999 1.4568351e-38
-0.018288441 0.012759165 0.81800002 1.438396e-38
-0.015455923 0.012743565 0.81699997 1.9541546e-38
-0.012645765 0.012743565 0.81699997 2.1293263e-38
-0.0097633488 0.012649978 0.81099999 2.3039925e-38
-0.0069566299 0.012618782 0.80900002 2.230236e-38
-0.0041739885 0.012618782 0.80900002 2.2024326e-38
-0.0013913471 0.012618782 0.80900002 2.1839934e-38
0.0013912943 0.012618782 0.80900002 2.0822901e-38
0.0041739885 0.012618782 0.80900002 1.8333619e-38
0.0069566299 0.012618782 0.80900002 1.5017786e-38
0.0097392714 0.012618782 0.80900002 1.0315809e-38
0.012521913 0.012618782 0.80900002 1.6407923e-38
0.01534239 0.012649978 0.81099999 1.9081596e-38
0.018176626 0.012681174 0.81300002 1.7886646e-38
0.020973027 0.012681174 0.81300002 1.779445e-38
-0.021153659 0.0099480804 0.81999999 1.4934635e-38
-0.018333154 0.0099480804 0.81999999 1.0232658e-38
-0.015474843 0.0099238176 0.81800002 7.8385077e-39
-0.012645765 0.0099116843 0.81699997 8.1150946e-39
-0.0097874263 0.0098631578 0.81300002 7.2838667e-39
-0.0069738282 0.009838894 0.81099999 6.730693e-39
-0.0041843075 0.009838894 0.81099999 7.4657259e-39
-0.0013947869 0.009838894 0.81099999 7.7423127e-39
0.0013912943 0.0098146303 0.80900002 7.9281431e-39
0.0041739885 0.0098146303 0.80900002 5.3466655e-39
0.0069566299 0.0098146303 0.80900002 1.1088419e-39
0.0097392714 0.0098146303 0.80900002 1.793662e-42
0.01255287 0.009838894 0.81099999 1.4290297e-38
0.015380226 0.0098631578 0.81300002 1.8439101e-38
0.018221339 0.0098874215 0.815 1.7702615e-38
0.021076214 0.0099116843 0.81699997 1.7702615e-38
-0.021153659 0.0071057603 0.81999999 1.3924465e-38
-0.018333154 0.0071057603 0.81999999 1.2633726e-38
-0.015474843 0.0070884293 0.81800002 1.1802897e-38
-0.012645765 0.0070797629 0.81699997 1.0327767e-38
-0.0098115029 0.0070624324 0.815 9.2206868e-39
-0.0069910265 0.0070451014 0.81300002 8.8519043e-39
-0.0041946266 0.0070451014 0.81300002 1.0235574e-38
-0.0013947869 0.0070277699 0.81099999 1.0051183e-38
0.0013912943 0.0070104389 0.80900002 9.8653472e-39
0.0041739885 0.0070104389 0.80900002 8.1136302e-39
0.0069566299 0.0070104389 0.80900002 4.6108759e-39
0.0097633488 0.0070277699 0.81099999 2.7669633e-39
0.01255287 0.0070277699 0.81099999 1.4473266e-38
0.015380226 0.0070451014 0.81300002 1.8714265e-38
0.018266054 0.0070797629 0.81699997 1.7793734e-38
0.021076214 0.0070797629 0.81699997 1.7793734e-38
-0.021205254 0.0042738388 0.82200003 1.337022e-38
-0.01837787 0.0042738388 0.82200003 1.2171677e-38
-0.015474843 0.0042530415 0.81800002 1.1527024e-38
-0.012645765 0.0042478419 0.81699997 1.0236285e-38
-0.0098115029 0.0042374432 0.815 9.2206896e-39
-0.0070082243 0.0042374432 0.815 9.5894721e-39
-0.0041946266 0.0042270445 0.81300002 1.0512161e-38
-0.0013982266 0.0042270445 0.81300002 1.0051183e-38
0.0013947338 0.0042166458 0.81099999 1.0234839e-38
0.0041739885 0.0042062472 0.80900002 7.3767742e-39
0.0069566299 0.0042062472 0.80900002 5.71652e-39
0.0097633488 0.0042166458 0.81099999 4.2413899e-39
0.012583827 0.0042270445 0.81300002 1.1432236e-38
0.015418061 0.0042374432 0.815 1.871569e-38
0.018266054 0.0042478419 0.81699997 1.7793731e-38
-0.024091084 0.0014280927 0.824 1.6686665e-38
-0.021153659 0.0014211602 0.81999999 1.3461337e-38
-0.018333154 0.0014211602 0.81999999 1.1986207e-38
-0.015474843 0.0014176939 0.81800002 1.0236274e-38
-0.012645765 0.0014159607 0.81699997 9.9596868e-39
-0.0098355804 0.0014159607 0.81699997 8.9455517e-39
-0.0070082243 0.0014124945 0.815 1.0051899e-38
-0.0042049452 0.0014124945 0.815 1.0419963e-38
-0.0013982266 0.0014090283 0.81300002 1.0235572e-38
0.0013981734 0.0014090283 0.81300002 8.6686089e-39
0.0041843075 0.0014055619 0.81099999 6.3637181e-39
0.0069738282 0.0014055619 0.81099999 5.3488263e-39
0.0097874263 0.0014090283 0.81300002 4.6112613e-39
0.012583827 0.0014090283 0.81300002 7.28524e-39
0.015418061 0.0014124945 0.815 1.825652e-38
0.018266054 0.0014159607 0.81699997 1.7702255e-38
-0.021256847 -0.0014280927 0.824 1.3826868e-38
-0.018333154 -0.0014211602 0.81999999 1.189076e-38
-0.015474843 -0.0014176939 0.81800002 8.4863756e-39
-0.012645765 -0.0014159607 0.81699997 9.131745e-39
-0.0098355804 -0.0014159607 0.81699997 1.0142643e-38
-0.0070254221 -0.0014159607 0.81699997 9.8660562e-39
-0.0042049452 -0.0014124945 0.815 1.115573e-38
-0.0013982266 -0.0014090283 0.81300002 1.0786948e-38
0.0013981734 -0.0014090283 0.81300002 8.4838645e-39
0.0041946266 -0.0014090283 0.81300002 6.7321475e-39
0.0069910265 -0.0014090283 0.81300002 6.455527e-39
0.0097874263 -0.0014090283 0.81300002 5.2569838e-39
0.012583827 -0.0014090283 0.81300002 5.9923628e-39
0.015418061 -0.0014124945 0.815 1.8254382e-38
0.018266054 -0.0014159607 0.81699997 1.7701533e-38
-0.021256847 -0.0042842375 0.824 1.1251151e-38
-0.01837787 -0.0042738388 0.82200003 9.4072389e-39
-0.015512677 -0.0042634401 0.81999999 1.0233777e-38
-0.012645765 -0.0042478419 0.81699997 1.1524515e-38
-0.0098355804 -0.0042478419 0.81699997 1.0973476e-38
-0.0070082243 -0.0042374432 0.815 9.4983457e-39
-0.0042049452 -0.0042374432 0.815 1.0972774e-38
-0.0013982266 -0.0042270445 0.81300002 9.9586218e-39
0.0013947338 -0.0042166458 0.81099999 9.3146943e-39
0.0041843075 -0.0042166458 0.81099999 7.655173e-39
0.0069738282 -0.0042166458 0.81099999 6.455527e-39
0.0097874263 -0.0042270445 0.81300002 5.9945488e-39
0.012614782 -0.0042374432 0.815 4.0580525e-39
0.015418061 -0.0042374432 0.815 1.7703006e-38
0.018266054 -0.0042478419 0.81699997 1.7701183e-38
0.021076214 -0.0042478419 0.81699997 1.7240204e-38
0.023827951 -0.0042374432 0.815 1.7333835e-38
0.02663123 -0.0042374432 0.815 1.7333835e-38
-0.021256847 -0.0071404227 0.824 1.1710699e-38
-0.01837787 -0.0071230917 0.82200003 1.0512156e-38
-0.015512677 -0.0071057603 0.81999999 1.1157165e-38
-0.012661245 -0.0070884293 0.81800002 1.189473e-38
-0.0098355804 -0.0070797629 0.81699997 1.1803962e-38
-0.0070082243 -0.0070624324 0.815 9.5912672e-39
-0.0041946266 -0.0070451014 0.81300002 1.2169858e-38
-0.0013947869 -0.0070277699 0.81099999 1.0786924e-38
0.0013947338 -0.0070277699 0.81099999 1.014156e-38
0.0041843075 -0.0070277699 0.81099999 7.6522779e-39
0.0069738282 -0.0070277699 0.81099999 6.2711357e-39
0.0097874263 -0.0070451014 0.81300002 5.8101576e-39
0.012614782 -0.0070624324 0.815 4.334289e-39
0.015418061 -0.0070624324 0.815 1.7426068e-38
0.018266054 -0.0070797629 0.81699997 1.7424959e-38
0.021024618 -0.0070624324 0.815 1.7424959e-38
0.023769479 -0.0070451014 0.81300002 1.7333479e-38
0.02656588 -0.0070451014 0.81300002 1.7241283e-38
-0.026990671 -0.010020831 0.82599998 1.631791e-38
-0.024149556 -0.010020831 0.82599998 1.2722281e-38
-0.021256847 -0.0099965669 0.824 9.5016065e-39
-0.01837787 -0.0099723041 0.82200003 1.0607954e-38
-0.015512677 -0.0099480404 0.81999999 1.0880941e-38
-0.012661245 -0.0099237766 0.81800002 1.0788745e-38
-0.0098355804 -0.0099116443 0.81699997 1.0882376e-38
-0.0069910265 -0.0098631177 0.81300002 1.1066767e-38
-0.0041946266 -0.0098631177 0.81300002 1.1708167e-38
-0.0013947869 -0.009838854 0.81099999 1.1062797e-38
0.0013947338 -0.009838854 0.81099999 8.3909262e-39
0.0041843075 -0.009838854 0.81099999 6.2704267e-39
0.0069738282 -0.009838854 0.81099999 6.7303062e-39
0.0097874263 -0.0098631177 0.81300002 5.6239586e-39
0.012614782 -0.0098873805 0.815 3.2301093e-39
0.015418061 -0.0098873805 0.815 1.6414084e-38
0.018266054 -0.0099116443 0.81699997 1.7517154e-38
0.021024618 -0.0098873805 0.815 1.7424959e-38
0.023769479 -0.0098631177 0.81300002 1.7333472e-38
0.02656588 -0.0098631177 0.81300002 1.7333472e-38
-0.026990671 -0.012883948 0.82599998 1.4291787e-38
-0.024149556 -0.012883948 0.82599998 1.1986896e-38
-0.021256847 -0.012852753 0.824 1.2723412e-38
-0.01837787 -0.012821557 0.82200003 1.1985847e-38
-0.015474843 -0.012759165 0.81800002 1.1524866e-38
-0.012645765 -0.012743565 0.81699997 1.1985844e-38
-0.0098355804 -0.012743565 0.81699997 1.2909228e-38
-0.0069910265 -0.012681174 0.81300002 1.1157511e-38
-0.0041946266 -0.012681174 0.81300002 1.1248282e-38
-0.0013947869 -0.012649978 0.81099999 9.404369e-39
0.0013947338 -0.012649978 0.81099999 8.7586129e-39
0.0041843075 -0.012649978 0.81099999 7.1912872e-39
0.0069738282 -0.012649978 0.81099999 7.1919906e-39
0.0097874263 -0.012681174 0.81300002 6.6388168e-39
0.012614782 -0.01271237 0.815 2.4018144e-39
0.015418061 -0.01271237 0.815 1.5401398e-38
0.018266054 -0.012743565 0.81699997 1.7516794e-38
0.021076214 -0.012743565 0.81699997 1.7332403e-38
-0.024149556 -0.015747026 0.82599998 1.3276932e-38
-0.021256847 -0.015708897 0.824 1.3370936e-38
-0.01837787 -0.015670769 0.82200003 1.2817763e-38
-0.015474843 -0.015594512 0.81800002 1.2725921e-38
-0.012645765 -0.015575446 0.81699997 1.3094704e-38
-0.0098115029 -0.015537319 0.815 1.1801455e-38
-0.0069910265 -0.01549919 0.81300002 1.1617064e-38
-0.0041843075 -0.015461061 0.81099999 1.1156809e-38
-0.0013947869 -0.015461061 0.81099999 9.4972877e-39
0.0013947338 -0.015461061 0.81099999 7.099795e-39
0.0041946266 -0.01549919 0.81300002 7.3763819e-39
0.0069910265 -0.01549919 0.81300002 6.9164925e-39
0.0098115029 -0.015537319 0.815 5.9023406e-39
0.012614782 -0.015537319 0.815 3.6875127e-39
0.015418061 -0.015537319 0.815 1.641051e-38
0.018266054 -0.015575446 0.81699997 1.7332763e-38
0.021076214 -0.015575446 0.81699997 1.7148372e-38
-0.024091084 -0.018565083 0.824 1.1618503e-38
-0.021256847 -0.018565083 0.824 1.2355708e-38
-0.01837787 -0.018520022 0.82200003 1.2355708e-38
-0.015455923 -0.018407367 0.81699997 1.1618503e-38
-0.012645765 -0.018407367 0.81699997 1.1618503e-38
-0.0098115029 -0.018362308 0.815 1.1434831e-38
-0.0069910265 -0.018317247 0.81300002 1.1527027e-38
-0.0041843075 -0.018272186 0.81099999 1.060507e-38
-0.0013947869 -0.018272186 0.81099999 7.2860275e-39
0.0013947338 -0.018272186 0.81099999 7.0980069e-39
0.0041946266 -0.018317247 0.81300002 7.2823982e-39
0.0069910265 -0.018317247 0.81300002 7.099795e-39
0.0098115029 -0.018362308 0.815 6.9154037e-39
0.012614782 -0.018362308 0.815 2.95247e-39
0.015418061 -0.018362308 0.815 1.5952054e-38
0.018221339 -0.018362308 0.815 1.7241283e-38
-0.02975958 -0.021421228 0.824 1.733275e-38
-0.026925318 -0.021421228 0.824 1.3279095e-38
-0.024091084 -0.021421228 0.824 1.0789813e-38
-0.021205254 -0.021369236 0.82200003 1.2263513e-38
-0.018333154 -0.02131724 0.81999999 1.3462056e-38
-0.015455923 -0.021239249 0.81699997 1.1895456e-38
-0.012614809 -0.021187257 0.815 1.1342282e-38
-0.0098115029 -0.021187257 0.815 1.1157525e-38
-0.0069910265 -0.021135263 0.81300002 1.0973134e-38
-0.0041843075 -0.021083269 0.81099999 1.0236276e-38
-0.0013947869 -0.021083269 0.81099999 6.8250382e-39
0.0013981734 -0.021135263 0.81300002 6.9147003e-39
0.0041946266 -0.021135263 0.81300002 6.6381134e-39
0.0070082243 -0.021187257 0.815 6.4547885e-39
0.0098115029 -0.021187257 0.815 6.1782016e-39
0.012614782 -0.021187257 0.815 2.2174231e-39
0.015418061 -0.021187257 0.815 1.4848224e-38
0.018221339 -0.021187257 0.815 1.7517144e-38
-0.02975958 -0.024277413 0.824 1.6779579e-38
-0.026925318 -0.024277413 0.824 1.3278011e-38
-0.024091084 -0.024277413 0.824 1.1157511e-38
-0.021205254 -0.024218488 0.82200003 1.0974584e-38
-0.018333154 -0.02415956 0.81999999 1.2726301e-38
-0.015455923 -0.02407117 0.81699997 1.1803976e-38
-0.012614809 -0.024012245 0.815 1.088202e-38
-0.0098115029 -0.024012245 0.815 1.1433752e-38
-0.0069738282 -0.023894394 0.81099999 1.1802534e-38
-0.0041843075 -0.023894394 0.81099999 1.0050801e-38
-0.0013947869 -0.023894394 0.81099999 5.6254104e-39
0.0013981734 -0.02395332 0.81300002 7.0990915e-39
0.0042049452 -0.024012245 0.815 6.3615265e-39
0.0070082243 -0.024012245 0.815 6.364032e-39
0.0098115029 -0.024012245 0.815 6.1796407e-39
0.012614782 -0.024012245 0.815 4.0584504e-39
0.015418061 -0.024012245 0.815 1.6320469e-38
0.018221339 -0.024012245 0.815 1.7149075e-38
-0.029831814 -0.027199455 0.82599998 1.5489206e-38
-0.026990671 -0.027199455 0.82599998 1.1436986e-38
-0.024091084 -0.027133597 0.824 1.1897964e-38
-0.021256847 -0.027133597 0.824 1.3554251e-38
-0.018333154 -0.02700188 0.81999999 1.3462056e-38
-0.015455923 -0.026903091 0.81699997 1.2909598e-38
-0.012614809 -0.026837233 0.815 1.2356424e-38
-0.0098115029 -0.026837233 0.815 1.1433749e-38
-0.0069738282 -0.026705517 0.81099999 1.078838e-38
-0.0041843075 -0.026705517 0.81099999 8.5753174e-39
-0.0013947869 -0.026705517 0.81099999 6.6392092e-39
0.0013981734 -0.026771378 0.81300002 7.6522653e-39
0.0042049452 -0.026837233 0.815 6.9147003e-39
0.0070082243 -0.026837233 0.815 6.5459149e-39
0.0098115029 -0.026837233 0.815 6.7303062e-39
0.012645738 -0.026903091 0.81699997 4.4286679e-39
0.015455897 -0.026903091 0.81699997 1.6229708e-38
0.018266054 -0.026903091 0.81699997 1.7057235e-38
-0.029831814 -0.030062532 0.82599998 1.5857989e-38
-0.026990671 -0.030062532 0.82599998 1.2447901e-38
-0.024091084 -0.029989742 0.824 1.2540097e-38
-0.021205254 -0.029916953 0.82200003 1.3001794e-38
-0.018288441 -0.029771371 0.81800002 1.2725207e-38
-0.015455923 -0.029734973 0.81699997 1.3644278e-38
-0.012614809 -0.029662183 0.815 1.2076952e-38
-0.0098115029 -0.029662183 0.815 1.0420679e-38
-0.0069910265 -0.029589394 0.81300002 9.7753095e-39
-0.0041843075 -0.029516602 0.81099999 8.7600618e-39
-0.0013947869 -0.029516602 0.81099999 7.1927361e-39
0.0013981734 -0.029589394 0.81300002 7.6533485e-39
0.0042049452 -0.029662183 0.815 6.2704141e-39
0.0070082243 -0.029662183 0.815 7.1909312e-39
0.0098355804 -0.029734973 0.81699997 7.0987356e-39
0.012645738 -0.029734973 0.81699997 4.7974476e-39
0.015455897 -0.029734973 0.81699997 1.6414097e-38
0.018266054 -0.029734973 0.81699997 1.6872844e-38
-0.029904045 -0.033005375 0.82800001 1.4198114e-38
-0.027056023 -0.033005375 0.82800001 1.0882712e-38
-0.024149556 -0.03292565 0.82599998 1.1251495e-38
-0.021205254 -0.032766204 0.82200003 1.2816684e-38
-0.018288441 -0.032606758 0.81800002 1.2816684e-38
-0.015455923 -0.032566894 0.81699997 1.2079837e-38
-0.012614809 -0.032487173 0.815 1.1157881e-38
-0.0098115029 -0.032487173 0.815 1.0605059e-38
-0.0069910265 -0.032407451 0.81300002 9.9596896e-39
-0.0041946266 -0.032407451 0.81300002 8.0228499e-39
-0.0013982266 -0.032407451 0.81300002 7.4696761e-39
0.0014016129 -0.032487173 0.815 7.9288522e-39
0.0042049452 -0.032487173 0.815 7.1912872e-39
0.0070082243 -0.032487173 0.815 7.1912816e-39
0.0098355804 -0.032566894 0.81699997 7.1912816e-39
0.012645738 -0.032566894 0.81699997 5.7161641e-39
0.015455897 -0.032566894 0.81699997 1.6503053e-38
0.018288413 -0.032606758 0.81800002 1.6964687e-38
-0.027056023 -0.035875384 0.82800001 1.5117184e-38
-0.024149556 -0.035788726 0.82599998 1.2996685e-38
-0.021153659 -0.03552876 0.81999999 1.189578e-38
-0.018288441 -0.035442106 0.81800002 1.272554e-38
-0.015455923 -0.035398774 0.81699997 1.1896158e-38
-0.012614809 -0.03531212 0.815 9.2224847e-39
-0.0098115029 -0.03531212 0.815 1.0237706e-38
-0.0069910265 -0.035225466 0.81300002 1.0053315e-38
-0.0041946266 -0.035225466 0.81300002 8.3916324e-39
-0.0013982266 -0.035225466 0.81300002 8.483828e-39
0.0014016129 -0.03531212 0.815 8.9430041e-39
0.0042049452 -0.03531212 0.815 7.8366566e-39
0.0070082243 -0.03531212 0.815 7.6544079e-39
0.0098355804 -0.035398774 0.81699997 7.5622123e-39
0.012645738 -0.035398774 0.81699997 5.5324791e-39
0.015455897 -0.035398774 0.81699997 1.5120825e-38
0.018266054 -0.035398774 0.81699997 1.7056166e-38
-0.023974136 -0.038371082 0.81999999 1.7333482e-38
-0.021153659 -0.038371082 0.81999999 1.6595201e-38
-0.018288441 -0.038277496 0.81800002 1.4935679e-38
-0.015455923 -0.038230695 0.81699997 1.4285303e-38
-0.012645765 -0.038230695 0.81699997 1.0505282e-38
-0.0098115029 -0.038137108 0.815 1.0879813e-38
-0.0070082243 -0.038137108 0.815 1.0603226e-38
-0.0042049452 -0.038137108 0.815 8.3898303e-39
-0.0014016661 -0.038137108 0.815 8.1132435e-39
0.0014016129 -0.038137108 0.815 7.930992e-39
0.0042049452 -0.038137108 0.815 7.4700138e-39
0.0070082243 -0.038137108 0.815 7.1923409e-39
0.0098355804 -0.038230695 0.81699997 7.0079497e-39
0.012645738 -0.038230695 0.81699997 1.9461878e-39
0.015455897 -0.038230695 0.81699997 1.2364294e-38
0.018266054 -0.038230695 0.81699997 1.6964687e-38
-0.021102065 -0.041112844 0.81800002 1.7516794e-38
-0.018288441 -0.041112844 0.81800002 1.7148012e-38
-0.015455923 -0.041062579 0.81699997 1.6777056e-38
-0.012645765 -0.041062579 0.81699997 1.3826796e-38
-0.0098355804 -0.041062579 0.81699997 1.1703062e-38
-0.0070082243 -0.040962059 0.815 1.0135736e-38
-0.0042049452 -0.040962059 0.815 9.6790768e-39
-0.0014016661 -0.040962059 0.815 1.3090315e-38
0.0014016129 -0.040962059 0.815 1.1336785e-38
0.0042049452 -0.040962059 0.815 9.4006766e-39
0.0070082243 -0.040962059 0.815 7.9258506e-39
0.0098355804 -0.041062579 0.81699997 1.0322937e-38
0.012645738 -0.041062579 0.81699997 8.0303581e-39
0.015455897 -0.041062579 0.81699997 1.4576248e-38
0.018266054 -0.041062579 0.81699997 1.6780295e-38
-0.018333154 -0.044055682 0.81999999 1.493425e-38
-0.015512677 -0.044055682 0.81999999 1.2626752e-38
-0.0126922 -0.044055682 0.81999999 8.2013613e-39
-0.0098957745 -0.044163138 0.82200003 5.5280664e-39
-0.0070340219 -0.043948229 0.81800002 2.8544338e-39
-0.0041946266 -0.043679595 0.81300002 2.4957014e-39
-0.0013982266 -0.043679595 0.81300002 1.0701103e-38
0.0013981734 -0.043679595 0.81300002 1.2721067e-38
0.0042049452 -0.043787047 0.815 1.2628872e-38
0.0070082243 -0.043787047 0.815 1.0969706e-38
0.0098115029 -0.043787047 0.815 1.7054618e-38
0.012645738 -0.0438945 0.81699997 1.7701901e-38
0.015455897 -0.0438945 0.81699997 1.668775e-38
0.018266054 -0.0438945 0.81699997 1.6227122e-38
-0.01837787 -0.047012348 0.82200003 2.0095398e-38
-0.015550514 -0.047012348 0.82200003 1.6401424e-38
-0.012723157 -0.047012348 0.82200003 1.0869686e-38
-0.0099198511 -0.047126733 0.824 1.4884186e-39
-0.0069566299 -0.046268839 0.80900002 1.5870937e-38
-0.0041739885 -0.046268839 0.80900002 2.2861973e-38
-0.0013913471 -0.046268839 0.80900002 2.1479038e-38
0.0013912943 -0.046268839 0.80900002 2.101332e-38
0.0041843075 -0.046383224 0.81099999 1.6495734e-38
0.0069910265 -0.046497613 0.81300002 1.1886957e-38
0.0098115029 -0.046611995 0.815 1.1333792e-38
0.012645738 -0.04672638 0.81699997 1.7606453e-38
0.015455897 -0.04672638 0.81699997 1.8804997e-38
0.018221339 -0.046611995 0.815 1.7977769e-38
0.021024618 -0.046611995 0.815 1.8346552e-38
-0.018333154 -0.049740281 0.81999999 1.8798489e-38
-0.015455923 -0.049558301 0.81699997 1.2442386e-38
-0.012645765 -0.049558301 0.81699997 7.1872346e-39
-0.0098355804 -0.049558301 0.81699997 1.6773121e-38
-0.0069566299 -0.049073033 0.80900002 2.3504482e-38
-0.0041636694 -0.048951712 0.80699998 2.1564693e-38
-0.0013879074 -0.048951712 0.80699998 2.119591e-38
0.0013878547 -0.048951712 0.80699998 2.0092434e-38
0.0041739885 -0.049073033 0.80900002 1.9354869e-38
0.0069566299 -0.049073033 0.80900002 1.8065587e-38
0.0097392714 -0.049073033 0.80900002 1.5576305e-38
0.012614782 -0.049436986 0.815 1.5671763e-38
0.015418061 -0.049436986 0.815 1.8437632e-38
0.018221339 -0.049436986 0.815 1.7241639e-38
0.021024618 -0.049436986 0.815 1.7518226e-38
-0.018333154 -0.052582603 0.81999999 1.8987912e-38
-0.015418088 -0.052261975 0.815 1.7512442e-38
-0.012614809 -0.052261975 0.815 1.649829e-38
-0.0098355804 -0.052390222 0.81699997 1.9541495e-38
-0.0069566299 -0.051877223 0.80900002 2.1293212e-38
-0.0041636694 -0.051748972 0.80699998 1.8895341e-38
-0.0013879074 -0.051748972 0.80699998 1.7143624e-38
0.0013878547 -0.051748972 0.80699998 1.6039772e-38
0.0041636694 -0.051748972 0.80699998 1.7883685e-38
0.0069394317 -0.051748972 0.80699998 1.7606777e-38
0.0097392714 -0.051877223 0.80900002 1.6592625e-38
0.012614782 -0.052261975 0.815 1.8161428e-38
0.015418061 -0.052261975 0.815 2.0281927e-38
0.018221339 -0.052261975 0.815 1.9730203e-38
