# .PCD v0.7 - Point Cloud Data file format
VERSION 0.7
FIELDS x y z rgb
SIZE 4 4 4 4
TYPE F F F F
COUNT 1 1 1 1
WIDTH 985
HEIGHT 1
VIEWPOINT 0 0 0 1 0 0 0
POINTS 985
DATA ascii
0.014018157 0.040892761 0.42899999 1.852391e-38
0.015493749 0.040892761 0.42899999 1.8524347e-38
0.01696934 0.040892761 0.42899999 1.7325804e-38
0.018487925 0.040988084 0.43000001 1.7510211e-38
0.02001339 0.041083403 0.43099999 1.7878993e-38
0.02149589 0.041083403 0.43099999 1.9355991e-38
0.02297836 0.041083403 0.43099999 1.6958905e-38
0.00073090248 0.039038345 0.42500001 1.7324666e-38
0.0021927629 0.039038345 0.42500001 1.6955884e-38
0.0036545957 0.039038345 0.42500001 1.6955217e-38
0.0051164282 0.039038345 0.42500001 1.5387891e-38
0.0065937387 0.0391302 0.426 1.4278985e-38
0.0095913559 0.039405763 0.42899999 1.5942873e-38
0.011066947 0.039405763 0.42899999 1.5020916e-38
0.012542566 0.039405763 0.42899999 1.3729765e-38
0.014018157 0.039405763 0.42899999 1.7970739e-38
0.015493749 0.039405763 0.42899999 1.5758397e-38
0.016929785 0.039313909 0.428 1.9169635e-38
0.018401936 0.039313909 0.428 1.7696373e-38
0.02001339 0.039589472 0.43099999 1.5391483e-38
0.02149589 0.039589472 0.43099999 1.9906972e-38
0.02297836 0.039589472 0.43099999 1.7786473e-38
-0.00073436985 0.037741967 0.42699999 2.0922178e-38
0.00073262217 0.03765358 0.426 1.6956982e-38
0.0021979222 0.03765358 0.426 1.7510156e-38
0.0036631944 0.03765358 0.426 1.7969028e-38
0.0051284665 0.03765358 0.426 1.5110964e-38
0.0066092173 0.037741967 0.42699999 1.354179e-38
0.0080779288 0.037741967 0.42699999 1.5293483e-38
0.0095913559 0.037918743 0.42899999 1.6033609e-38
0.011066947 0.037918743 0.42899999 1.538824e-38
0.012542566 0.037918743 0.42899999 1.3637212e-38
0.014018157 0.037918743 0.42899999 1.7509405e-38
0.015493749 0.037918743 0.42899999 1.3731559e-38
0.016929785 0.037830357 0.428 1.8064727e-38
0.018401936 0.037830357 0.428 1.7879304e-38
0.019920522 0.037918743 0.42899999 1.6404174e-38
0.02149589 0.038095523 0.43099999 1.8064817e-38
0.02297836 0.038095523 0.43099999 2.0277512e-38
-0.00073436985 0.036261879 0.42699999 1.6771878e-38
0.00073434191 0.036261879 0.42699999 1.7045969e-38
0.0022030817 0.036261879 0.42699999 1.4648883e-38
0.0036631944 0.036176957 0.426 1.7138532e-38
0.0051284665 0.036176957 0.426 1.547901e-38
0.0066092173 0.036261879 0.42699999 1.2341471e-38
0.0080779288 0.036261879 0.42699999 1.6213665e-38
0.0095913559 0.036431726 0.42899999 1.5571896e-38
0.011066947 0.036431726 0.42899999 1.5203113e-38
0.012542566 0.036431726 0.42899999 1.4005989e-38
0.013985481 0.036346804 0.428 1.6126471e-38
0.015457633 0.036346804 0.428 1.4007424e-38
0.01696934 0.036431726 0.42899999 1.6957676e-38
0.018444931 0.036431726 0.42899999 1.7235746e-38
0.019920522 0.036431726 0.42899999 1.6590376e-38
0.021446016 0.036516652 0.43000001 1.62212e-38
0.02297836 0.03660157 0.43099999 2.1291959e-38
-0.0022134006 0.034944728 0.42899999 1.8797295e-38
-0.00073436985 0.034781814 0.42699999 1.5939231e-38
0.00073434191 0.034781814 0.42699999 1.8982126e-38
0.0022030817 0.034781814 0.42699999 1.4372345e-38
0.0036717935 0.034781814 0.42699999 1.6861942e-38
0.0051405053 0.034781814 0.42699999 1.5386812e-38
0.0066092173 0.034781814 0.42699999 1.0405392e-38
0.0081346827 0.035026185 0.43000001 1.5937112e-38
0.0096137132 0.035026185 0.43000001 1.4007075e-38
0.011066947 0.034944728 0.42899999 1.4099271e-38
0.012542566 0.034944728 0.42899999 1.5572258e-38
0.013985481 0.034863275 0.428 1.5572258e-38
0.015457633 0.034863275 0.428 1.5111971e-38
0.016929785 0.034863275 0.428 1.7324666e-38
0.018401936 0.034863275 0.428 1.6497083e-38
0.019920522 0.034944728 0.42899999 1.7511235e-38
0.021446016 0.035026185 0.43000001 1.5391414e-38
-0.005152544 0.033379719 0.428 1.9908752e-38
-0.0036803926 0.033379719 0.428 1.9539969e-38
-0.0022082413 0.033379719 0.428 1.7876094e-38
-0.00073436985 0.03330173 0.42699999 1.4557051e-38
0.00073434191 0.03330173 0.42699999 1.9443465e-38
0.0021979222 0.033223741 0.426 1.4925879e-38
0.0036631944 0.033223741 0.426 1.6125456e-38
0.0051405053 0.03330173 0.42699999 1.455813e-38
0.0066092173 0.03330173 0.42699999 1.0868157e-38
0.0081346827 0.0335357 0.43000001 1.6860852e-38
0.0096137132 0.0335357 0.43000001 1.4189697e-38
0.011066947 0.033457708 0.42899999 1.4466284e-38
0.012542566 0.033457708 0.42899999 1.5940678e-38
0.014018157 0.033457708 0.42899999 1.5664091e-38
0.015493749 0.033457708 0.42899999 1.3545018e-38
0.016929785 0.033379719 0.428 1.7509405e-38
0.018401936 0.033379719 0.428 1.5576206e-38
0.019920522 0.033457708 0.42899999 1.6405967e-38
-0.005152544 0.031896189 0.428 2.0091736e-38
-0.0036631944 0.03174714 0.426 1.7325867e-38
-0.0021927629 0.031672619 0.42500001 1.667722e-38
-0.00073093025 0.031672619 0.42500001 1.5478677e-38
0.00073262217 0.03174714 0.426 1.8150886e-38
0.0021979222 0.03174714 0.426 1.57538e-38
0.0036631944 0.03174714 0.426 1.6218366e-38
0.0051164282 0.031672619 0.42500001 1.3913476e-38
0.006578261 0.031672619 0.42500001 1.3908455e-38
0.0080400938 0.031672619 0.42500001 1.7227497e-38
0.012542566 0.031970713 0.42899999 1.5572256e-38
0.014018157 0.031970713 0.42899999 1.6033234e-38
0.015493749 0.031970713 0.42899999 1.3822677e-38
0.01696934 0.031970713 0.42899999 1.7326086e-38
0.018444931 0.031970713 0.42899999 1.6865189e-38
0.019920522 0.031970713 0.42899999 1.621982e-38
0.021446016 0.032045238 0.43000001 1.6219459e-38
-0.0050923508 0.030057348 0.42300001 2.2764016e-38
-0.0036373974 0.030057348 0.42300001 2.2948408e-38
-0.0021876034 0.030128404 0.42399999 2.2664248e-38
-0.00073093025 0.030199464 0.42500001 1.9621792e-38
0.00073090248 0.030199464 0.42500001 1.8336003e-38
0.0021927629 0.030199464 0.42500001 1.6584286e-38
0.0036545957 0.030199464 0.42500001 1.741441e-38
0.0051164282 0.030199464 0.42500001 1.4371954e-38
0.006578261 0.030199464 0.42500001 1.335489e-38
0.0080400938 0.030199464 0.42500001 1.5475378e-38
0.0095019266 0.030199464 0.42500001 1.0774887e-38
0.011066947 0.030483693 0.42899999 1.538465e-38
0.012542566 0.030483693 0.42899999 1.5479344e-38
0.014018157 0.030483693 0.42899999 1.704667e-38
0.015493749 0.030483693 0.42899999 1.6771142e-38
0.01696934 0.030483693 0.42899999 1.6494555e-38
0.018444931 0.030483693 0.42899999 1.6957024e-38
0.019920522 0.030483693 0.42899999 1.6772633e-38
0.021446016 0.030554753 0.43000001 1.704922e-38
0.02297836 0.030625809 0.43099999 1.5758481e-38
0.02446083 0.030625809 0.43099999 1.6495654e-38
-0.007964436 0.028455945 0.421 2.3135693e-38
-0.0065163616 0.028455945 0.421 2.1844954e-38
-0.0050682737 0.028455945 0.421 2.1193817e-38
-0.0036201994 0.028455945 0.421 1.9995274e-38
-0.0021876034 0.028658718 0.42399999 1.9715074e-38
-0.00072921038 0.028658718 0.42399999 1.8885313e-38
0.00073090248 0.028726311 0.42500001 1.8888479e-38
0.0021927629 0.028726311 0.42500001 1.6030414e-38
0.0036545957 0.028726311 0.42500001 1.6860513e-38
0.0051164282 0.028726311 0.42500001 1.71371e-38
0.006578261 0.028726311 0.42500001 1.565873e-38
0.0080400938 0.028726311 0.42500001 1.8332403e-38
0.011092744 0.029064268 0.43000001 1.4832157e-38
0.012571802 0.029064268 0.43000001 1.5569747e-38
0.014050834 0.029064268 0.43000001 1.6307312e-38
0.015529864 0.029064268 0.43000001 1.6126874e-38
0.01696934 0.028996674 0.42899999 1.621907e-38
0.018444931 0.028996674 0.42899999 1.5480401e-38
0.019966956 0.029064268 0.43000001 1.6678944e-38
0.02149589 0.029131858 0.43099999 1.6680396e-38
0.02297836 0.029131858 0.43099999 1.6219417e-38
0.02446083 0.029131858 0.43099999 1.6218331e-38
-0.007945518 0.026932551 0.41999999 1.9341269e-38
-0.006500883 0.026932551 0.41999999 1.9156878e-38
-0.0050682737 0.026996676 0.421 1.8236717e-38
-0.0036201994 0.026996676 0.421 1.796013e-38
-0.0021824441 0.027124926 0.42300001 1.7685328e-38
-0.00072921038 0.027189052 0.42399999 1.8791676e-38
0.00073090248 0.027253177 0.42500001 1.9166878e-38
0.0021927629 0.027253177 0.42500001 1.7230769e-38
0.0036545957 0.027253177 0.42500001 1.6952381e-38
0.0051043895 0.027189052 0.42399999 1.7413359e-38
0.0065627825 0.027189052 0.42399999 1.6768359e-38
0.0080211759 0.027189052 0.42399999 1.8704467e-38
0.014050834 0.027573803 0.43000001 1.5846682e-38
0.015529864 0.027573803 0.43000001 1.5756294e-38
0.01696934 0.027509676 0.42899999 1.6493859e-38
0.018444931 0.027509676 0.42899999 1.5848492e-38
0.019966956 0.027573803 0.43000001 1.6586057e-38
0.02149589 0.027637927 0.43099999 1.5204156e-38
0.02297836 0.027637927 0.43099999 1.4927573e-38
0.02446083 0.027637927 0.43099999 1.6862982e-38
-0.007945518 0.025476748 0.41999999 1.8326414e-38
-0.006500883 0.025476748 0.41999999 1.8049827e-38
-0.0050682737 0.025537409 0.421 1.7959404e-38
-0.0036201994 0.025537409 0.421 1.740623e-38
-0.0021824441 0.025658727 0.42300001 1.7497696e-38
-0.00072921038 0.025719384 0.42399999 1.6944522e-38
0.00073090248 0.025780044 0.42500001 1.8240987e-38
0.0021927629 0.025780044 0.42500001 1.9162943e-38
0.0036545957 0.025780044 0.42500001 1.6859857e-38
0.0051043895 0.025719384 0.42399999 1.722864e-38
0.0065627825 0.025719384 0.42399999 1.6398153e-38
0.0080211759 0.025719384 0.42399999 1.9809391e-38
0.0096360706 0.026143998 0.43099999 1.6307014e-38
0.011118541 0.026143998 0.43099999 1.6860188e-38
0.012571802 0.026083339 0.43000001 1.6218001e-38
0.014050834 0.026083339 0.43000001 1.5203849e-38
0.015529864 0.026083339 0.43000001 1.5571542e-38
0.017008895 0.026083339 0.43000001 1.6032521e-38
0.018487925 0.026083339 0.43000001 1.7140712e-38
0.019966956 0.026083339 0.43000001 1.7140712e-38
0.02149589 0.026143998 0.43099999 1.8246328e-38
0.02297836 0.026143998 0.43099999 1.5019481e-38
-0.014988138 0.023734964 0.41499999 2.341769e-38
-0.013528012 0.023677772 0.414 2.341769e-38
-0.012104015 0.023677772 0.414 2.341769e-38
-0.010680018 0.023677772 0.414 2.2027553e-38
-0.0092560071 0.023677772 0.414 1.5481663e-38
-0.007964436 0.02407812 0.421 1.7221861e-38
-0.0065163616 0.02407812 0.421 1.7498448e-38
-0.0050682737 0.02407812 0.421 1.7130366e-38
-0.0036287983 0.024135312 0.42199999 1.6945975e-38
-0.0021824441 0.024192505 0.42300001 1.6393164e-38
-0.00072921038 0.024249697 0.42399999 1.6669751e-38
0.00073090248 0.024306891 0.42500001 1.8332137e-38
0.0022082413 0.024478469 0.428 1.953068e-38
0.0036975907 0.024592854 0.43000001 1.6491094e-38
0.0051886598 0.024650047 0.43099999 1.6767681e-38
0.0066711302 0.024650047 0.43099999 1.6397468e-38
0.0081536006 0.024650047 0.43099999 1.9624315e-38
0.0096360706 0.024650047 0.43099999 1.7413381e-38
0.011118541 0.024650047 0.43099999 1.6491425e-38
0.012601039 0.024650047 0.43099999 1.7138905e-38
0.014083509 0.024650047 0.43099999 1.4926209e-38
0.015529864 0.024592854 0.43000001 1.5295309e-38
0.017008895 0.024592854 0.43000001 1.54797e-38
0.018487925 0.024592854 0.43000001 1.5480789e-38
0.02001339 0.024650047 0.43099999 1.6402745e-38
0.02149589 0.024650047 0.43099999 1.8616906e-38
0.02297836 0.024650047 0.43099999 1.8248123e-38
0.02463109 0.024821624 0.43399999 1.7877484e-38
-0.016455131 0.022350198 0.41600001 1.9161523e-38
-0.014952023 0.022242747 0.414 2.2203979e-38
-0.013495335 0.022189019 0.41299999 2.2674727e-38
-0.012074778 0.022189019 0.41299999 2.2121553e-38
-0.01065422 0.022189019 0.41299999 2.276656e-38
-0.0092336498 0.022189019 0.41299999 2.2489973e-38
-0.0078130923 0.022189019 0.41299999 1.7780427e-38
-0.0065318397 0.022672556 0.42199999 1.5844319e-38
-0.005080312 0.022672556 0.42199999 1.648536e-38
-0.0036287983 0.022672556 0.42199999 1.6024382e-38
-0.0021876034 0.02278001 0.42399999 1.6025466e-38
-0.00073093025 0.022833737 0.42500001 1.6025466e-38
0.00073434191 0.022941189 0.42699999 1.6116943e-38
0.0022082413 0.022994917 0.428 1.7223291e-38
0.0036975907 0.023102369 0.43000001 1.6487877e-38
0.0051886598 0.023156095 0.43099999 1.6580072e-38
0.0066711302 0.023156095 0.43099999 1.6948867e-38
0.0081536006 0.023156095 0.43099999 1.6672281e-38
0.0096360706 0.023156095 0.43099999 1.6026869e-38
0.011118541 0.023156095 0.43099999 1.5842478e-38
0.012601039 0.023156095 0.43099999 1.6028977e-38
0.014083509 0.023156095 0.43099999 1.6305564e-38
0.015529864 0.023102369 0.43000001 1.621548e-38
0.017008895 0.023102369 0.43000001 1.6123284e-38
0.018487925 0.023102369 0.43000001 1.6586444e-38
0.02001339 0.023156095 0.43099999 1.603327e-38
0.02149589 0.023156095 0.43099999 1.7602014e-38
0.023138301 0.023317274 0.43399999 1.8616166e-38
0.02463109 0.023317274 0.43399999 1.8155918e-38
-0.016455131 0.020908261 0.41600001 1.9435867e-38
-0.014952023 0.020807743 0.414 1.4272911e-38
-0.013462659 0.020707222 0.412 1.5199992e-38
-0.012045542 0.020707222 0.412 2.1284904e-38
-0.010628424 0.020707222 0.412 1.9812344e-38
-0.0092336498 0.020757481 0.41299999 2.0918691e-38
-0.0078130923 0.020757481 0.41299999 2.1932836e-38
-0.0063925353 0.020757481 0.41299999 1.7968424e-38
-0.005080312 0.021209823 0.42199999 1.5564841e-38
-0.0036287983 0.021209823 0.42199999 1.5196059e-38
-0.0021927629 0.021360604 0.42500001 1.6118025e-38
-0.00073436985 0.021461124 0.42699999 1.6118025e-38
0.00073606177 0.021511385 0.428 1.6392814e-38
0.0022134006 0.021561645 0.42899999 1.6392814e-38
0.0037061898 0.021662164 0.43099999 1.6487524e-38
0.0051886598 0.021662164 0.43099999 1.6579719e-38
0.0066711302 0.021662164 0.43099999 1.7225822e-38
0.0081536006 0.021662164 0.43099999 1.6764843e-38
0.0096360706 0.021662164 0.43099999 1.611981e-38
0.011118541 0.021662164 0.43099999 1.5566636e-38
0.012601039 0.021662164 0.43099999 1.6582892e-38
0.014083509 0.021662164 0.43099999 1.6214109e-38
0.01556598 0.021662164 0.43099999 1.5938206e-38
0.017008895 0.021611905 0.43000001 1.4463076e-38
0.018487925 0.021611905 0.43000001 1.5203088e-38
0.02001339 0.021662164 0.43099999 1.6586022e-38
0.02149589 0.021662164 0.43099999 1.7970443e-38
0.023138301 0.021812946 0.43399999 1.7970443e-38
0.02463109 0.021812946 0.43399999 1.9445938e-38
0.026184073 0.021863207 0.435 1.8247395e-38
0.027807569 0.021963727 0.43700001 1.86158e-38
-0.01469921 0.019045159 0.40700001 2.3141068e-38
-0.013299277 0.019045159 0.40700001 1.5853621e-38
-0.011957832 0.019138748 0.40900001 1.4470687e-38
-0.010576829 0.019185541 0.41 1.9905246e-38
-0.0091889352 0.019232336 0.41100001 1.8614507e-38
-0.0078130923 0.019325923 0.41299999 1.9259526e-38
-0.0063925353 0.019325923 0.41299999 2.1011243e-38
-0.0049960413 0.01941951 0.41499999 1.9439961e-38
-0.0035686048 0.01941951 0.41499999 1.5198962e-38
-0.0021979222 0.019934244 0.426 1.602582e-38
-0.00073608971 0.020027833 0.428 1.6210211e-38
0.00073778152 0.020074626 0.42899999 1.6025111e-38
0.0022185601 0.02012142 0.43000001 1.6301697e-38
0.0037061898 0.020168213 0.43099999 1.648717e-38
0.005200699 0.020215008 0.43200001 1.6579366e-38
0.0066866088 0.020215008 0.43200001 1.6856672e-38
0.0081536006 0.020168213 0.43099999 1.6764476e-38
0.0096360706 0.020168213 0.43099999 1.6212373e-38
0.011118541 0.020168213 0.43099999 1.5567004e-38
0.012601039 0.020168213 0.43099999 1.6954185e-38
0.014083509 0.020168213 0.43099999 1.5479055e-38
0.01556598 0.020168213 0.43099999 1.6214109e-38
0.017008895 0.02012142 0.43000001 1.7781435e-38
0.018487925 0.02012142 0.43000001 1.6308768e-38
0.02001339 0.020168213 0.43099999 1.6400964e-38
0.021545764 0.020215008 0.43200001 1.8063735e-38
0.023084989 0.020261802 0.433 1.8063735e-38
0.02463109 0.020308595 0.43399999 1.8062264e-38
0.026123879 0.020308595 0.43399999 1.8523242e-38
0.027680302 0.02035539 0.435 1.8062264e-38
-0.01469921 0.017634418 0.40700001 2.3502945e-38
-0.013299277 0.017634418 0.40700001 2.0185023e-38
-0.011928595 0.017677745 0.40799999 1.2624982e-38
-0.010551033 0.017721074 0.40900001 1.6862756e-38
-0.0091665769 0.017764401 0.41 1.8061299e-38
-0.0077941748 0.017851057 0.412 1.7966263e-38
-0.0063925353 0.017894384 0.41299999 1.8796024e-38
-0.0049960413 0.017981039 0.41499999 1.870455e-38
-0.0035686048 0.017981039 0.41499999 1.7137224e-38
-0.0021669655 0.018197678 0.41999999 1.6669751e-38
-0.00072233105 0.018197678 0.41999999 1.6116577e-38
0.00073950127 0.018630957 0.43000001 1.611659e-38
0.0022237194 0.018674284 0.43099999 1.6300981e-38
0.0037147889 0.018717613 0.43200001 1.6395341e-38
0.005200699 0.018717613 0.43200001 1.6764123e-38
0.0066866088 0.018717613 0.43200001 1.6765196e-38
0.0081725186 0.018717613 0.43200001 1.6949588e-38
0.0096584288 0.018717613 0.43200001 1.6397486e-38
0.011144338 0.018717613 0.43200001 1.630529e-38
0.012659513 0.01876094 0.433 1.7230785e-38
0.014148863 0.01876094 0.433 1.5663459e-38
0.015638212 0.01876094 0.433 1.5752068e-38
0.017127562 0.01876094 0.433 1.824135e-38
0.018573917 0.018717613 0.43200001 1.8244556e-38
0.02001339 0.018674284 0.43099999 1.4741122e-38
0.02149589 0.018674284 0.43099999 1.7693523e-38
0.023031674 0.018717613 0.43200001 1.9260849e-38
0.02463109 0.018804267 0.43399999 1.8615813e-38
0.026123879 0.018804267 0.43399999 1.8339226e-38
0.027680302 0.018847596 0.435 1.7323247e-38
0.029310677 0.018934252 0.43700001 1.9167159e-38
0.030954808 0.019020908 0.43900001 1.8339981e-38
-0.01469921 0.016223656 0.40700001 1.9262927e-38
-0.013299277 0.016223656 0.40700001 1.7880105e-38
-0.011928595 0.016263517 0.40799999 1.4284475e-38
-0.010551033 0.016303379 0.40900001 1.492626e-38
-0.0091665769 0.01634324 0.41 1.8060911e-38
-0.0077941748 0.016422965 0.412 1.722797e-38
-0.0064080134 0.016502688 0.414 1.7135774e-38
-0.0049960413 0.016542548 0.41499999 1.7319442e-38
-0.0035686048 0.016542548 0.41499999 1.7227247e-38
-0.0021514874 0.016622271 0.417 1.7227607e-38
-0.00072233105 0.016741855 0.41999999 1.5752477e-38
0.0007463803 0.017299917 0.43399999 1.6299182e-38
0.0022340384 0.017260056 0.433 1.6944551e-38
0.0037233881 0.017260056 0.433 1.6486457e-38
0.0052247755 0.017299917 0.43399999 1.7131827e-38
0.0067020869 0.017260056 0.433 1.6857039e-38
0.0081914365 0.017260056 0.433 1.6949235e-38
0.0096807862 0.017260056 0.433 1.6121262e-38
0.011170136 0.017260056 0.433 1.6121262e-38
0.012659513 0.017260056 0.433 1.6029753e-38
0.014181538 0.017299917 0.43399999 1.5937557e-38
0.01574656 0.01737964 0.43599999 1.5569494e-38
0.017246228 0.01737964 0.43599999 1.5200711e-38
0.01853092 0.017180333 0.43099999 1.5570169e-38
0.02001339 0.017180333 0.43099999 1.49248e-38
0.02149589 0.017180333 0.43099999 1.658575e-38
0.023031674 0.017220195 0.43200001 1.8153076e-38
0.024574338 0.017260056 0.433 1.8708751e-38
0.026063688 0.017260056 0.433 1.9722903e-38
0.027743934 0.01737964 0.43599999 1.8523982e-38
0.029243603 0.01737964 0.43599999 1.6311286e-38
0.030884294 0.017459365 0.43799999 1.9260822e-38
-0.01469921 0.014812895 0.40700001 1.4379182e-38
-0.013299277 0.014812895 0.40700001 1.5482655e-38
-0.011928595 0.014849289 0.40799999 1.4099721e-38
-0.010525235 0.014849289 0.40799999 1.4830824e-38
-0.0091665769 0.014922081 0.41 1.8057672e-38
-0.0078130923 0.015031266 0.41299999 1.6582953e-38
-0.0064234915 0.015104057 0.41499999 1.6951736e-38
-0.0049960413 0.015104057 0.41499999 1.6859193e-38
-0.0035686048 0.015104057 0.41499999 1.6859193e-38
-0.0021514874 0.015176848 0.417 1.7043216e-38
-0.00071717153 0.015176848 0.417 1.6674433e-38
0.0007463803 0.015795568 0.43399999 1.5748514e-38
0.0022391977 0.015795568 0.43399999 1.7131448e-38
0.0037319867 0.015795568 0.43399999 1.676412e-38
0.0052247755 0.015795568 0.43399999 1.7317294e-38
0.0067175645 0.015795568 0.43399999 1.7042146e-38
0.0082103536 0.015795568 0.43399999 1.6857755e-38
0.0096807862 0.015759172 0.433 1.6121978e-38
0.011170136 0.015759172 0.433 1.5937587e-38
0.012688749 0.015795568 0.43399999 1.5937574e-38
0.014181538 0.015795568 0.43399999 1.53844e-38
0.01574656 0.015868358 0.43599999 1.5476935e-38
0.017325338 0.015941149 0.43799999 1.6122305e-38
0.018831886 0.015941149 0.43799999 1.4648957e-38
0.020663477 0.016195916 0.44499999 1.5202131e-38
0.021545764 0.015722778 0.43200001 1.5941122e-38
0.023031674 0.015722778 0.43200001 1.8061622e-38
0.024574338 0.015759172 0.433 1.5941026e-38
0.026063688 0.015759172 0.433 2.0366416e-38
0.027743934 0.015868358 0.43599999 2.0089916e-38
0.029243603 0.015868358 0.43599999 1.8153808e-38
0.030884294 0.015941149 0.43799999 1.7232883e-38
-0.01469921 0.013402154 0.40700001 1.345543e-38
-0.013299277 0.013402154 0.40700001 1.3821727e-38
-0.011928595 0.013435082 0.40799999 1.3913923e-38
-0.010525235 0.013435082 0.40799999 1.3171293e-38
-0.0091665769 0.01350094 0.41 1.8149857e-38
-0.0078320103 0.013632657 0.414 1.7137206e-38
-0.0064234915 0.013665586 0.41499999 1.7321597e-38
-0.0049960413 0.013665586 0.41499999 1.8151364e-38
-0.0035686048 0.013665586 0.41499999 1.8151364e-38
-0.0021411683 0.013665586 0.41499999 1.8058452e-38
-0.00074812857 0.014324169 0.435 1.768967e-38
0.00074810011 0.014324169 0.435 1.6025814e-38
0.0022443573 0.014324169 0.435 1.7500944e-38
0.0037319867 0.014291239 0.43399999 1.6857758e-38
0.0052247755 0.014291239 0.43399999 1.7318736e-38
0.0067175645 0.014291239 0.43399999 1.6766992e-38
0.0082103536 0.014291239 0.43399999 1.6398209e-38
0.0097031426 0.014291239 0.43399999 1.5936505e-38
0.011195932 0.014291239 0.43399999 1.6028701e-38
0.012688749 0.014291239 0.43399999 1.5291489e-38
0.014246891 0.014357097 0.43599999 1.5199293e-38
0.015782677 0.014390027 0.43700001 1.5754967e-38
0.017325338 0.014422956 0.43799999 1.6492532e-38
0.019089859 0.014620531 0.44400001 1.4280547e-38
0.020617044 0.014620531 0.44400001 1.5110308e-38
0.022194132 0.01465346 0.44499999 1.5479081e-38
0.023724757 0.01465346 0.44499999 1.8152754e-38
0.025255382 0.01465346 0.44499999 1.372833e-38
-0.013331953 0.012020875 0.40799999 1.7966604e-38
-0.011928595 0.012020875 0.40799999 1.8519778e-38
-0.010551033 0.012050338 0.40900001 1.778147e-38
-0.0064234915 0.012227115 0.41499999 1.8427222e-38
-0.0049960413 0.012227115 0.41499999 1.8702737e-38
-0.0035686048 0.012227115 0.41499999 1.842615e-38
-0.00074812857 0.012816374 0.435 1.7779704e-38
0.00074810011 0.012816374 0.435 1.657829e-38
0.0022443573 0.012816374 0.435 1.7869029e-38
0.0037405859 0.012816374 0.435 1.7412011e-38
0.0052247755 0.01278691 0.43399999 1.7504206e-38
0.0067175645 0.01278691 0.43399999 1.6674799e-38
0.0082103536 0.01278691 0.43399999 1.6213821e-38
0.0097031426 0.01278691 0.43399999 1.5936868e-38
0.011195932 0.01278691 0.43399999 1.5291499e-38
0.012747223 0.012845837 0.43599999 1.4645763e-38
0.014279569 0.0128753 0.43700001 1.4461372e-38
0.015854908 0.012934226 0.43900001 1.6214524e-38
0.017364895 0.012934226 0.43900001 1.5845742e-38
0.018960873 0.012993152 0.44100001 1.3727034e-38
0.020570608 0.013052077 0.44299999 1.5017773e-38
0.022144258 0.01308154 0.44400001 1.612446e-38
0.023724757 0.013111003 0.44499999 1.759959e-38
0.025255382 0.013111003 0.44499999 1.548085e-38
-0.00074812857 0.011308557 0.435 1.473474e-38
0.00074810011 0.011308557 0.435 1.6301362e-38
0.0022443573 0.011308557 0.435 1.7960884e-38
0.0037405859 0.011308557 0.435 1.7688598e-38
0.0052247755 0.01128256 0.43399999 1.7319815e-38
0.0067175645 0.01128256 0.43399999 1.6766994e-38
0.0082103536 0.01128256 0.43399999 1.6121625e-38
0.0097031426 0.01128256 0.43399999 1.5198587e-38
0.011247527 0.011334553 0.43599999 1.4737609e-38
0.01277646 0.011360551 0.43700001 1.4093671e-38
0.014312244 0.011386547 0.43799999 1.4278063e-38
0.015854908 0.011412544 0.43900001 1.4278782e-38
0.017364895 0.011412544 0.43900001 1.4278782e-38
0.018960873 0.011464538 0.44100001 1.4003613e-38
0.020524174 0.011490534 0.442 1.42802e-38
0.022144258 0.011542528 0.44400001 1.5294712e-38
0.023671443 0.011542528 0.44400001 1.7138624e-38
0.025198627 0.011542528 0.44400001 1.7693941e-38
0.026725814 0.011542528 0.44400001 1.1977812e-38
-0.00074812857 0.0098007414 0.435 1.6119489e-38
0.00074810011 0.0098007414 0.435 1.667195e-38
0.0022443573 0.0098007414 0.435 1.7778297e-38
0.0037405859 0.0098007414 0.435 1.7689316e-38
0.0052247755 0.00977821 0.43399999 1.676736e-38
0.0067175645 0.00977821 0.43399999 1.6028713e-38
0.0082103536 0.00977821 0.43399999 1.6120909e-38
0.0097031426 0.00977821 0.43399999 1.5475537e-38
0.011247527 0.0098232711 0.43599999 1.4922363e-38
0.01277646 0.0098458026 0.43700001 1.4645413e-38
0.014312244 0.0098683322 0.43799999 1.5014196e-38
0.015818791 0.0098683322 0.43799999 1.5014549e-38
0.017364895 0.0098908637 0.43900001 1.4737962e-38
0.018917877 0.0099133933 0.44 1.4648277e-38
0.020524174 0.0099584544 0.442 1.4002908e-38
0.022094382 0.009980985 0.44299999 1.4831955e-38
0.023671443 0.010003516 0.44400001 1.6030499e-38
0.025198627 0.010003516 0.44400001 1.7971256e-38
0.026725814 0.010003516 0.44400001 1.345367e-38
-0.00074812857 0.008292946 0.435 1.6764506e-38
0.00074810011 0.008292946 0.435 1.7132205e-38
0.0022443573 0.008292946 0.435 1.7593183e-38
0.0037405859 0.008292946 0.435 1.6765559e-38
0.0052368147 0.008292946 0.435 1.6212386e-38
0.0067330436 0.008292946 0.435 1.6212388e-38
0.0082292724 0.008292946 0.435 1.639678e-38
0.0097478582 0.0083120102 0.43599999 1.6305297e-38
0.011273324 0.0083310753 0.43700001 1.602871e-38
0.01277646 0.0083310753 0.43700001 1.519859e-38
0.014312244 0.0083501395 0.43799999 1.5843959e-38
0.015818791 0.0083501395 0.43799999 1.5660634e-38
0.017325338 0.0083501395 0.43799999 1.5199656e-38
0.018874882 0.0083692037 0.43900001 1.4832318e-38
0.02047774 0.008407332 0.44100001 1.4924514e-38
0.022044508 0.0084263962 0.442 1.4924161e-38
0.023618128 0.0084454603 0.44299999 1.6399291e-38
0.025198627 0.0084645245 0.44400001 1.437312e-38
0.026725814 0.0084645245 0.44400001 1.2990185e-38
0.028571162 0.0085598463 0.449 1.7791942e-38
0.030182617 0.0085789105 0.44999999 1.8621703e-38
-0.00074812857 0.0067851301 0.435 1.6949979e-38
0.00074810011 0.0067851301 0.435 1.7409509e-38
0.0022443573 0.0067851301 0.435 1.7593901e-38
0.0037405859 0.0067851301 0.435 1.6765565e-38
0.0052368147 0.0067851301 0.435 1.6765565e-38
0.0067330436 0.0067851301 0.435 1.6951035e-38
0.0082292724 0.0067851301 0.435 1.7227622e-38
0.0097478582 0.0068007279 0.43599999 1.6952104e-38
0.011273324 0.0068163262 0.43700001 1.6306735e-38
0.01277646 0.0068163262 0.43700001 1.593652e-38
0.014279569 0.0068163262 0.43700001 1.6397499e-38
0.015818791 0.006831924 0.43799999 1.5939385e-38
0.017325338 0.006831924 0.43799999 1.4833037e-38
0.018874882 0.0068475222 0.43900001 1.5015628e-38
0.020431304 0.00686312 0.44 1.5015628e-38
0.022044508 0.0068943165 0.442 1.4555741e-38
0.023564814 0.0068943165 0.442 1.5938676e-38
0.025198627 0.0069255126 0.44400001 1.4005091e-38
0.026725814 0.0069255126 0.44400001 1.317533e-38
0.028571162 0.0070035025 0.449 1.8160719e-38
0.030115547 0.0070035025 0.449 1.8621697e-38
-0.00074640871 0.0052652033 0.43399999 1.7320919e-38
0.0007463803 0.0052652033 0.43399999 1.6855593e-38
0.0022443573 0.0052773356 0.435 1.7777549e-38
0.0037405859 0.0052773356 0.435 1.7319815e-38
0.0052368147 0.0052773356 0.435 1.7319815e-38
0.0067330436 0.0052773356 0.435 1.7689329e-38
0.0082292724 0.0052773356 0.435 1.7965916e-38
0.0097478582 0.0052894671 0.43599999 1.7413083e-38
0.011247527 0.0052894671 0.43599999 1.7597474e-38
0.01277646 0.0053015989 0.43700001 1.6768805e-38
0.014279569 0.0053015989 0.43700001 1.6492218e-38
0.015818791 0.0053137308 0.43799999 1.6308177e-38
0.017325338 0.0053137308 0.43799999 1.5478416e-38
0.018874882 0.0053258627 0.43900001 1.5478404e-38
0.020431304 0.0053379945 0.44 1.5109621e-38
0.021994635 0.0053501264 0.44100001 1.4833767e-38
0.023564814 0.0053622583 0.442 1.5479137e-38
0.025141872 0.0053743897 0.44299999 1.455718e-38
0.026725814 0.005386522 0.44400001 1.3911811e-38
0.028571162 0.0054471809 0.449 1.7976333e-38
0.030115547 0.0054471809 0.449 1.8529507e-38
-0.00074640871 0.0037608533 0.43399999 1.7506387e-38
0.0007463803 0.0037608533 0.43399999 1.6579366e-38
0.0022443573 0.0037695193 0.435 1.7962301e-38
0.0037405859 0.0037695193 0.435 1.7503856e-38
0.0052368147 0.0037695193 0.435 1.7964834e-38
0.0067330436 0.0037695193 0.435 1.8058109e-38
0.0082292724 0.0037695193 0.435 1.82425e-38
0.0097255008 0.0037695193 0.435 1.824249e-38
0.011247527 0.0037781845 0.43599999 1.7689316e-38
0.012747223 0.0037781845 0.43599999 1.7506004e-38
0.014279569 0.0037868503 0.43700001 1.6768439e-38
0.015782677 0.0037868503 0.43700001 1.630818e-38
0.017325338 0.0037955157 0.43799999 1.5939397e-38
0.018874882 0.0038041815 0.43900001 1.5938669e-38
0.020431304 0.003812847 0.44 1.5846473e-38
0.021994635 0.0038215127 0.44100001 1.5386574e-38
0.023564814 0.0038301782 0.442 1.5939748e-38
0.025141872 0.0038388437 0.44299999 1.4834123e-38
0.026725814 0.0038475094 0.44400001 1.5018514e-38
0.028507531 0.0038821714 0.44800001 1.8160008e-38
0.030115547 0.0038908371 0.449 1.8528791e-38
-0.00074640871 0.0022565036 0.43399999 1.750674e-38
0.0007463803 0.0022565036 0.43399999 1.648683e-38
0.0022391977 0.0022565036 0.43399999 1.8146351e-38
0.0037319867 0.0022565036 0.43399999 1.7688247e-38
0.0052247755 0.0022565036 0.43399999 1.7964834e-38
0.0067175645 0.0022565036 0.43399999 1.7965197e-38
0.0082103536 0.0022565036 0.43399999 1.8241784e-38
0.0097255008 0.0022617029 0.435 1.815066e-38
0.011221729 0.0022617029 0.435 1.7689682e-38
0.012717986 0.0022617029 0.435 1.7414174e-38
0.014246891 0.0022669022 0.43599999 1.6676609e-38
0.015782677 0.0022721016 0.43700001 1.6214196e-38
0.017285785 0.0022721016 0.43700001 1.6306392e-38
0.018831886 0.0022773009 0.43799999 1.6215618e-38
0.02038487 0.0022825003 0.43900001 1.6492205e-38
0.021944759 0.0022876994 0.44 1.6215979e-38
0.023511501 0.0022928989 0.44100001 1.7414522e-38
0.02508512 0.0022980981 0.442 1.5572041e-38
0.026725814 0.0023084967 0.44400001 1.5756433e-38
0.028380264 0.0023188954 0.44600001 1.8160368e-38
0.030115547 0.0023344934 0.449 1.8252564e-38
-0.00074812857 0.00075390813 0.435 1.7968081e-38
0.0007463803 0.00075217499 0.43399999 1.6487203e-38
0.0022391977 0.00075217499 0.43399999 1.8146724e-38
0.0037319867 0.00075217499 0.43399999 1.7688966e-38
0.0052247755 0.00075217499 0.43399999 1.7688966e-38
0.0067175645 0.00075217499 0.43399999 1.8058109e-38
0.0082103536 0.00075217499 0.43399999 1.8150304e-38
0.0097031426 0.00075217499 0.43399999 1.815066e-38
0.011221729 0.00075390813 0.435 1.7874073e-38
0.012717986 0.00075390813 0.435 1.741309e-38
0.014214215 0.00075390813 0.435 1.7597481e-38
0.01574656 0.0007556412 0.43599999 1.6951751e-38
0.017285785 0.00075737439 0.43700001 1.676736e-38
0.018788893 0.00075737439 0.43700001 1.6769505e-38
0.02038487 0.00076084066 0.43900001 1.7507071e-38
0.021944759 0.00076257373 0.44 1.7692563e-38
0.023511501 0.00076430693 0.44100001 1.8245737e-38
0.02508512 0.00076604 0.442 1.6678396e-38
0.026605425 0.00076604 0.442 1.6125222e-38
0.028380264 0.00077297253 0.44600001 1.8251485e-38
0.030115547 0.00077817187 0.449 1.8435876e-38
-0.00074640871 -0.00075217499 0.43399999 1.7783695e-38
0.0007463803 -0.00075217499 0.43399999 1.7132938e-38
0.0022391977 -0.00075217499 0.43399999 1.7686112e-38
0.0037319867 -0.00075217499 0.43399999 1.787372e-38
0.0052247755 -0.00075217499 0.43399999 1.8058112e-38
0.0067175645 -0.00075217499 0.43399999 1.82425e-38
0.0082103536 -0.00075217499 0.43399999 1.8334696e-38
0.0097031426 -0.00075217499 0.43399999 1.8150657e-38
0.011195932 -0.00075217499 0.43399999 1.8150657e-38
0.012688749 -0.00075217499 0.43399999 1.8058459e-38
0.014181538 -0.00075217499 0.43399999 1.7689677e-38
0.015710443 -0.00075390813 0.435 1.7599269e-38
0.017246228 -0.0007556412 0.43599999 1.7599269e-38
0.018788893 -0.00075737439 0.43700001 1.7322679e-38
0.020338433 -0.00075910747 0.43799999 1.7507071e-38
0.021894885 -0.00076084066 0.43900001 1.7784756e-38
0.023458187 -0.00076257373 0.44 1.8061343e-38
0.02508512 -0.00076604 0.442 1.7600358e-38
0.026605425 -0.00076604 0.442 1.6586206e-38
0.028380264 -0.00077297253 0.44600001 1.8160368e-38
0.029914329 -0.00077297253 0.44600001 1.8068173e-38
-0.0022546763 -0.0022721016 0.43700001 1.8890406e-38
-0.00074640871 -0.0022565036 0.43399999 1.8060645e-38
0.0007463803 -0.0022565036 0.43399999 1.7410238e-38
0.0022391977 -0.0022565036 0.43399999 1.7502434e-38
0.0037233881 -0.0022513042 0.433 1.8335059e-38
0.0052127377 -0.0022513042 0.433 1.8335059e-38
0.0067020869 -0.0022513042 0.433 1.8610203e-38
0.0082103536 -0.0022565036 0.43399999 1.8425812e-38
0.0097031426 -0.0022565036 0.43399999 1.8425802e-38
0.011195932 -0.0022565036 0.43399999 1.8425802e-38
0.012688749 -0.0022565036 0.43399999 1.8427597e-38
0.014181538 -0.0022565036 0.43399999 1.8427597e-38
0.015710443 -0.0022617029 0.435 1.7966617e-38
0.017246228 -0.0022669022 0.43599999 1.7597834e-38
0.018788893 -0.0022721016 0.43700001 1.7506354e-38
0.020338433 -0.0022773009 0.43799999 1.7321963e-38
0.021894885 -0.0022825003 0.43900001 1.6586206e-38
0.023458187 -0.0022876994 0.44 1.6125228e-38
0.02508512 -0.0022980981 0.442 1.5391616e-38
0.026605425 -0.0022980981 0.442 1.5391616e-38
0.028380264 -0.0023188954 0.44600001 1.8160719e-38
0.029914329 -0.0023188954 0.44600001 1.7976328e-38
-0.0022546763 -0.0037868503 0.43700001 1.9076226e-38
-0.00074812857 -0.0037695193 0.435 1.8062074e-38
0.0007463803 -0.0037608533 0.43399999 1.8240352e-38
0.0022391977 -0.0037608533 0.43399999 1.8055961e-38
0.0037233881 -0.0037521881 0.433 1.907332e-38
0.0052127377 -0.0037521881 0.433 1.9442103e-38
0.0067020869 -0.0037521881 0.433 1.8703478e-38
0.0082103536 -0.0037608533 0.43399999 1.8519087e-38
0.0097031426 -0.0037608533 0.43399999 1.7320544e-38
0.011195932 -0.0037608533 0.43399999 1.676737e-38
0.012688749 -0.0037608533 0.43399999 1.520255e-38
0.014181538 -0.0037608533 0.43399999 1.4280593e-38
0.015710443 -0.0037695193 0.435 1.3173172e-38
0.017246228 -0.0037781845 0.43599999 1.1605847e-38
0.018788893 -0.0037868503 0.43700001 9.0276033e-39
0.020338433 -0.0037955157 0.43799999 7.0914951e-39
0.021894885 -0.0038041815 0.43900001 4.6976513e-39
0.023458187 -0.003812847 0.44 4.3288688e-39
0.02508512 -0.0038301782 0.442 1.7971651e-38
0.026605425 -0.0038301782 0.442 1.8985803e-38
0.029143859 -0.003968827 0.458 1.7702255e-38
-0.0022546763 -0.0053015775 0.43700001 1.8984028e-38
-0.0007515683 -0.0053015775 0.43700001 1.8891832e-38
0.00074810011 -0.0052773138 0.435 1.9899848e-38
0.0022391977 -0.0052651819 0.43399999 1.7226175e-38
0.0037319867 -0.0052651819 0.43399999 1.1326284e-38
0.0052247755 -0.0052651819 0.43399999 1.0219936e-38
0.0067175645 -0.0052651819 0.43399999 7.5492713e-39
0.0082103536 -0.0052651819 0.43399999 5.1521849e-39
0.0097031426 -0.0052651819 0.43399999 3.9597556e-39
0.011195932 -0.0052651819 0.43399999 3.6831687e-39
0.012717986 -0.0052773138 0.435 3.5963709e-39
0.014246891 -0.0052894456 0.43599999 3.6885665e-39
0.01574656 -0.0052894456 0.43599999 2.6780047e-39
0.017285785 -0.0053015775 0.43700001 2.9545916e-39
0.018788893 -0.0053015775 0.43700001 4.1502481e-39
0.022493379 -0.0054714219 0.45100001 3.0435222e-39
0.02404464 -0.0054714219 0.45100001 9.3270426e-41
0.025652656 -0.0054835533 0.45199999 1.4013713e-38
0.027267553 -0.0054956856 0.45300001 1.8439104e-38
0.02895296 -0.0055199489 0.45500001 1.7518223e-38
-0.0007515683 -0.0068163262 0.43700001 1.7970933e-38
0.00074981991 -0.0068007279 0.43599999 1.510889e-38
0.0022495168 -0.0068007279 0.43599999 9.8537388e-39
0.0037405859 -0.0067851301 0.435 1.2003186e-39
0.0052368147 -0.0067851301 0.435 4.0583804e-39
0.0067330436 -0.0067851301 0.435 4.6987878e-39
0.0082292724 -0.0067851301 0.435 6.2661135e-39
0.0097255008 -0.0067851301 0.435 6.5441045e-39
0.011221729 -0.0067851301 0.435 7.0050826e-39
0.012717986 -0.0067851301 0.435 6.4522844e-39
0.014246891 -0.0068007279 0.43599999 6.54448e-39
0.015782677 -0.0068163262 0.43700001 5.8094191e-39
0.017325338 -0.006831924 0.43799999 5.1640497e-39
0.018960873 -0.0068787187 0.44100001 4.9800088e-39
0.020849217 -0.0070035025 0.449 4.5190306e-39
0.022393631 -0.0070035025 0.449 4.0562546e-39
0.02404464 -0.007034698 0.45100001 3.5952764e-39
0.025595903 -0.007034698 0.45100001 1.060428e-38
0.027267553 -0.0070658941 0.45300001 1.7795539e-38
0.028825695 -0.0070658941 0.45300001 1.7517154e-38
0.00075153972 -0.0083310539 0.43700001 4.5161537e-39
0.0022546763 -0.0083310539 0.43700001 6.452262e-39
0.0037577841 -0.0083310539 0.43700001 5.3473844e-39
0.0052488535 -0.0083119888 0.43599999 6.4537319e-39
0.0067330436 -0.0082929246 0.435 6.9183072e-39
0.0082292724 -0.0082929246 0.435 6.6417203e-39
0.0097255008 -0.0082929246 0.435 6.9164925e-39
0.011221729 -0.0082929246 0.435 6.2711231e-39
0.012717986 -0.0082929246 0.435 6.8217732e-39
0.014246891 -0.0083119888 0.43599999 6.8217732e-39
0.015782677 -0.0083310539 0.43700001 5.8094191e-39
0.017364895 -0.0083691822 0.43900001 5.2562453e-39
0.018960873 -0.0084073106 0.44100001 5.3469934e-39
0.020617044 -0.0084645031 0.44400001 4.4250371e-39
0.022244006 -0.0085026314 0.44600001 4.0566455e-39
0.023831384 -0.0085216956 0.447 5.8083625e-39
0.025595903 -0.0085979514 0.45100001 8.3008465e-39
0.027147166 -0.0085979514 0.45100001 1.6782844e-38
0.028698428 -0.0085979514 0.45100001 1.7333485e-38
0.00075497921 -0.0098908637 0.43900001 6.5477324e-39
0.0022598356 -0.0098683322 0.43799999 6.0867543e-39
0.0037577841 -0.0098458026 0.43700001 6.0856501e-39
0.0052488535 -0.0098232711 0.43599999 7.4685845e-39
0.0067485217 -0.0098232711 0.43599999 7.1930892e-39
0.0082292724 -0.0098007414 0.435 7.1008936e-39
0.0097255008 -0.0098007414 0.435 7.1912816e-39
0.011221729 -0.0098007414 0.435 6.5459121e-39
0.012717986 -0.0098007414 0.435 6.5459149e-39
0.014246891 -0.0098232711 0.43599999 6.1771324e-39
0.015782677 -0.0098458026 0.43700001 5.9016147e-39
0.017364895 -0.0098908637 0.43900001 5.4406366e-39
0.018960873 -0.0099359248 0.44100001 4.9814633e-39
0.020617044 -0.010003516 0.44400001 5.0736589e-39
0.022194132 -0.010026045 0.44499999 6.1771352e-39
0.02377807 -0.010048577 0.44600001 7.2834828e-39
0.025539149 -0.010138698 0.44999999 7.7451644e-39
0.027147166 -0.010161228 0.45100001 1.521301e-38
0.028698428 -0.010161228 0.45100001 1.7701183e-38
0.00075497921 -0.011412523 0.43900001 7.0079847e-39
0.0022649951 -0.011412523 0.43900001 5.9938328e-39
0.0037577841 -0.01136053 0.43700001 5.3480878e-39
0.0052488535 -0.011334532 0.43599999 7.0998048e-39
0.0067485217 -0.011334532 0.43599999 7.1912872e-39
0.0082292724 -0.011308536 0.435 7.2834828e-39
0.0097255008 -0.011308536 0.435 7.5607731e-39
0.011221729 -0.011308536 0.435 7.7451644e-39
0.012717986 -0.011308536 0.435 6.5451863e-39
0.014214215 -0.011308536 0.435 6.2685994e-39
0.01574656 -0.011334532 0.43599999 6.4547885e-39
0.017364895 -0.011412523 0.43900001 5.7172235e-39
0.018917877 -0.011438519 0.44 5.71652e-39
0.02047774 -0.011464517 0.44100001 6.4540851e-39
0.022144258 -0.011542507 0.44400001 6.4558773e-39
0.023724757 -0.011568503 0.44499999 7.4700292e-39
0.025312135 -0.011594499 0.44600001 7.6544079e-39
0.02702678 -0.011672489 0.449 1.309395e-38
0.028571162 -0.011672489 0.449 1.8069602e-38
0.00075497921 -0.012934204 0.43900001 7.6533611e-39
0.0022598356 -0.012904741 0.43799999 6.9157961e-39
0.0037577841 -0.012875278 0.43700001 4.6116214e-39
0.0052488535 -0.012845815 0.43599999 6.0867515e-39
0.0067485217 -0.012845815 0.43599999 6.547717e-39
0.0082292724 -0.012816352 0.435 6.9164995e-39
0.0097255008 -0.012816352 0.435 7.1008838e-39
0.011221729 -0.012816352 0.435 7.0086882e-39
0.012717986 -0.012816352 0.435 7.0090357e-39
0.014214215 -0.012816352 0.435 6.91684e-39
0.01574656 -0.012845815 0.43599999 6.4558773e-39
0.017325338 -0.012904741 0.43799999 6.5480729e-39
0.018917877 -0.012963667 0.44 6.547717e-39
0.02047774 -0.01299313 0.44100001 7.5618689e-39
0.022044508 -0.013022592 0.442 7.5618717e-39
0.023671443 -0.013081519 0.44400001 8.2994368e-39
0.025255382 -0.013110981 0.44499999 8.4845287e-39
0.0268462 -0.013140445 0.44600001 1.0973811e-38
0.028507531 -0.013199369 0.44800001 1.825111e-38
0.030048475 -0.013199369 0.44800001 1.7882327e-38
0.0007532594 -0.014422956 0.43799999 7.6533611e-39
0.0022598356 -0.014422956 0.43799999 7.6533611e-39
0.0037577841 -0.014390027 0.43700001 5.4410191e-39
0.0052488535 -0.014357097 0.43599999 6.9161492e-39
0.0067485217 -0.014357097 0.43599999 7.0086952e-39
0.0082292724 -0.014324169 0.435 7.3774777e-39
0.0097255008 -0.014324169 0.435 7.3763819e-39
0.011221729 -0.014324169 0.435 7.0075993e-39
0.012717986 -0.014324169 0.435 7.0075993e-39
0.014214215 -0.014324169 0.435 7.4685775e-39
0.01574656 -0.014357097 0.43599999 7.2834772e-39
0.017285785 -0.014390027 0.43700001 7.2834772e-39
0.018874882 -0.014455886 0.43900001 7.0086952e-39
0.020431304 -0.014488814 0.44 7.3774777e-39
0.021994635 -0.014521744 0.44100001 7.9306543e-39
0.023564814 -0.014554673 0.442 9.49798e-39
0.025198627 -0.014620531 0.44400001 9.2202945e-39
0.026725814 -0.014620531 0.44400001 9.2202945e-39
0.028380264 -0.01468639 0.44600001 1.7146923e-38
0.030048475 -0.014752246 0.44800001 1.7331314e-38
0.00075153972 -0.015904754 0.43700001 7.3760582e-39
0.0022546763 -0.015904754 0.43700001 7.2838625e-39
0.003749185 -0.015868358 0.43599999 7.1912872e-39
0.0052488535 -0.015868358 0.43599999 7.1912872e-39
0.0067485217 -0.015868358 0.43599999 6.8239438e-39
0.0082292724 -0.015831964 0.435 6.7317481e-39
0.0097255008 -0.015831964 0.435 6.8232081e-39
0.011221729 -0.015831964 0.435 6.9154037e-39
0.012717986 -0.015831964 0.435 6.5459149e-39
0.014246891 -0.015868358 0.43599999 7.4678712e-39
0.01574656 -0.015868358 0.43599999 7.5589851e-39
0.017285785 -0.015904754 0.43700001 7.4667894e-39
0.018874882 -0.015977545 0.43900001 7.2852821e-39
0.020431304 -0.016013939 0.44 7.9306515e-39
0.021994635 -0.016050335 0.44100001 8.4841784e-39
0.023564814 -0.016086731 0.442 9.2217434e-39
0.02508512 -0.016086731 0.442 8.9447964e-39
0.026665619 -0.016123125 0.44299999 7.8384488e-39
0.028252998 -0.016159521 0.44400001 1.5489559e-38
0.00075153972 -0.017419502 0.43700001 7.5611683e-39
0.0022546763 -0.017419502 0.43700001 7.2845814e-39
0.003749185 -0.01737964 0.43599999 6.731395e-39
0.0052488535 -0.01737964 0.43599999 6.731395e-39
0.0067330436 -0.017339779 0.435 6.547717e-39
0.0082292724 -0.017339779 0.435 6.4555214e-39
0.0097255008 -0.017339779 0.435 6.6384609e-39
0.011221729 -0.017339779 0.435 6.5462653e-39
0.012717986 -0.017339779 0.435 5.994546e-39
0.014246891 -0.01737964 0.43599999 6.6399154e-39
0.01574656 -0.01737964 0.43599999 7.2849219e-39
0.017285785 -0.017419502 0.43700001 7.2849219e-39
0.018831886 -0.017459365 0.43799999 7.4696663e-39
0.02038487 -0.017499227 0.43900001 7.4696663e-39
0.021944759 -0.017539088 0.44 7.5618619e-39
0.023511501 -0.01757895 0.44100001 8.0228401e-39
0.02508512 -0.017618811 0.442 8.022487e-39
0.026605425 -0.017618811 0.442 8.3912695e-39
0.028252998 -0.017698534 0.44400001 1.2999196e-38
0.0007532594 -0.018977556 0.43799999 8.7597017e-39
0.0022598356 -0.018977556 0.43799999 7.1001803e-39
0.0037577841 -0.018934229 0.43700001 7.1001747e-39
0.0052488535 -0.018890901 0.43599999 7.0079791e-39
0.0067330436 -0.018847574 0.435 5.6264894e-39
0.0082292724 -0.018847574 0.435 5.8108806e-39
0.0097255008 -0.018847574 0.435 6.4537193e-39
0.011221729 -0.018847574 0.435 6.7303062e-39
0.012717986 -0.018847574 0.435 7.0068959e-39
0.014214215 -0.018847574 0.435 7.1912872e-39
0.01574656 -0.018890901 0.43599999 7.4693132e-39
0.017285785 -0.018934229 0.43700001 7.4693132e-39
0.018788893 -0.018934229 0.43700001 7.5593354e-39
0.02038487 -0.019020885 0.43900001 7.4671398e-39
0.021944759 -0.019064212 0.44 7.1919906e-39
0.023458187 -0.019064212 0.44 7.3763819e-39
0.02508512 -0.019150868 0.442 7.5600697e-39
0.026605425 -0.019150868 0.442 8.482026e-39
0.028252998 -0.019237524 0.44400001 9.2202692e-39
0.0007532594 -0.020495772 0.43799999 7.2860275e-39
0.0022598356 -0.020495772 0.43799999 7.1938319e-39
0.0037577841 -0.020448979 0.43700001 7.192376e-39
0.0052488535 -0.020402184 0.43599999 7.192376e-39
0.0067330436 -0.02035539 0.435 6.547717e-39
0.0082103536 -0.020308595 0.43399999 6.8243039e-39
0.0097031426 -0.020308595 0.43399999 7.1919906e-39
0.011195932 -0.020308595 0.43399999 7.2841862e-39
0.012688749 -0.020308595 0.43399999 6.5484359e-39
0.014214215 -0.02035539 0.435 6.5484359e-39
0.01574656 -0.020402184 0.43599999 7.1912816e-39
0.017285785 -0.020448979 0.43700001 6.9146947e-39
0.018788893 -0.020448979 0.43700001 6.6384609e-39
0.020338433 -0.020495772 0.43799999 6.7306565e-39
0.021894885 -0.020542568 0.43900001 6.4551416e-39
0.023458187 -0.020589361 0.44 7.100511e-39
0.02508512 -0.02068295 0.442 7.2834772e-39
0.026605425 -0.02068295 0.442 7.9288466e-39
0.028252998 -0.020776536 0.44400001 7.3767294e-39
0.029981401 -0.020916918 0.447 1.4199206e-38
0.031659931 -0.021010507 0.449 1.7423507e-38
0.03327829 -0.0210573 0.44999999 1.7054724e-38
0.0007532594 -0.022013966 0.43799999 6.917608e-39
0.0022598356 -0.022013966 0.43799999 7.2863905e-39
0.0037577841 -0.021963706 0.43700001 7.3771274e-39
0.0052488535 -0.021913445 0.43599999 7.2849317e-39
0.0067330436 -0.021863185 0.435 7.1927263e-39
0.0082103536 -0.021812923 0.43399999 7.008335e-39
0.0097031426 -0.021812923 0.43399999 7.5593354e-39
0.011195932 -0.021812923 0.43399999 7.7437267e-39
0.012688749 -0.021812923 0.43399999 7.0990859e-39
0.014214215 -0.021863185 0.435 7.0068903e-39
0.01574656 -0.021913445 0.43599999 6.1803694e-39
0.017285785 -0.021963706 0.43700001 6.0881738e-39
0.018788893 -0.021963706 0.43700001 6.2703944e-39
0.020338433 -0.022013966 0.43799999 6.4547857e-39
0.021894885 -0.022064228 0.43900001 6.362946e-39
0.023511501 -0.022164747 0.44100001 6.1785547e-39
0.02508512 -0.022215007 0.442 6.0856501e-39
0.026605425 -0.022215007 0.442 7.7451714e-39
0.028252998 -0.022315528 0.44400001 7.4700166e-39
0.029981401 -0.022466308 0.447 1.1065646e-38
0.031589419 -0.022516567 0.44800001 1.7974883e-38
0.033204343 -0.022566829 0.449 1.7237318e-38
0.0007532594 -0.02353218 0.43799999 7.839553e-39
0.0022598356 -0.02353218 0.43799999 7.2863793e-39
0.0037577841 -0.023478454 0.43700001 7.3774805e-39
0.0052488535 -0.023424728 0.43599999 7.2852849e-39
0.0067330436 -0.023371002 0.435 7.1005307e-39
0.0082103536 -0.023317274 0.43399999 6.9161394e-39
0.0097031426 -0.023317274 0.43399999 6.6381106e-39
0.011195932 -0.023317274 0.43399999 6.7303062e-39
0.012688749 -0.023317274 0.43399999 6.8232081e-39
0.014214215 -0.023371002 0.435 6.7310125e-39
0.01574656 -0.023424728 0.43599999 6.2718364e-39
0.017285785 -0.023478454 0.43700001 6.1796407e-39
0.018831886 -0.02353218 0.43799999 6.0856501e-39
0.020338433 -0.02353218 0.43799999 7.1919976e-39
0.021944759 -0.023639634 0.44 6.7306565e-39
0.023511501 -0.023693362 0.44100001 6.4540696e-39
0.02508512 -0.023747087 0.442 5.9963285e-39
0.026665619 -0.023800813 0.44299999 6.7338935e-39
0.028252998 -0.023854541 0.44400001 7.6544079e-39
0.029914329 -0.023961993 0.44600001 7.9309948e-39
0.031589419 -0.024069445 0.44800001 1.6869251e-38
0.033204343 -0.024123173 0.449 1.7422425e-38
-0.00076360709 -0.025393531 0.44400001 8.5774558e-39
0.00076357805 -0.025393531 0.44400001 8.48527e-39
0.0022546763 -0.024993181 0.43700001 8.1164875e-39
0.003749185 -0.024935989 0.43599999 7.1008908e-39
0.0052488535 -0.024935989 0.43599999 7.0086952e-39
0.0067330436 -0.024878796 0.435 6.8250228e-39
0.0082103536 -0.024821602 0.43399999 6.3640446e-39
0.0097031426 -0.024821602 0.43399999 7.0068903e-39
0.011195932 -0.024821602 0.43399999 6.9146947e-39
0.012688749 -0.024821602 0.43399999 6.547717e-39
0.014214215 -0.024878796 0.435 6.1789345e-39
0.01574656 -0.024935989 0.43599999 6.7299307e-39
0.017285785 -0.024993181 0.43700001 6.7299307e-39
0.018831886 -0.025050374 0.43799999 6.1792904e-39
0.020431304 -0.025164759 0.44 6.1792904e-39
0.021994635 -0.025221953 0.44100001 6.7306565e-39
0.023564814 -0.025279146 0.442 6.7306565e-39
0.02508512 -0.025279146 0.442 6.5480729e-39
0.026665619 -0.025336336 0.44299999 7.0090511e-39
0.028252998 -0.025393531 0.44400001 8.2075817e-39
0.029847255 -0.025450723 0.44499999 6.7324516e-39
0.031518903 -0.025565108 0.447 1.4659067e-38
0.033204343 -0.025679493 0.449 1.6871762e-38
0.034748726 -0.025679493 0.449 1.6595541e-38
-0.00076360709 -0.026932543 0.44400001 8.6671277e-39
0.0007601385 -0.026811225 0.442 8.7618569e-39
0.0022546763 -0.026507931 0.43700001 8.0242918e-39
0.003749185 -0.02644727 0.43599999 6.3636817e-39
0.0052488535 -0.02644727 0.43599999 7.3778336e-39
0.0067330436 -0.026386613 0.435 7.1927263e-39
0.0082103536 -0.026325952 0.43399999 6.9161394e-39
0.0097031426 -0.026325952 0.43399999 6.7324516e-39
0.011195932 -0.026325952 0.43399999 5.9948866e-39
0.012717986 -0.026386613 0.435 6.6384609e-39
0.014214215 -0.026386613 0.435 6.2696784e-39
0.01574656 -0.02644727 0.43599999 5.8090632e-39
0.017325338 -0.02656859 0.43799999 6.1778457e-39
0.018874882 -0.026629249 0.43900001 6.4537193e-39
