# .PCD v0.7 - Point Cloud Data file format
VERSION 0.7
FIELDS x y z rgb
SIZE 4 4 4 4
TYPE F F F F
COUNT 1 1 1 1
WIDTH 871
HEIGHT 1
VIEWPOINT 0 0 0 1 0 0 0
POINTS 871
DATA ascii
-0.0014137051 0.081203185 0.82200003 1.8900771e-38
0.0014136513 0.081203185 0.82200003 2.0558499e-38
0.0042307423 0.081005603 0.81999999 2.1388259e-38
0.0070512192 0.081005603 0.81999999 2.2215146e-38
-0.015455923 0.07787735 0.81699997 1.8533082e-38
-0.012645765 0.07787735 0.81699997 2.0008212e-38
-0.0098355804 0.07787735 0.81699997 1.9267749e-38
-0.007068418 0.078353971 0.82200003 2.0558488e-38
-0.0042410614 0.078353971 0.82200003 2.2951205e-38
-0.0014137051 0.078353971 0.82200003 2.2951205e-38
0.0014136513 0.078353971 0.82200003 2.2489851e-38
0.0042307423 0.078163326 0.81999999 2.0738134e-38
0.0070512192 0.078163326 0.81999999 1.9542891e-38
-0.018333154 0.075321041 0.81999999 2.2678974e-38
-0.015455923 0.075045474 0.81699997 2.3326145e-38
-0.012645765 0.075045474 0.81699997 2.2404906e-38
-0.0098355804 0.075045474 0.81699997 2.3138871e-38
-0.0070254221 0.075045474 0.81699997 2.3323262e-38
-0.0042204238 0.075137332 0.81800002 2.3045886e-38
-0.0014068257 0.075137332 0.81800002 2.1201974e-38
0.0014067723 0.075137332 0.81800002 2.1656853e-38
0.0042204238 0.075137332 0.81800002 2.2855397e-38
0.007068418 0.075504757 0.82200003 2.1385032e-38
-0.026794612 0.072478719 0.81999999 1.9362123e-38
-0.023974136 0.072478719 0.81999999 2.2312384e-38
-0.021102065 0.072301947 0.81800002 2.3140966e-38
-0.018288441 0.072301947 0.81800002 2.0743879e-38
-0.015455923 0.072213553 0.81699997 2.2023779e-38
-0.012645765 0.072213553 0.81699997 2.3222322e-38
-0.0098355804 0.072213553 0.81699997 2.3046615e-38
-0.0070082243 0.072036773 0.815 2.2954419e-38
-0.0042049452 0.072036773 0.815 2.3045914e-38
-0.0014016661 0.072036773 0.815 1.9819067e-38
0.0014050524 0.072213553 0.81699997 2.0737031e-38
0.0042204238 0.072301947 0.81800002 2.0829227e-38
0.0070340219 0.072301947 0.81800002 2.0556714e-38
0.0098476196 0.072301947 0.81800002 1.9911344e-38
-0.029615115 0.069636405 0.81999999 2.0191193e-38
-0.026794612 0.069636405 0.81999999 2.3138485e-38
-0.023974136 0.069636405 0.81999999 2.1939942e-38
-0.021076266 0.069381632 0.81699997 2.2858575e-38
-0.018266082 0.069381632 0.81699997 2.0830271e-38
-0.015418088 0.069211788 0.815 2.2302586e-38
-0.012614809 0.069211788 0.815 2.350401e-38
-0.0098115029 0.069211788 0.815 2.3043351e-38
-0.0070082243 0.069211788 0.815 1.8710157e-38
-0.0041946266 0.069041945 0.81300002 2.304447e-38
-0.0013982266 0.069041945 0.81300002 2.1661535e-38
0.0013981734 0.069041945 0.81300002 1.9261419e-38
0.0042049452 0.069211788 0.815 2.2027257e-38
0.0070340219 0.069466561 0.81800002 1.9175214e-38
-0.032514706 0.066957042 0.82200003 1.9638019e-38
-0.029615115 0.06679412 0.81999999 2.0744367e-38
-0.026794612 0.06679412 0.81999999 2.2950086e-38
-0.023915663 0.066631213 0.81800002 2.2765695e-38
-0.021076266 0.066549748 0.81699997 2.285677e-38
-0.018266082 0.066549748 0.81699997 1.8892358e-38
-0.015418088 0.066386841 0.815 1.8613948e-38
-0.012614809 0.066386841 0.815 2.2947142e-38
-0.0097874263 0.066223927 0.81300002 2.2764243e-38
-0.0069910265 0.066223927 0.81300002 1.6033963e-38
-0.0041843075 0.066061012 0.81099999 2.1839045e-38
-0.0013947869 0.066061012 0.81099999 2.2207827e-38
0.0013947338 0.066061012 0.81099999 1.7140593e-38
0.0041843075 0.066061012 0.81099999 1.9814247e-38
0.0069910265 0.066223927 0.81300002 1.8067395e-38
0.0098355804 0.066549748 0.81699997 1.9819112e-38
-0.032514706 0.064107783 0.82200003 1.9637659e-38
-0.029687349 0.064107783 0.82200003 2.0559616e-38
-0.026794612 0.063951805 0.81999999 2.2856446e-38
-0.023915663 0.063795827 0.81800002 2.193449e-38
-0.021024672 0.063561849 0.815 2.2114103e-38
-0.018221367 0.063561849 0.815 2.1192146e-38
-0.015418088 0.063561849 0.815 1.7045888e-38
-0.012583853 0.063405871 0.81300002 2.3499548e-38
-0.0097633488 0.063249886 0.81099999 2.2021596e-38
-0.0069566299 0.063093908 0.80900002 1.750401e-38
-0.0041739885 0.063093908 0.80900002 2.0089165e-38
-0.0013913471 0.063093908 0.80900002 2.230186e-38
0.0013912943 0.063093908 0.80900002 1.8522187e-38
0.0041739885 0.063093908 0.80900002 1.677047e-38
0.0069738282 0.063249886 0.81099999 2.1565409e-38
0.0098115029 0.063561849 0.815 2.1012235e-38
0.012645738 0.063717827 0.81699997 1.8807896e-38
-0.029687349 0.061258573 0.82200003 2.0560332e-38
-0.026794612 0.06110952 0.81999999 2.2764604e-38
-0.023915663 0.060960475 0.81800002 2.1105082e-38
-0.021024672 0.060736902 0.815 1.9902833e-38
-0.018221367 0.060736902 0.815 2.2115494e-38
-0.015418088 0.060736902 0.815 1.437369e-38
-0.012583853 0.060587857 0.81300002 2.2025902e-38
-0.0097633488 0.060438804 0.81099999 2.0272059e-38
-0.0069394317 0.060140707 0.80699998 1.6399843e-38
-0.0041636694 0.060140707 0.80699998 2.2761088e-38
-0.0013879074 0.060140707 0.80699998 2.0917175e-38
0.0013878547 0.060140707 0.80699998 1.9166466e-38
0.0041739885 0.060289759 0.80900002 1.6492792e-38
0.0069738282 0.060438804 0.81099999 2.0276783e-38
0.0098115029 0.060736902 0.815 2.1567522e-38
0.012614782 0.060736902 0.815 1.8623505e-38
-0.032316927 0.058054026 0.81699997 1.9820969e-38
-0.029506767 0.058054026 0.81699997 2.1296099e-38
-0.026696583 0.058054026 0.81699997 2.1195413e-38
-0.023886424 0.058054026 0.81699997 2.1472e-38
-0.021024672 0.05791191 0.815 1.944446e-38
-0.018176652 0.057769798 0.81300002 2.1103981e-38
-0.015380253 0.057769798 0.81300002 1.6124663e-38
-0.012552896 0.057627682 0.81099999 2.1103196e-38
-0.0097392714 0.057485566 0.80900002 1.9811109e-38
-0.0069394317 0.057343449 0.80699998 1.6307675e-38
-0.0041636694 0.057343449 0.80699998 2.202313e-38
-0.0013844678 0.057201337 0.80500001 1.8888479e-38
0.0013844152 0.057201337 0.80500001 1.8708349e-38
0.0041533508 0.057201337 0.80500001 1.7048828e-38
0.0069566299 0.057485566 0.80900002 1.880165e-38
0.0097874263 0.057769798 0.81300002 2.175191e-38
0.012614782 0.05791191 0.815 1.9541498e-38
-0.029506767 0.055222102 0.81699997 2.0281944e-38
-0.026696583 0.055222102 0.81699997 1.9997179e-38
-0.023886424 0.055222102 0.81699997 2.2486453e-38
-0.021024672 0.055086922 0.815 1.9534863e-38
-0.018176652 0.054951742 0.81300002 1.8428515e-38
-0.015380253 0.054951742 0.81300002 1.833985e-38
-0.012521939 0.054681376 0.80900002 2.0091567e-38
-0.0097151939 0.054546189 0.80699998 1.9907258e-38
-0.0069394317 0.054546189 0.80699998 1.7510172e-38
-0.0041533508 0.054411009 0.80500001 2.2762147e-38
-0.0013844678 0.054411009 0.80500001 1.9811887e-38
0.0013809756 0.054275829 0.80299997 2.0088037e-38
0.0041430318 0.054275829 0.80299997 1.9073885e-38
0.0069394317 0.054546189 0.80699998 1.677623e-38
0.0097633488 0.054816555 0.81099999 1.972649e-38
0.01255287 0.054816555 0.81099999 1.8161775e-38
0.01534239 0.054816555 0.81099999 1.8346167e-38
-0.029434536 0.052261975 0.815 1.9544032e-38
-0.02663123 0.052261975 0.815 1.9997586e-38
-0.023827951 0.052261975 0.815 2.2486868e-38
-0.020973079 0.052133724 0.81300002 1.9164645e-38
-0.018176652 0.052133724 0.81300002 1.8611472e-38
-0.015380253 0.052133724 0.81300002 1.6398017e-38
-0.012521939 0.051877223 0.80900002 2.266729e-38
-0.0097151939 0.051748972 0.80699998 2.1655735e-38
-0.0069394317 0.051748972 0.80699998 1.7322541e-38
-0.0041533508 0.051620722 0.80500001 2.2949097e-38
-0.0013810281 0.051492475 0.80299997 1.5942229e-38
0.0013809756 0.051492475 0.80299997 1.7691638e-38
0.0041430318 0.051492475 0.80299997 2.2024833e-38
0.0069394317 0.051748972 0.80699998 2.1097941e-38
0.0097633488 0.052005474 0.81099999 2.3496828e-38
0.01255287 0.052005474 0.81099999 2.1660209e-38
0.01534239 0.052005474 0.81099999 2.1475818e-38
0.018042481 0.051748972 0.80699998 2.0094316e-38
0.020818243 0.051748972 0.80699998 1.7973816e-38
0.023594057 0.051748972 0.80699998 1.7517142e-38
-0.036115974 0.050953496 0.83999997 1.9453278e-38
-0.033226706 0.050953496 0.83999997 2.3324768e-38
-0.029362306 0.04931571 0.81300002 1.991353e-38
-0.02656588 0.04931571 0.81300002 2.1286555e-38
-0.023769479 0.04931571 0.81300002 2.137875e-38
-0.020921484 0.049194388 0.81099999 1.9074576e-38
-0.018131938 0.049194388 0.81099999 1.7046272e-38
-0.015304581 0.049073074 0.80900002 1.7691352e-38
-0.012521939 0.049073074 0.80900002 1.9535265e-38
-0.0097151939 0.048951752 0.80699998 2.1470959e-38
-0.0069394317 0.048951752 0.80699998 1.7690938e-38
-0.0041430318 0.048709121 0.80299997 2.2760677e-38
-0.0013810281 0.048709121 0.80299997 1.6675766e-38
0.0013809756 0.048709121 0.80299997 2.1651093e-38
0.0041430318 0.048709121 0.80299997 2.1835484e-38
0.0069394317 0.048951752 0.80699998 1.9252985e-38
0.0097392714 0.049073074 0.80900002 2.3494344e-38
0.012521913 0.049073074 0.80900002 2.341769e-38
0.015304554 0.049073074 0.80900002 2.341769e-38
0.018042481 0.048951752 0.80699998 2.341769e-38
0.020715054 0.048709121 0.80299997 2.341769e-38
0.023360165 0.048466485 0.79900002 2.3417327e-38
0.026075732 0.048405822 0.79799998 2.1573414e-38
0.028820537 0.048405822 0.79799998 1.8526996e-38
0.031565342 0.048405822 0.79799998 1.8158213e-38
0.03686922 0.04816319 0.79400003 1.8346192e-38
-0.039005272 0.04804185 0.83999997 2.341769e-38
-0.036115974 0.04804185 0.83999997 2.341769e-38
-0.033226706 0.04804185 0.83999997 2.3047813e-38
-0.030337436 0.04804185 0.83999997 2.1480487e-38
-0.02656588 0.046497654 0.81300002 2.2760667e-38
-0.023711005 0.046383265 0.81099999 2.1377733e-38
-0.02086989 0.04626888 0.80900002 2.1100028e-38
-0.018087223 0.04626888 0.80900002 1.6121464e-38
-0.015304581 0.04626888 0.80900002 2.294799e-38
-0.012490982 0.046154492 0.80699998 1.8983578e-38
-0.0097151939 0.046154492 0.80699998 2.2391843e-38
-0.0069050356 0.045925725 0.80299997 2.3504313e-38
-0.0041327132 0.045811336 0.801 2.2764967e-38
-0.0013775885 0.045811336 0.801 2.2949358e-38
0.0013775361 0.045811336 0.801 1.9623077e-38
0.0041327132 0.045811336 0.801 1.7779165e-38
0.0069394317 0.046154492 0.80699998 1.6762269e-38
0.0097392714 0.04626888 0.80900002 1.9712529e-38
0.012521913 0.04626888 0.80900002 2.267474e-38
0.015266717 0.046154492 0.80699998 2.3507374e-38
0.017997766 0.04604011 0.80500001 2.3141103e-38
0.020715054 0.045925725 0.80299997 2.3141103e-38
0.023330927 0.045639761 0.79799998 2.3233299e-38
0.026010379 0.045525376 0.796 2.341769e-38
0.028676076 0.045410994 0.79400003 2.3325472e-38
0.031407125 0.045410994 0.79400003 1.8254712e-38
0.034138173 0.045410994 0.79400003 1.8622776e-38
0.03686922 0.045410994 0.79400003 1.8346189e-38
0.039500568 0.045296606 0.792 1.816288e-38
0.042331368 0.045410994 0.79400003 1.816288e-38
-0.044943754 0.04529139 0.84299999 1.9084858e-38
-0.042044163 0.04529139 0.84299999 2.3325856e-38
-0.039005272 0.045130204 0.83999997 2.3325494e-38
-0.036115974 0.045130204 0.83999997 2.3233299e-38
-0.033147596 0.045022756 0.838 2.2771958e-38
-0.030265205 0.045022756 0.838 2.2587566e-38
-0.02744814 0.045130204 0.83999997 2.2299712e-38
-0.023652531 0.04346469 0.80900002 2.0824582e-38
-0.02086989 0.04346469 0.80900002 2.2114918e-38
-0.018087223 0.04346469 0.80900002 1.8427093e-38
-0.015304581 0.04346469 0.80900002 2.2762485e-38
-0.012490982 0.043357234 0.80699998 2.2301507e-38
-0.0097151939 0.043357234 0.80699998 2.1746042e-38
-0.0068878378 0.043034878 0.801 2.350136e-38
-0.0041327132 0.043034878 0.801 2.1746088e-38
-0.0013775885 0.043034878 0.801 2.0178762e-38
0.0013775361 0.043034878 0.801 2.0821319e-38
0.0041327132 0.043034878 0.801 1.8885211e-38
0.0069394317 0.043357234 0.80699998 1.5196392e-38
0.0097392714 0.04346469 0.80900002 1.7132501e-38
0.012521913 0.04346469 0.80900002 2.0911119e-38
0.015266717 0.043357234 0.80699998 2.3496198e-38
0.017997766 0.043249782 0.80500001 2.3325494e-38
0.020663461 0.043034878 0.801 2.3141103e-38
0.023272453 0.042766247 0.796 2.341769e-38
0.02594503 0.042658795 0.79400003 2.3233299e-38
0.028603842 0.042551339 0.792 8.8309157e-39
0.031328011 0.042551339 0.792 9.4762753e-39
0.034052178 0.042551339 0.792 1.8436214e-38
0.036776349 0.042551339 0.792 1.8436214e-38
0.039500568 0.042551339 0.792 1.7885577e-38
0.042331368 0.042658795 0.79400003 1.8162164e-38
0.045062415 0.042658795 0.79400003 1.7701901e-38
0.047793463 0.042658795 0.79400003 1.8070684e-38
-0.05134489 0.042871989 0.85299999 1.9085562e-38
-0.048410878 0.042871989 0.85299999 1.954654e-38
-0.044943754 0.042369388 0.84299999 2.3417687e-38
-0.042044163 0.042369388 0.84299999 2.3417687e-38
-0.039005272 0.042218603 0.83999997 2.3141103e-38
-0.036029983 0.042118084 0.838 2.3141103e-38
-0.033147596 0.042118084 0.838 2.3233299e-38
-0.030265205 0.042118084 0.838 2.3233299e-38
-0.027382787 0.042118084 0.838 2.1566157e-38
-0.023594057 0.040560015 0.80699998 2.0644201e-38
-0.020818295 0.040560015 0.80699998 2.2855757e-38
-0.018087223 0.040660538 0.80900002 1.8891345e-38
-0.015266744 0.040560015 0.80699998 2.2760339e-38
-0.012490982 0.040560015 0.80699998 2.3221318e-38
-0.0097151939 0.040560015 0.80699998 2.1100667e-38
-0.0068878378 0.040258456 0.801 2.3501355e-38
-0.0041327132 0.040258456 0.801 2.1562403e-38
-0.0013741488 0.040157937 0.79900002 2.1654599e-38
0.0013740966 0.040157937 0.79900002 2.2299374e-38
0.0041223941 0.040157937 0.79900002 1.9164723e-38
0.0069222338 0.040459495 0.80500001 1.5656681e-38
0.0097392714 0.040660538 0.80900002 1.6209855e-38
0.012521913 0.040660538 0.80900002 1.7869739e-38
0.015266717 0.040560015 0.80699998 2.3494393e-38
0.017953051 0.040358976 0.80299997 2.3325494e-38
0.020663461 0.040258456 0.801 2.3233299e-38
0.023272453 0.040007155 0.796 2.2955277e-38
0.025879676 0.039806113 0.792 2.0189408e-38
0.028603842 0.039806113 0.792 5.8850051e-39
0.031328011 0.039806113 0.792 2.2295819e-38
0.033966191 0.039705593 0.79000002 2.3039861e-38
0.036683477 0.039705593 0.79000002 2.2855469e-38
0.039500568 0.039806113 0.792 1.843657e-38
0.042224735 0.039806113 0.792 1.8713157e-38
0.044948906 0.039806113 0.792 1.7978132e-38
-0.05134489 0.039915282 0.85299999 2.3325835e-38
-0.048410878 0.039915282 0.85299999 2.3325835e-38
-0.045370266 0.039821696 0.85100001 2.3323311e-38
-0.042143915 0.039540932 0.84500003 2.3509503e-38
-0.039005272 0.039306957 0.83999997 2.3232583e-38
-0.035943996 0.039119784 0.83600003 2.3509168e-38
-0.032989372 0.039026197 0.83399999 2.341769e-38
-0.030120742 0.039026197 0.83399999 2.341769e-38
-0.027252082 0.039026197 0.83399999 2.2585399e-38
-0.023535585 0.037669171 0.80500001 2.1571247e-38
-0.020766702 0.037669171 0.80500001 2.2485217e-38
-0.018042507 0.037762757 0.80699998 1.9534957e-38
-0.015228909 0.037669171 0.80500001 2.2762167e-38
-0.012460027 0.037669171 0.80500001 2.3038754e-38
-0.0096911173 0.037669171 0.80500001 2.1929475e-38
-0.0068706395 0.037388407 0.79900002 2.3404605e-38
-0.0041223941 0.037388407 0.79900002 2.285715e-38
-0.0013741488 0.037388407 0.79900002 1.9999085e-38
0.0013740966 0.037388407 0.79900002 2.1194115e-38
0.0041223941 0.037388407 0.79900002 1.7414094e-38
0.0069222338 0.037669171 0.80500001 1.611657e-38
0.0097392714 0.037856348 0.80900002 1.6669744e-38
0.012521913 0.037856348 0.80900002 1.8148512e-38
0.015266717 0.037762757 0.80699998 2.349874e-38
0.017953051 0.037575584 0.80299997 2.341769e-38
0.020663461 0.037481993 0.801 2.2772321e-38
0.023272453 0.037248023 0.796 2.2398872e-38
0.025879676 0.037060849 0.792 2.1200329e-38
0.028603842 0.037060849 0.792 1.2146679e-38
0.031248901 0.036967263 0.79000002 2.3497167e-38
0.033966191 0.036967263 0.79000002 1.9076465e-38
0.036683477 0.036967263 0.79000002 1.8062313e-38
0.039500568 0.037060849 0.792 1.6684811e-38
0.042224735 0.037060849 0.792 1.9174093e-38
0.044948906 0.037060849 0.792 1.8069249e-38
-0.051585659 0.037131932 0.85699999 2.1935646e-38
-0.048410878 0.03695862 0.85299999 1.889319e-38
-0.045263637 0.036785308 0.84899998 1.9353082e-38
-0.042243659 0.036698651 0.847 1.9445278e-38
-0.039144576 0.036525339 0.84299999 2.0824328e-38
-0.035943996 0.036222044 0.83600003 2.0271154e-38
-0.032989372 0.03613539 0.83399999 2.073394e-38
-0.030120742 0.03613539 0.83399999 2.2393461e-38
-0.027252082 0.03613539 0.83399999 2.2674717e-38
-0.023535585 0.034878884 0.80500001 2.156837e-38
-0.020766702 0.034878884 0.80500001 2.3042771e-38
-0.018042507 0.034965537 0.80699998 2.0645685e-38
-0.015228909 0.034878884 0.80500001 2.248778e-38
-0.012460027 0.034878884 0.80500001 2.248778e-38
-0.0096911173 0.034878884 0.80500001 2.2947287e-38
-0.0068706395 0.034618918 0.79900002 2.1933135e-38
-0.0041223941 0.034618918 0.79900002 2.2667037e-38
-0.0013741488 0.034618918 0.79900002 1.8333842e-38
0.0013740966 0.034618918 0.79900002 2.1560042e-38
0.0041223941 0.034618918 0.79900002 1.8240999e-38
0.0069394317 0.034965537 0.80699998 1.5380107e-38
0.0097392714 0.035052195 0.80900002 1.805378e-38
0.012521913 0.035052195 0.80900002 2.1004419e-38
0.015266717 0.034965537 0.80699998 2.3501984e-38
0.017997766 0.034878884 0.80500001 2.341769e-38
0.020663461 0.034705572 0.801 2.2680125e-38
0.023330927 0.034575589 0.79799998 2.3135358e-38
0.02594503 0.034402277 0.79400003 1.9170946e-38
0.028603842 0.034315623 0.792 8.0991015e-39
0.031248901 0.034228966 0.79000002 2.1098673e-38
0.033966191 0.034228966 0.79000002 1.2535205e-38
0.036683477 0.034228966 0.79000002 1.2996183e-38
0.039500568 0.034315623 0.792 1.41999e-38
0.042224735 0.034315623 0.792 1.797992e-38
0.044948906 0.034315623 0.792 1.7977772e-38
-0.051585659 0.034161359 0.85699999 1.7239079e-38
-0.048524387 0.034081638 0.85500002 1.4012232e-38
-0.045263637 0.033842467 0.84899998 1.4289535e-38
-0.042243659 0.033762742 0.847 1.7608578e-38
-0.039330315 0.033762742 0.847 1.8804649e-38
-0.03641694 0.033762742 0.847 1.9081236e-38
-0.026500525 0.032327726 0.81099999 1.9724438e-38
-0.023711005 0.032327726 0.81099999 2.0830785e-38
-0.018131938 0.032327726 0.81099999 2.1107764e-38
-0.015304581 0.032248002 0.80900002 2.2028272e-38
-0.012490982 0.032168277 0.80699998 1.9723381e-38
-0.0096911173 0.032088555 0.80500001 1.9994531e-38
-0.0068878378 0.031929109 0.801 2.0547705e-38
-0.0041327132 0.031929109 0.801 1.9073631e-38
-0.0013775885 0.031929109 0.801 1.6215567e-38
0.0013775361 0.031929109 0.801 1.6674067e-38
0.0041327132 0.031929109 0.801 1.5198937e-38
0.0069394317 0.032168277 0.80699998 1.6118028e-38
0.0097392714 0.032248002 0.80900002 1.565705e-38
0.012521913 0.032248002 0.80900002 1.6766654e-38
0.015266717 0.032168277 0.80699998 1.7873001e-38
0.017997766 0.032088555 0.80500001 1.9535409e-38
0.020663461 0.031929109 0.801 2.0180779e-38
0.023330927 0.031809524 0.79799998 2.1470419e-38
0.026010379 0.031729802 0.796 1.8612354e-38
0.028603842 0.031570356 0.792 8.6576479e-39
0.031248901 0.031490635 0.79000002 1.6586457e-38
0.033966191 0.031490635 0.79000002 1.6130944e-38
0.036683477 0.031490635 0.79000002 1.7698269e-38
0.039500568 0.031570356 0.792 1.8070341e-38
-0.018221367 0.029662183 0.815 2.2308115e-38
-0.015380253 0.029589394 0.81300002 2.3046033e-38
-0.012521939 0.029443812 0.80900002 2.037236e-38
-0.0096911173 0.029298229 0.80500001 2.2486383e-38
-0.0069050356 0.029225441 0.80299997 2.2486383e-38
-0.0041327132 0.029152649 0.801 1.9717267e-38
-0.0013775885 0.029152649 0.801 1.6767007e-38
0.0013809756 0.029225441 0.80299997 1.6396792e-38
0.0041533508 0.029298229 0.80500001 1.4460684e-38
0.0069566299 0.029443812 0.80900002 1.436846e-38
0.0097392714 0.029443812 0.80900002 1.2432352e-38
0.012521913 0.029443812 0.80900002 1.7882352e-38
0.015304554 0.029443812 0.80900002 1.89887e-38
0.018042481 0.029371019 0.80699998 1.7885574e-38
0.020715054 0.029225441 0.80299997 1.7424596e-38
0.023477111 0.029225441 0.80299997 1.7608627e-38
0.029001119 0.029225441 0.80299997 1.834511e-38
-0.018176652 0.026771378 0.81300002 2.2126951e-38
-0.015342416 0.026705517 0.81099999 2.2493585e-38
-0.012521939 0.026639661 0.80900002 2.1571629e-38
-0.0097151939 0.0265738 0.80699998 2.2397437e-38
-0.0069222338 0.026507944 0.80500001 2.1936459e-38
-0.0041430318 0.026442086 0.80299997 2.1009823e-38
-0.0013810281 0.026442086 0.80299997 1.8704933e-38
0.0013844152 0.026507944 0.80500001 1.7135799e-38
0.0041533508 0.026507944 0.80500001 1.4277735e-38
0.0069394317 0.0265738 0.80699998 1.3723832e-38
0.0097392714 0.026639661 0.80900002 1.4000419e-38
0.012521913 0.026639661 0.80900002 1.89894e-38
0.015304554 0.026639661 0.80900002 1.8805009e-38
0.018087195 0.026639661 0.80900002 1.7702255e-38
-0.023886424 0.024071211 0.81699997 2.0652522e-38
-0.018176652 0.02395336 0.81300002 2.3141103e-38
-0.015304581 0.023835508 0.80900002 2.2308115e-38
-0.012521939 0.023835508 0.80900002 2.1386159e-38
-0.0097151939 0.023776582 0.80699998 2.2397077e-38
-0.0069222338 0.023717657 0.80500001 2.212049e-38
-0.0041533508 0.023717657 0.80500001 2.0549564e-38
-0.0013844678 0.023717657 0.80500001 1.8613456e-38
0.0013844152 0.023717657 0.80500001 1.7044685e-38
0.0041533508 0.023717657 0.80500001 1.4371012e-38
0.0069394317 0.023776582 0.80699998 1.4093699e-38
0.0097392714 0.023835508 0.80900002 1.4462482e-38
0.012521913 0.023835508 0.80900002 1.9172713e-38
0.015304554 0.023835508 0.80900002 1.8896126e-38
0.018087195 0.023835508 0.80900002 1.8071037e-38
-0.021076266 0.02123929 0.81699997 2.3325494e-38
-0.018176652 0.021135304 0.81300002 2.341769e-38
-0.015304581 0.021031316 0.80900002 2.2215922e-38
-0.012521939 0.021031316 0.80900002 2.2308118e-38
-0.0097151939 0.020979322 0.80699998 2.2397077e-38
-0.0069394317 0.020979322 0.80699998 2.1290729e-38
-0.0041533508 0.02092733 0.80500001 2.0363375e-38
-0.0013844678 0.02092733 0.80500001 1.8703854e-38
0.0013844152 0.02092733 0.80500001 1.7321275e-38
0.0041533508 0.02092733 0.80500001 1.5016384e-38
0.0069394317 0.020979322 0.80699998 1.4924524e-38
0.0097392714 0.021031316 0.80900002 1.437135e-38
0.012521913 0.021031316 0.80900002 1.8435148e-38
0.01534239 0.02108331 0.81099999 1.880393e-38
0.018176626 0.021135304 0.81300002 1.7610419e-38
-0.021076266 0.018407367 0.81699997 2.341769e-38
-0.018176652 0.018317247 0.81300002 2.341769e-38
-0.015342416 0.018272186 0.81099999 2.3322267e-38
-0.012521939 0.018227125 0.80900002 2.304568e-38
-0.0097151939 0.018182063 0.80699998 2.2855531e-38
-0.0069394317 0.018182063 0.80699998 2.202577e-38
-0.0041636694 0.018182063 0.80699998 2.1746653e-38
-0.0013844678 0.018137002 0.80500001 2.0087131e-38
0.0013844152 0.018137002 0.80500001 1.8426163e-38
0.0041533508 0.018137002 0.80500001 1.6674446e-38
0.0069394317 0.018182063 0.80699998 1.6215984e-38
0.0097392714 0.018227125 0.80900002 1.5755006e-38
0.012521913 0.018227125 0.80900002 1.8250396e-38
0.01534239 0.018272186 0.81099999 1.8895766e-38
0.018176626 0.018317247 0.81300002 1.7978848e-38
-0.021076266 0.015575487 0.81699997 1.648896e-38
-0.018221367 0.015537359 0.815 1.6581156e-38
-0.015418088 0.015537359 0.815 1.631038e-38
-0.012552896 0.015461101 0.81099999 1.6771358e-38
-0.0097392714 0.015422974 0.80900002 1.732344e-38
-0.0069394317 0.015384845 0.80699998 1.6954658e-38
-0.0041636694 0.015384845 0.80699998 1.6675906e-38
-0.0013879074 0.015384845 0.80699998 1.5753949e-38
0.0013878547 0.015384845 0.80699998 1.3176021e-38
0.0041636694 0.015384845 0.80699998 1.0317957e-38
0.0069394317 0.015384845 0.80699998 6.4464816e-39
0.0097392714 0.015422974 0.80900002 1.1793828e-38
0.01255287 0.015461101 0.81099999 1.7241289e-38
0.015380226 0.01549923 0.81300002 1.8163245e-38
-0.021076266 0.012743565 0.81699997 9.6830775e-39
-0.018266082 0.012743565 0.81699997 7.6547736e-39
-0.015418088 0.01271237 0.815 8.0214416e-39
-0.012583853 0.012681174 0.81300002 8.3902241e-39
-0.0097392714 0.012618782 0.80900002 7.0983881e-39
-0.0069566299 0.012618782 0.80900002 7.5593662e-39
-0.0041739885 0.012618782 0.80900002 8.1118323e-39
-0.0013879074 0.012587585 0.80699998 7.4664629e-39
0.0013878547 0.012587585 0.80699998 3.684563e-39
0.0041636694 0.012587585 0.80699998 3.8689542e-39
0.0069566299 0.012618782 0.80900002 2.7696244e-40
0.0097392714 0.012618782 0.80900002 1.2723372e-38
0.01255287 0.012649978 0.81099999 1.9175599e-38
0.015418061 0.01271237 0.815 1.8161447e-38
-0.021102065 0.0099238176 0.81800002 1.0235925e-38
-0.018266082 0.0099116843 0.81699997 9.0373816e-39
-0.015455923 0.0099116843 0.81699997 9.9593379e-39
-0.012614809 0.0098874215 0.815 1.032812e-38
-0.0097874263 0.0098631578 0.81300002 1.0512877e-38
-0.0069566299 0.0098146303 0.80900002 1.0512877e-38
-0.0041739885 0.0098146303 0.80900002 1.0142999e-38
-0.0013913471 0.0098146303 0.80900002 6.2707826e-39
0.0013912943 0.0098146303 0.80900002 5.3480878e-39
0.0041739885 0.0098146303 0.80900002 5.3480878e-39
0.0069566299 0.0098146303 0.80900002 3.5070689e-39
0.0097633488 0.009838894 0.81099999 1.0052959e-38
0.01255287 0.009838894 0.81099999 1.9082312e-38
0.015418061 0.0098874215 0.815 1.8252551e-38
-0.021153659 0.0071057603 0.81999999 1.0142643e-38
-0.018288441 0.0070884293 0.81800002 9.681665e-39
-0.015455923 0.0070797629 0.81699997 1.0879143e-38
-0.012614809 0.0070624324 0.815 1.0602556e-38
-0.0097633488 0.0070277699 0.81099999 1.0511808e-38
-0.0069566299 0.0070104389 0.80900002 1.0604004e-38
-0.0041636694 0.0069931075 0.80699998 8.7597087e-39
-0.0013879074 0.0069931075 0.80699998 5.8094485e-39
0.0013878547 0.0069931075 0.80699998 5.9001924e-39
0.0041739885 0.0070104389 0.80900002 5.7158011e-39
0.0069566299 0.0070104389 0.80900002 5.719757e-39
0.0097633488 0.0070277699 0.81099999 6.1807352e-39
0.012583827 0.0070451014 0.81300002 1.9265264e-38
0.015418061 0.0070624324 0.815 1.8527699e-38
0.018221339 0.0070624324 0.815 1.7793731e-38
-0.023915663 0.0042530415 0.81800002 1.2814817e-38
-0.021102065 0.0042530415 0.81800002 1.0605073e-38
-0.018288441 0.0042530415 0.81800002 1.0512877e-38
-0.015455923 0.0042478419 0.81699997 1.2813825e-38
-0.012614809 0.0042374432 0.815 1.2813825e-38
-0.0097392714 0.0042062472 0.80900002 1.0972784e-38
-0.0069394317 0.0041958485 0.80699998 9.4976535e-39
-0.0041636694 0.0041958485 0.80699998 8.0235898e-39
-0.0013879074 0.0041958485 0.80699998 4.4279602e-39
0.0013878547 0.0041958485 0.80699998 6.5459149e-39
0.0041739885 0.0042062472 0.80900002 6.3615237e-39
0.0069566299 0.0042062472 0.80900002 7.8363006e-39
0.0097633488 0.0042166458 0.81099999 5.6236055e-39
0.012583827 0.0042270445 0.81300002 1.6132758e-38
0.015418061 0.0042374432 0.815 1.8898627e-38
0.018221339 0.0042374432 0.815 1.7701899e-38
-0.021102065 0.0014176939 0.81800002 1.2540462e-38
-0.018288441 0.0014176939 0.81800002 1.2540462e-38
-0.015455923 0.0014159607 0.81699997 1.4105267e-38
-0.012614809 0.0014124945 0.815 1.4105267e-38
-0.0097392714 0.0014020958 0.80900002 1.0973134e-38
-0.0069394317 0.0013986295 0.80699998 1.1249721e-38
-0.0041636694 0.0013986295 0.80699998 9.2231909e-39
-0.0013879074 0.0013986295 0.80699998 5.5353658e-39
0.0013878547 0.0013986295 0.80699998 7.0990915e-39
0.0041739885 0.0014020958 0.80900002 7.2834828e-39
0.0069566299 0.0014020958 0.80900002 7.8384488e-39
0.0097633488 0.0014055619 0.81099999 6.4555144e-39
0.012583827 0.0014090283 0.81300002 1.2077592e-38
0.015418061 0.0014124945 0.815 1.8623482e-38
0.018221339 0.0014124945 0.815 1.7610059e-38
-0.021153659 -0.0014211602 0.81999999 1.1709986e-38
-0.018288441 -0.0014176939 0.81800002 1.2078768e-38
-0.015418088 -0.0014124945 0.815 1.3553884e-38
-0.012583853 -0.0014090283 0.81300002 1.1802167e-38
-0.0097392714 -0.0014020958 0.80900002 1.0790543e-38
-0.0069394317 -0.0013986295 0.80699998 1.0974935e-38
-0.0041636694 -0.0013986295 0.80699998 6.8250228e-39
-0.0013879074 -0.0013986295 0.80699998 5.9030665e-39
0.0013878547 -0.0013986295 0.80699998 7.192376e-39
0.0041636694 -0.0013986295 0.80699998 9.5894623e-39
0.0069566299 -0.0014020958 0.80900002 8.6664116e-39
0.0097392714 -0.0014020958 0.80900002 8.2054335e-39
0.01255287 -0.0014055619 0.81099999 7.8362376e-39
0.015380226 -0.0014090283 0.81300002 1.8530931e-38
0.018176626 -0.0014090283 0.81300002 1.7610059e-38
-0.021205254 -0.0042738388 0.82200003 1.1618503e-38
-0.018288441 -0.0042530415 0.81800002 1.2263873e-38
-0.015418088 -0.0042374432 0.815 1.3186185e-38
-0.012552896 -0.0042166458 0.81099999 9.9593379e-39
-0.0097392714 -0.0042062472 0.80900002 1.0973134e-38
-0.0069394317 -0.0041958485 0.80699998 1.0696547e-38
-0.0041533508 -0.0041854503 0.80500001 6.5477226e-39
-0.0013844678 -0.0041854503 0.80500001 7.0087008e-39
0.0013844152 -0.0041854503 0.80500001 8.6660613e-39
0.0041533508 -0.0041854503 0.80500001 8.6660613e-39
0.0069566299 -0.0042062472 0.80900002 8.2061425e-39
0.0097392714 -0.0042062472 0.80900002 7.5607731e-39
0.012521913 -0.0042062472 0.80900002 4.336447e-39
0.01534239 -0.0042166458 0.81099999 1.5953096e-38
0.01813191 -0.0042166458 0.81099999 1.7793734e-38
-0.024091084 -0.0071404227 0.824 1.1063125e-38
-0.021205254 -0.0071230917 0.82200003 1.1711784e-38
-0.018266082 -0.0070797629 0.81699997 1.34635e-38
-0.015380253 -0.0070451014 0.81300002 1.3187267e-38
-0.012521939 -0.0070104389 0.80900002 1.1158963e-38
-0.0097151939 -0.0069931075 0.80699998 1.1249358e-38
-0.0069394317 -0.0069931075 0.80699998 1.0603988e-38
-0.0041533508 -0.0069757765 0.80500001 7.6533485e-39
-0.0013844678 -0.0069757765 0.80500001 7.6533485e-39
0.0013844152 -0.0069757765 0.80500001 7.6537044e-39
0.0041533508 -0.0069757765 0.80500001 8.2068782e-39
0.0069394317 -0.0069931075 0.80699998 7.1012439e-39
0.0097392714 -0.0070104389 0.80900002 7.5622221e-39
0.012521913 -0.0070104389 0.80900002 5.9001924e-39
0.015304554 -0.0070104389 0.80900002 1.4197799e-38
0.01813191 -0.0070277699 0.81099999 1.8069965e-38
0.020973027 -0.0070451014 0.81300002 1.7424596e-38
-0.02403261 -0.0099723041 0.82200003 1.3460938e-38
-0.021102065 -0.0099237766 0.81800002 1.4198902e-38
-0.018221367 -0.0098873805 0.815 1.4844271e-38
-0.015380253 -0.0098631177 0.81300002 1.3002875e-38
-0.012521939 -0.0098145902 0.80900002 1.1158963e-38
-0.0097151939 -0.0097903265 0.80699998 1.1251158e-38
-0.0069394317 -0.0097903265 0.80699998 1.0882376e-38
-0.0041533508 -0.0097660637 0.80500001 7.3771175e-39
-0.0013844678 -0.0097660637 0.80500001 7.2849219e-39
0.0013844152 -0.0097660637 0.80500001 7.6522653e-39
0.0041533508 -0.0097660637 0.80500001 7.9288522e-39
0.0069394317 -0.0097903265 0.80699998 7.6533485e-39
0.0097151939 -0.0097903265 0.80699998 8.2065223e-39
0.012521913 -0.0098145902 0.80900002 6.3647635e-39
0.015304554 -0.0098145902 0.80900002 8.9462411e-39
0.01813191 -0.009838854 0.81099999 1.8712091e-38
0.020921431 -0.009838854 0.81099999 1.8066721e-38
-0.023974136 -0.01279036 0.81999999 1.3830086e-38
-0.021076266 -0.012743565 0.81699997 1.3923386e-38
-0.018176652 -0.012681174 0.81300002 1.4660951e-38
-0.015342416 -0.012649978 0.81099999 1.2356407e-38
-0.012521939 -0.012618782 0.80900002 1.1434451e-38
-0.0097151939 -0.012587585 0.80699998 1.1709983e-38
-0.0069222338 -0.01255639 0.80500001 1.0142657e-38
-0.0041533508 -0.01255639 0.80500001 7.6537044e-39
-0.0013844678 -0.01255639 0.80500001 7.1927263e-39
0.0013844152 -0.01255639 0.80500001 7.192376e-39
0.0041533508 -0.01255639 0.80500001 8.0221366e-39
0.0069394317 -0.012587585 0.80699998 8.3909192e-39
0.0097151939 -0.012587585 0.80699998 8.667506e-39
0.012521913 -0.012618782 0.80900002 7.0079987e-39
0.015304554 -0.012618782 0.80900002 5.440673e-39
0.018087195 -0.012618782 0.80900002 1.742423e-38
0.020921431 -0.012649978 0.81099999 1.7516426e-38
0.023769479 -0.012681174 0.81300002 1.7241289e-38
-0.023915663 -0.015594512 0.81800002 1.3278707e-38
-0.021076266 -0.015575446 0.81699997 1.3278753e-38
-0.018176652 -0.01549919 0.81300002 1.3463145e-38
-0.015304581 -0.015422934 0.80900002 9.4097472e-39
-0.012490982 -0.015384804 0.80699998 1.1069269e-38
-0.0096911173 -0.015346677 0.80500001 1.2355352e-38
-0.0069222338 -0.015346677 0.80500001 9.3128965e-39
-0.0041533508 -0.015346677 0.80500001 7.2849219e-39
-0.0013844678 -0.015346677 0.80500001 7.4693132e-39
0.0013844152 -0.015346677 0.80500001 6.7332167e-39
0.0041533508 -0.015346677 0.80500001 8.5771293e-39
0.0069394317 -0.015384804 0.80699998 8.667506e-39
0.0097151939 -0.015384804 0.80699998 8.5753104e-39
0.012490956 -0.015384804 0.80699998 6.3651474e-39
0.015304554 -0.015422934 0.80900002 4.5212348e-39
0.018087195 -0.015422934 0.80900002 1.5855815e-38
0.020921431 -0.015461061 0.81099999 1.8068511e-38
0.023769479 -0.01549919 0.81300002 1.7241289e-38
-0.023915663 -0.0184299 0.81800002 1.3830086e-38
-0.021076266 -0.018407367 0.81699997 1.4566597e-38
-0.018176652 -0.018317247 0.81300002 1.3736836e-38
-0.015304581 -0.018227125 0.80900002 1.1250437e-38
-0.012490982 -0.018182063 0.80699998 1.244898e-38
-0.0096911173 -0.018137002 0.80500001 1.1803613e-38
-0.0069050356 -0.018091943 0.80299997 8.4845707e-39
-0.0041430318 -0.018091943 0.80299997 7.0079791e-39
-0.0013810281 -0.018091943 0.80299997 7.0079791e-39
0.0013844152 -0.018137002 0.80500001 7.8374035e-39
0.0041533508 -0.018137002 0.80500001 8.5749685e-39
0.0069222338 -0.018137002 0.80500001 8.4831148e-39
0.0096911173 -0.018137002 0.80500001 8.3909192e-39
0.012490956 -0.018182063 0.80699998 7.469323e-39
0.015266717 -0.018182063 0.80699998 5.8098016e-39
0.018087195 -0.018227125 0.80900002 1.2447104e-38
0.020921431 -0.018272186 0.81099999 1.7702255e-38
0.023769479 -0.018317247 0.81300002 1.7056176e-38
-0.023886424 -0.021239249 0.81699997 1.3371278e-38
-0.021024672 -0.021187257 0.815 1.3829032e-38
-0.018176652 -0.021135263 0.81300002 1.2169511e-38
-0.015304581 -0.021031277 0.80900002 1.1248282e-38
-0.012490982 -0.020979283 0.80699998 1.3829759e-38
-0.0096911173 -0.02092729 0.80500001 1.1618143e-38
-0.0069050356 -0.020875297 0.80299997 9.8664262e-39
-0.0041430318 -0.020875297 0.80299997 9.0370018e-39
-0.0013810281 -0.020875297 0.80299997 8.6682193e-39
0.0013809756 -0.020875297 0.80299997 9.1277919e-39
0.0041533508 -0.02092729 0.80500001 9.4043788e-39
0.0069222338 -0.02092729 0.80500001 8.5756607e-39
0.0096911173 -0.02092729 0.80500001 8.1146826e-39
0.01246 -0.02092729 0.80500001 7.4689572e-39
0.015266717 -0.020979283 0.80699998 6.5470009e-39
0.018087195 -0.021031277 0.80900002 9.8645667e-39
0.020921431 -0.021083269 0.81099999 1.7793391e-38
0.023711005 -0.021083269 0.81099999 1.7240923e-38
-0.023886424 -0.02407117 0.81699997 1.3186521e-38
-0.021024672 -0.024012245 0.815 1.2356068e-38
-0.018176652 -0.02395332 0.81300002 1.106533e-38
-0.015304581 -0.023835469 0.80900002 1.2170961e-38
-0.012490982 -0.023776541 0.80699998 1.3646091e-38
-0.0096911173 -0.023717616 0.80500001 1.0606149e-38
-0.0069050356 -0.023658691 0.80299997 1.0145171e-38
-0.0041327132 -0.023599764 0.801 7.9321018e-39
-0.0013775885 -0.023599764 0.801 8.5774712e-39
0.0013775361 -0.023599764 0.801 1.1063148e-38
0.0041430318 -0.023658691 0.80299997 9.0348438e-39
0.0069050356 -0.023658691 0.80299997 7.5600697e-39
0.0096911173 -0.023717616 0.80500001 6.9147003e-39
0.01246 -0.023717616 0.80500001 7.00654e-39
0.015266717 -0.023776541 0.80699998 7.5597137e-39
0.018087195 -0.023835469 0.80900002 6.7338809e-39
0.020869838 -0.023835469 0.80900002 1.5861248e-38
0.023652531 -0.023835469 0.80900002 1.6965052e-38
-0.023915663 -0.026936024 0.81800002 1.4015563e-38
-0.021076266 -0.026903091 0.81699997 1.2079473e-38
-0.018221367 -0.026837233 0.815 1.1341908e-38
-0.015304581 -0.026639661 0.80900002 1.3276592e-38
-0.012490982 -0.0265738 0.80699998 1.3184397e-38
-0.0096911173 -0.026507944 0.80500001 1.0238443e-38
-0.0069050356 -0.026442086 0.80299997 1.0330639e-38
-0.0041327132 -0.026376227 0.801 8.4849197e-39
-0.0013775885 -0.026376227 0.801 8.5771153e-39
0.0013775361 -0.026376227 0.801 8.9430041e-39
0.0041327132 -0.026376227 0.801 7.5600697e-39
0.0068878378 -0.026376227 0.801 6.7303062e-39
0.0096911173 -0.026507944 0.80500001 6.6381106e-39
0.01246 -0.026507944 0.80500001 7.8370531e-39
0.015266717 -0.0265738 0.80699998 8.8512051e-39
0.018087195 -0.026639661 0.80900002 5.6289683e-39
0.020869838 -0.026639661 0.80900002 1.4203162e-38
0.023652531 -0.026639661 0.80900002 1.7241639e-38
-0.023886424 -0.029734973 0.81699997 1.4014497e-38
-0.021076266 -0.029734973 0.81699997 1.0605789e-38
-0.018221367 -0.029662183 0.815 1.0882376e-38
-0.015342416 -0.029516602 0.81099999 1.3647185e-38
-0.012521939 -0.029443812 0.80900002 1.207986e-38
-0.0096911173 -0.029298229 0.80500001 1.0882722e-38
-0.0068878378 -0.029152649 0.801 9.4997876e-39
-0.0041327132 -0.029152649 0.801 9.9586078e-39
-0.0013775885 -0.029152649 0.801 9.3132384e-39
0.0013775361 -0.029152649 0.801 7.5618717e-39
0.0041327132 -0.029152649 0.801 6.5477198e-39
0.0068878378 -0.029152649 0.801 7.0068903e-39
0.0096911173 -0.029298229 0.80500001 7.2834772e-39
0.012490956 -0.029371019 0.80699998 1.0233777e-38
0.015266717 -0.029371019 0.80699998 8.8508421e-39
0.018042481 -0.029371019 0.80699998 4.6108759e-39
0.020818243 -0.029371019 0.80699998 1.2263113e-38
0.023535585 -0.029298229 0.80500001 1.7241283e-38
0.026304469 -0.029298229 0.80500001 1.6595914e-38
-0.023886424 -0.032566894 0.81699997 1.3647149e-38
-0.021076266 -0.032566894 0.81699997 9.6856208e-39
-0.018221367 -0.032487173 0.815 1.1160751e-38
-0.015380253 -0.032407451 0.81300002 1.4845003e-38
-0.012521939 -0.032248002 0.80900002 1.1986938e-38
-0.0096670389 -0.032008834 0.80299997 1.0790526e-38
-0.0068878378 -0.031929109 0.801 1.0329548e-38
-0.0041327132 -0.031929109 0.801 1.0420668e-38
-0.0013775885 -0.031929109 0.801 9.4987114e-39
0.0013775361 -0.031929109 0.801 8.1146924e-39
0.0041327132 -0.031929109 0.801 7.0083448e-39
0.0068878378 -0.031929109 0.801 7.6508276e-39
0.0096911173 -0.032088555 0.80500001 8.8493708e-39
0.012490956 -0.032168277 0.80699998 9.7742137e-39
0.015266717 -0.032168277 0.80699998 8.3912793e-39
0.018042481 -0.032168277 0.80699998 5.535363e-39
0.020818243 -0.032168277 0.80699998 1.0421731e-38
0.023535585 -0.032088555 0.80500001 1.742388e-38
0.026304469 -0.032088555 0.80500001 1.677851e-38
-0.023974136 -0.03552876 0.81999999 1.226636e-38
-0.021076266 -0.035398774 0.81699997 1.0145168e-38
-0.018221367 -0.03531212 0.815 1.2726646e-38
-0.015380253 -0.035225466 0.81300002 1.3371278e-38
-0.012521939 -0.035052154 0.80900002 1.2357126e-38
-0.0096670389 -0.034792189 0.80299997 9.9604029e-39
-0.0068878378 -0.034705531 0.801 1.0513577e-38
-0.0041327132 -0.034705531 0.801 1.0513574e-38
-0.0013775885 -0.034705531 0.801 7.8399006e-39
0.0013775361 -0.034705531 0.801 7.2856226e-39
0.0041327132 -0.034705531 0.801 6.7324488e-39
0.0068878378 -0.034705531 0.801 6.6395273e-39
0.0096911173 -0.034878843 0.80500001 6.9161142e-39
0.012490956 -0.034965497 0.80699998 7.1934297e-39
0.015266717 -0.034965497 0.80699998 5.5339084e-39
0.018042481 -0.034965497 0.80699998 1.3973146e-39
0.020818243 -0.034965497 0.80699998 7.6666174e-39
0.023652531 -0.035052154 0.80900002 1.7056176e-38
-0.026794612 -0.038371082 0.81999999 1.3001026e-38
-0.023974136 -0.038371082 0.81999999 1.1710287e-38
-0.021076266 -0.038230695 0.81699997 1.262971e-38
-0.018221367 -0.038137108 0.815 1.3551666e-38
-0.015380253 -0.038043521 0.81300002 1.134146e-38
-0.012521939 -0.037856348 0.80900002 1.2263416e-38
-0.0096670389 -0.037575584 0.80299997 1.4013761e-38
-0.0069050356 -0.037575584 0.80299997 1.2815218e-38
-0.0041430318 -0.037575584 0.80299997 1.2811552e-38
-0.0013810281 -0.037575584 0.80299997 1.0137879e-38
0.0013775361 -0.037481993 0.801 1.1246422e-38
0.0041327132 -0.037481993 0.801 1.4473269e-38
0.0068878378 -0.037481993 0.801 1.2816602e-38
0.0096911173 -0.037669171 0.80500001 1.3738559e-38
0.012490956 -0.037762757 0.80699998 1.4015155e-38
0.015266717 -0.037762757 0.80699998 1.5029307e-38
0.018042481 -0.037762757 0.80699998 1.6965062e-38
0.020818243 -0.037762757 0.80699998 1.7241649e-38
0.023652531 -0.037856348 0.80900002 1.6779945e-38
-0.023974136 -0.04121336 0.81999999 1.7609343e-38
-0.021153659 -0.04121336 0.81999999 1.8617698e-38
-0.018288441 -0.041112844 0.81800002 1.6958176e-38
-0.015474843 -0.041112844 0.81800002 1.2348382e-38
-0.012661245 -0.041112844 0.81800002 1.280936e-38
-0.0096670389 -0.040358938 0.80299997 1.6687772e-38
-0.0069050356 -0.040358938 0.80299997 1.714875e-38
-0.0041430318 -0.040358938 0.80299997 1.6220974e-38
-0.0013844678 -0.040459458 0.80500001 1.2533149e-38
0.0013844152 -0.040459458 0.80500001 1.4287423e-38
0.0041430318 -0.040358938 0.80299997 1.9081596e-38
0.0069050356 -0.040358938 0.80299997 1.760899e-38
0.0097151939 -0.040559974 0.80699998 1.7332403e-38
0.012490956 -0.040559974 0.80699998 1.7148009e-38
0.015266717 -0.040559974 0.80699998 1.7148009e-38
0.018042481 -0.040559974 0.80699998 1.6595907e-38
-0.024091084 -0.044270586 0.824 1.6042014e-38
-0.021256847 -0.044270586 0.824 1.3272124e-38
-0.018422585 -0.044270586 0.824 1.3456515e-38
-0.01558835 -0.044270586 0.824 9.8598036e-39
-0.012785071 -0.044378038 0.82599998 5.4344372e-39
-0.0099439286 -0.044378038 0.82599998 8.4484425e-40
-0.0069566299 -0.04346469 0.80900002 1.4397602e-38
-0.0041739885 -0.04346469 0.80900002 1.8708461e-38
-0.0013947869 -0.043572139 0.81099999 1.3268919e-38
0.0013912943 -0.04346469 0.80900002 9.1214889e-39
0.0041739885 -0.04346469 0.80900002 8.2917409e-39
0.0069566299 -0.04346469 0.80900002 1.3184666e-38
0.0098355804 -0.0438945 0.81699997 1.7149078e-38
0.012645738 -0.0438945 0.81699997 1.6687031e-38
-0.024091084 -0.047126733 0.824 1.6961447e-38
-0.021256847 -0.047126733 0.824 1.6216308e-38
-0.018422585 -0.047126733 0.824 1.2897265e-38
-0.015550514 -0.047012348 0.82200003 8.6619527e-39
-0.012723157 -0.047012348 0.82200003 7.3712335e-39
-0.0099198511 -0.047126733 0.824 1.6406869e-38
-0.0069566299 -0.046268839 0.80900002 1.5853695e-38
-0.0041739885 -0.046268839 0.80900002 1.4560329e-38
-0.0013947869 -0.046383224 0.81099999 1.1517873e-38
0.0013981734 -0.046497613 0.81300002 7.8339983e-39
0.0041946266 -0.046497613 0.81300002 7.3730272e-39
0.0070254221 -0.04672638 0.81699997 5.7131723e-39
0.0098355804 -0.04672638 0.81699997 1.5393702e-38
0.012661218 -0.046783578 0.81800002 1.8897936e-38
-0.026925318 -0.049982917 0.824 1.9912439e-38
-0.024091084 -0.049982917 0.824 1.6409005e-38
-0.021256847 -0.049982917 0.824 1.6771288e-38
-0.01837787 -0.049861602 0.82200003 1.2622485e-38
-0.015512677 -0.049740281 0.81999999 7.008555e-39
-0.012645765 -0.049558301 0.81699997 1.4015422e-38
-0.0098355804 -0.049558301 0.81699997 2.1197419e-38
-0.0069566299 -0.049073033 0.80900002 1.9722289e-38
-0.0041739885 -0.049073033 0.80900002 1.7783618e-38
-0.0013913471 -0.049073033 0.80900002 1.5663119e-38
0.0013912943 -0.049073033 0.80900002 1.1889559e-38
0.0041843075 -0.049194347 0.81099999 1.1059799e-38
0.0069910265 -0.049315669 0.81300002 9.4932015e-39
0.0098115029 -0.049436986 0.815 1.2627853e-38
0.012661218 -0.049618967 0.81800002 1.9359268e-38
-0.026925318 -0.052839104 0.824 2.0558534e-38
-0.024091084 -0.052839104 0.824 1.8622426e-38
-0.021256847 -0.052839104 0.824 1.852445e-38
-0.01837787 -0.052710854 0.82200003 1.6957124e-38
-0.015512677 -0.052582603 0.81999999 1.4749447e-38
-0.012645765 -0.052390222 0.81699997 1.4288469e-38
-0.0098355804 -0.052390222 0.81699997 1.7418799e-38
-0.0069566299 -0.051877223 0.80900002 1.7050016e-38
-0.0041739885 -0.051877223 0.80900002 1.2812592e-38
-0.0013913471 -0.051877223 0.80900002 1.0692092e-38
0.0013912943 -0.051877223 0.80900002 9.1250762e-39
0.0041739885 -0.051877223 0.80900002 9.3094661e-39
0.0069910265 -0.052133724 0.81300002 8.1167411e-39
0.0098115029 -0.052261975 0.815 1.1251393e-38
-0.026925318 -0.055695247 0.824 2.0652171e-38
-0.024091084 -0.055695247 0.824 1.9914606e-38
-0.021256847 -0.055695247 0.824 2.0280139e-38
-0.015550514 -0.055560067 0.82200003 1.9084107e-38
-0.012723157 -0.055560067 0.82200003 1.9821672e-38
-0.0013913471 -0.054681376 0.80900002 2.0651083e-38
0.0013912943 -0.054681376 0.80900002 2.0098988e-38
0.0041739885 -0.054681376 0.80900002 2.0191183e-38
