# .PCD v0.7 - Point Cloud Data file format
VERSION 0.7
FIELDS x y z rgb
SIZE 4 4 4 4
TYPE F F F F
COUNT 1 1 1 1
WIDTH 986
HEIGHT 1
VIEWPOINT 0 0 0 1 0 0 0
POINTS 986
DATA ascii
0.015313168 0.027189052 0.42399999 6.4403579e-39
0.016771562 0.027189052 0.42399999 1.18799e-38
0.018272951 0.027253177 0.42500001 1.5106038e-38
0.019734783 0.027253177 0.42500001 1.4552864e-38
0.021246517 0.027317302 0.426 1.483121e-38
0.022605162 0.027189052 0.42399999 1.6029753e-38
0.024063554 0.027189052 0.42399999 1.7044579e-38
0.025461754 0.027124926 0.42300001 1.7689948e-38
0.026789444 0.026996676 0.421 1.8335424e-38
0.028170442 0.026932551 0.41999999 1.8980794e-38
0.029474054 0.026804302 0.41800001 1.879603e-38
0.030911837 0.026804302 0.41800001 1.815066e-38
0.032349594 0.026804302 0.41800001 1.8795677e-38
0.033706516 0.026740177 0.417 2.0178611e-38
0.035140835 0.026740177 0.417 2.2859487e-38
0.036399726 0.026611926 0.41499999 2.3507374e-38
0.037553716 0.026419552 0.412 2.3048189e-38
0.038876243 0.026355427 0.41100001 2.3140384e-38
0.04028995 0.026355427 0.41100001 2.3138585e-38
-0.019648809 0.027721129 0.45699999 2.1018806e-38
-0.018037355 0.02766047 0.456 2.21212e-38
-0.016432779 0.027599813 0.45500001 2.1936809e-38
-0.014737037 0.027357176 0.45100001 2.1841367e-38
-0.013127302 0.02723586 0.449 2.1103802e-38
-0.011505526 0.027053883 0.44600001 2.0826501e-38
-0.0099714473 0.027053883 0.44600001 2.1010893e-38
-0.008399548 0.026932565 0.44400001 2.0919776e-38
-0.0068259276 0.026750589 0.44100001 2.0274407e-38
-0.005297008 0.026689928 0.44 2.0272962e-38
-0.0037749822 0.026629271 0.43900001 1.9351006e-38
-0.0022546763 0.026507953 0.43700001 1.9257724e-38
-0.00074984838 0.026447292 0.43599999 1.9718702e-38
0.00074810011 0.026386634 0.435 2.1565511e-38
0.0022288791 0.026204659 0.43200001 2.0643555e-38
0.0037061898 0.026143998 0.43099999 1.8426525e-38
0.0051766215 0.026083339 0.43000001 1.3171375e-38
0.0066556521 0.026083339 0.43000001 1.2984437e-38
0.0081346827 0.026083339 0.43000001 1.565811e-38
0.0096137132 0.026083339 0.43000001 1.3908226e-38
0.011066947 0.02602268 0.42899999 1.2525292e-38
0.012513329 0.025962021 0.428 1.1601155e-38
0.013985481 0.025962021 0.428 9.1118732e-39
0.015457633 0.025962021 0.428 1.4002968e-38
0.016771562 0.025719384 0.42399999 1.7322011e-38
0.018229954 0.025719384 0.42399999 1.6951023e-38
0.019734783 0.025780044 0.42500001 1.3816371e-38
0.021246517 0.025840703 0.426 1.6857356e-38
0.022605162 0.025719384 0.42399999 1.6211986e-38
0.024006801 0.025658727 0.42300001 1.7043552e-38
0.025461754 0.025658727 0.42300001 1.8795269e-38
0.026598543 0.025355432 0.41800001 1.8335424e-38
0.028036298 0.025355432 0.41800001 1.842762e-38
0.029474054 0.025355432 0.41800001 1.8980421e-38
0.030911837 0.025355432 0.41800001 1.815066e-38
0.032272201 0.025294773 0.417 1.8057758e-38
0.033706516 0.025294773 0.417 1.9625084e-38
0.035140835 0.025294773 0.417 2.2213396e-38
0.036136597 0.024991479 0.412 2.3504855e-38
0.037462566 0.024930822 0.41100001 2.2679409e-38
0.038781654 0.024870161 0.41 2.3048191e-38
0.03999586 0.024748843 0.40799999 2.3140384e-38
0.041399222 0.024748843 0.40799999 2.3324775e-38
-0.024471154 0.026251441 0.45899999 2.341769e-38
-0.022892375 0.026251441 0.45899999 2.1665973e-38
-0.021220723 0.026137056 0.45699999 2.0920124e-38
-0.019648809 0.026137056 0.45699999 2.0643537e-38
-0.017997799 0.026022671 0.45500001 2.1566227e-38
-0.016396662 0.025965478 0.454 2.1105249e-38
-0.014737037 0.025793901 0.45100001 2.0454822e-38
-0.013127302 0.025679516 0.449 2.0362627e-38
-0.011505526 0.025507938 0.44600001 1.9996022e-38
-0.0099714473 0.025507938 0.44600001 2.0733587e-38
-0.008399548 0.025393553 0.44400001 2.0549912e-38
-0.0068259276 0.025221976 0.44100001 1.9166977e-38
-0.005297008 0.025164781 0.44 1.9439964e-38
-0.0037749822 0.025107589 0.43900001 1.9163377e-38
-0.0022546763 0.024993204 0.43700001 1.8795311e-38
-0.00074812857 0.024878819 0.435 1.9164093e-38
0.0007463803 0.024821624 0.43399999 2.0644271e-38
0.0022288791 0.024707241 0.43200001 2.0091097e-38
0.0036803926 0.024478469 0.428 2.0735016e-38
0.005152544 0.024478469 0.428 1.9536473e-38
0.0066092173 0.024421275 0.42699999 1.7869379e-38
0.0080779288 0.024421275 0.42699999 1.6763031e-38
0.0095913559 0.02453566 0.42899999 1.4645413e-38
0.011092744 0.024592854 0.43000001 1.4000044e-38
0.012542566 0.02453566 0.42899999 1.3727425e-38
0.013887453 0.024306891 0.42500001 1.6493294e-38
0.015277052 0.024192505 0.42300001 1.8334348e-38
0.016732005 0.024192505 0.42300001 1.7965566e-38
0.01818696 0.024192505 0.42300001 1.6859543e-38
0.019688347 0.024249697 0.42399999 1.5015631e-38
0.021196645 0.024306891 0.42500001 1.7503444e-38
0.022605162 0.024249697 0.42399999 1.6028314e-38
0.02383654 0.024020925 0.41999999 1.7504219e-38
0.025281174 0.024020925 0.41999999 1.8149588e-38
0.026598543 0.023906542 0.41800001 1.8151389e-38
0.028036298 0.023906542 0.41800001 1.833578e-38
0.029403543 0.023849349 0.417 1.8885711e-38
0.030837886 0.023849349 0.417 1.8793516e-38
0.032194812 0.023792157 0.41600001 1.7597499e-38
0.033625688 0.023792157 0.41600001 2.0916542e-38
0.035056561 0.023792157 0.41600001 2.2676175e-38
0.036136597 0.023563387 0.412 2.2583979e-38
0.037462566 0.023506194 0.41100001 2.2400301e-38
0.038497888 0.023277422 0.40700001 2.2769084e-38
0.039799802 0.02322023 0.40599999 2.240174e-38
0.041094817 0.023163037 0.405 2.2032958e-38
0.042487856 0.023163037 0.405 2.3046389e-38
0.043880899 0.023163037 0.405 2.2769802e-38
0.045273937 0.023163037 0.405 2.2856225e-38
0.04666698 0.023163037 0.405 2.064353e-38
0.048178706 0.02322023 0.40599999 1.825327e-38
0.049575187 0.02322023 0.40599999 1.825327e-38
-0.026049934 0.024660435 0.45899999 2.3139308e-38
-0.024471154 0.024660435 0.45899999 2.2026477e-38
-0.022842498 0.024606708 0.458 2.0090368e-38
-0.021220723 0.024552982 0.45699999 2.0181848e-38
-0.019648809 0.024552982 0.45699999 2.0642826e-38
-0.017997799 0.02444553 0.45500001 2.1197092e-38
-0.016360547 0.024338078 0.45300001 1.9629766e-38
-0.014737037 0.024230624 0.45100001 1.9348482e-38
-0.013156537 0.024176897 0.44999999 1.9440677e-38
-0.011505526 0.023961993 0.44600001 1.9996385e-38
-0.0099714473 0.023961993 0.44600001 2.073395e-38
-0.008399548 0.023854541 0.44400001 1.9168046e-38
-0.0068259276 0.023693362 0.44100001 1.8799264e-38
-0.005297008 0.023639634 0.44 1.8887156e-38
-0.0037749822 0.023585908 0.43900001 1.9071547e-38
-0.0022546763 0.023478454 0.43700001 1.8520166e-38
-0.00074812857 0.023371002 0.435 1.842797e-38
0.0007463803 0.023317274 0.43399999 2.0091097e-38
0.0022185601 0.023102369 0.43000001 1.9537923e-38
0.0036803926 0.022994917 0.428 1.9813789e-38
0.0051405053 0.022941189 0.42699999 2.0643549e-38
0.0065937387 0.022887463 0.426 2.091941e-38
0.0080400938 0.022833737 0.42500001 2.0366236e-38
0.009457211 0.022726284 0.42300001 1.9996002e-38
0.010912165 0.022726284 0.42300001 1.9442828e-38
0.012337908 0.022672556 0.42199999 1.8797106e-38
0.013789422 0.022672556 0.42199999 1.8059541e-38
0.015277052 0.022726284 0.42300001 1.7597486e-38
0.016732005 0.022726284 0.42300001 1.7136508e-38
0.01818696 0.022726284 0.42300001 1.6397493e-38
0.019641913 0.022726284 0.42300001 1.5475537e-38
0.021196645 0.022833737 0.42500001 1.6026545e-38
0.022711789 0.022887463 0.426 1.593435e-38
0.023779785 0.022511378 0.419 1.7965563e-38
0.025220981 0.022511378 0.419 1.7504585e-38
0.026598543 0.022457652 0.41800001 1.8425812e-38
0.027969226 0.022403926 0.417 1.8518008e-38
0.029403543 0.022403926 0.417 1.8610569e-38
0.030689981 0.022296473 0.41499999 1.8241787e-38
0.032040026 0.022242747 0.414 1.8338308e-38
0.033464022 0.022242747 0.414 2.2579307e-38
0.034550939 0.022027841 0.41 2.2675809e-38
0.035698045 0.021866662 0.40700001 2.2491418e-38
0.036915667 0.021759208 0.405 2.2398503e-38
0.03830871 0.021759208 0.405 2.2767286e-38
0.039603747 0.021705482 0.40400001 2.2306308e-38
0.040993348 0.021705482 0.40400001 2.2859481e-38
0.042382948 0.021705482 0.40400001 2.2757516e-38
0.043772548 0.021705482 0.40400001 1.5105279e-38
0.045162149 0.021705482 0.40400001 1.269841e-38
0.04666698 0.021759208 0.405 1.6755003e-38
0.048060045 0.021759208 0.405 1.7883409e-38
0.049575187 0.021812934 0.40599999 1.80678e-38
-0.027688919 0.023119712 0.46000001 2.1661654e-38
-0.026049934 0.023069451 0.45899999 2.1200676e-38
-0.024417838 0.023019193 0.458 2.0365511e-38
-0.022842498 0.023019193 0.458 1.953575e-38
-0.021220723 0.022968931 0.45699999 1.9719438e-38
-0.019605815 0.022918671 0.456 2.073359e-38
-0.017997799 0.022868412 0.45500001 2.073395e-38
-0.016324431 0.022717629 0.45199999 1.9166624e-38
-0.014737037 0.022667371 0.45100001 1.9164822e-38
-0.013156537 0.022617111 0.44999999 1.9072626e-38
-0.011531323 0.02246633 0.447 2.018187e-38
-0.0099714473 0.02241607 0.44600001 1.9997479e-38
-0.008418465 0.022365808 0.44499999 1.8796393e-38
-0.0068259276 0.022164769 0.44100001 1.8704197e-38
-0.005297008 0.022114508 0.44 1.8980068e-38
-0.0037835813 0.022114508 0.44 1.8980068e-38
-0.0022649951 0.022064248 0.43900001 1.8704913e-38
-0.00074984838 0.021913467 0.43599999 1.8797109e-38
0.00073606177 0.021511385 0.428 1.9814873e-38
0.0022082413 0.021511385 0.428 1.9169504e-38
0.0036803926 0.021511385 0.428 1.962939e-38
0.0051405053 0.021461124 0.42699999 1.8891825e-38
0.006578261 0.021360604 0.42500001 1.90755e-38
0.0080211759 0.021310342 0.42399999 1.8706718e-38
0.009457211 0.021260083 0.42300001 1.89815e-38
0.010912165 0.021260083 0.42300001 1.8151739e-38
0.012337908 0.021209823 0.42199999 1.7965547e-38
0.013789422 0.021209823 0.42199999 1.7320178e-38
0.015277052 0.021260083 0.42300001 1.7136503e-38
0.016732005 0.021260083 0.42300001 1.7136503e-38
0.01818696 0.021260083 0.42300001 1.6027994e-38
0.019641913 0.021260083 0.42300001 1.5474821e-38
0.021196645 0.021360604 0.42500001 1.5933644e-38
0.022765102 0.021461124 0.42699999 1.7316578e-38
0.023779785 0.021059042 0.419 1.7597131e-38
0.025220981 0.021059042 0.419 1.6398587e-38
0.026725808 0.021109302 0.41999999 1.7964108e-38
0.027969226 0.020958522 0.417 1.8701673e-38
0.029403543 0.020958522 0.417 1.8609853e-38
0.03061603 0.020807743 0.414 1.8609853e-38
0.032040026 0.020807743 0.414 2.0919423e-38
0.0331407 0.0206067 0.41 2.1656988e-38
0.034550939 0.0206067 0.41 2.1011603e-38
0.035610333 0.020405659 0.40599999 2.1195994e-38
0.036915667 0.0203554 0.405 2.1380751e-38
0.038214121 0.02030514 0.40400001 2.1565143e-38
0.039603747 0.02030514 0.40400001 2.2855521e-38
0.040993348 0.02030514 0.40400001 2.0458435e-38
0.042382948 0.02030514 0.40400001 1.4364363e-38
0.043772548 0.02030514 0.40400001 1.2704867e-38
0.045162149 0.02030514 0.40400001 1.686383e-38
0.04666698 0.0203554 0.405 2.1658002e-38
0.047941379 0.02030514 0.40400001 2.2769759e-38
0.049208872 0.020254878 0.403 2.0557064e-38
0.05059503 0.020254878 0.403 1.8253974e-38
0.051852208 0.020204619 0.40200001 1.7608604e-38
0.052970082 0.020104099 0.40000001 1.7056885e-38
0.054345924 0.020104099 0.40000001 1.7333472e-38
0.055443157 0.020003578 0.398 1.7517144e-38
0.056812145 0.020003578 0.398 1.7517144e-38
-0.027688919 0.02152524 0.46000001 2.0644981e-38
-0.026106685 0.02152524 0.46000001 2.0091808e-38
-0.024417838 0.021431653 0.458 1.9258807e-38
-0.022792624 0.021384858 0.45699999 1.8705633e-38
-0.021220723 0.021384858 0.45699999 1.879856e-38
-0.019605815 0.021338064 0.456 1.9720517e-38
-0.017997799 0.021291271 0.45500001 1.9720151e-38
-0.016324431 0.021150887 0.45199999 1.8521608e-38
-0.014769713 0.021150887 0.45199999 1.8978273e-38
-0.013185775 0.021104094 0.45100001 1.9715838e-38
-0.011557121 0.020963712 0.44800001 2.0643562e-38
-0.010016163 0.020963712 0.44800001 1.9168432e-38
-0.008418465 0.02082333 0.44499999 1.8702402e-38
-0.0068259276 0.020636156 0.44100001 1.8978989e-38
-0.005297008 0.020589361 0.44 1.8978633e-38
-0.0037835813 0.020589361 0.44 1.9070829e-38
-0.0022701544 0.020589361 0.44 1.8980784e-38
-0.0007515683 0.020448979 0.43700001 1.9349566e-38
0.00073606177 0.020027833 0.428 1.9631202e-38
0.0022082413 0.020027833 0.428 1.8893637e-38
0.0036717935 0.019981038 0.42699999 1.9352085e-38
0.0051164282 0.019887451 0.42500001 1.8430128e-38
0.0065627825 0.019840656 0.42399999 1.8429049e-38
0.0080211759 0.019840656 0.42399999 1.7875875e-38
0.009457211 0.019793862 0.42300001 1.7875152e-38
0.010886367 0.019747067 0.42199999 1.7598565e-38
0.012337908 0.019747067 0.42199999 1.7504572e-38
0.013789422 0.019747067 0.42199999 1.7504572e-38
0.015240936 0.019747067 0.42199999 1.7136143e-38
0.01669245 0.019747067 0.42199999 1.7043947e-38
0.01818696 0.019793862 0.42300001 1.6026911e-38
0.019641913 0.019793862 0.42300001 1.5934716e-38
0.021196645 0.019887451 0.42500001 1.5934009e-38
0.022765102 0.019981038 0.42699999 1.7870118e-38
0.02383654 0.019653479 0.41999999 1.7412379e-38
0.025281174 0.019653479 0.41999999 1.612164e-38
0.026725808 0.019653479 0.41999999 1.7687521e-38
0.028170442 0.019653479 0.41999999 1.8793869e-38
0.029615078 0.019653479 0.41999999 1.8426904e-38
0.030542077 0.019325923 0.41299999 2.0086425e-38
0.031807855 0.019232336 0.41100001 1.9351731e-38
0.0331407 0.019185541 0.41 1.9075145e-38
0.034550939 0.019185541 0.41 1.9535407e-38
0.035610333 0.018998364 0.40599999 1.9904189e-38
0.037006814 0.018998364 0.40599999 1.9811981e-38
0.038214121 0.018904777 0.40400001 2.0733937e-38
0.039603747 0.018904777 0.40400001 2.1462824e-38
0.040993348 0.018904777 0.40400001 1.2243261e-38
0.042382948 0.018904777 0.40400001 1.2337166e-38
0.043772548 0.018904777 0.40400001 1.7223535e-38
0.045162149 0.018904777 0.40400001 1.7601025e-38
0.046436522 0.018857982 0.403 2.3502265e-38
0.04782271 0.018857982 0.403 2.3138528e-38
0.049086764 0.018811189 0.40200001 1.991168e-38
0.050469488 0.018811189 0.40200001 1.7790845e-38
0.051852208 0.018811189 0.40200001 1.8804997e-38
0.052970082 0.0187176 0.40000001 1.9912765e-38
0.054210056 0.018670805 0.39899999 1.8068852e-38
0.055443157 0.018624011 0.398 1.6872113e-38
0.056812145 0.018624011 0.398 1.7240895e-38
0.058181107 0.018624011 0.398 1.7516428e-38
-0.029462038 0.020060774 0.463 1.889317e-38
-0.027749114 0.019974118 0.461 1.9537202e-38
-0.026106685 0.019930791 0.46000001 1.8984028e-38
-0.024417838 0.019844135 0.458 1.8336147e-38
-0.022792624 0.019800806 0.45699999 1.8151756e-38
-0.021220723 0.019800806 0.45699999 1.8428699e-38
-0.019605815 0.019757479 0.456 1.925846e-38
-0.017997799 0.019714152 0.45500001 1.9257724e-38
-0.016360547 0.019627497 0.45300001 1.870455e-38
-0.014769713 0.019584168 0.45199999 1.8701686e-38
-0.013215011 0.019584168 0.45199999 1.9715838e-38
-0.011582918 0.019454185 0.449 2.0643555e-38
-0.01003852 0.019454185 0.449 1.8707447e-38
-0.008418465 0.019280873 0.44499999 1.8885355e-38
-0.0068723625 0.019237546 0.44400001 1.8977551e-38
-0.005321085 0.01915089 0.442 1.8977551e-38
-0.0037921804 0.019107563 0.44100001 1.8885355e-38
-0.0022701544 0.019064235 0.44 1.8704207e-38
-0.00075328804 0.018977579 0.43799999 1.9165185e-38
0.00073434191 0.018500973 0.42699999 2.0000341e-38
0.0022030817 0.018500973 0.42699999 1.8801797e-38
0.0036717935 0.018500973 0.42699999 1.8798914e-38
0.0051164282 0.018414319 0.42500001 1.8153544e-38
0.0065627825 0.01837099 0.42399999 1.8059191e-38
0.0080211759 0.01837099 0.42399999 1.8151386e-38
0.009457211 0.018327663 0.42300001 1.7691484e-38
0.010886367 0.018284334 0.42199999 1.7230506e-38
0.012337908 0.018284334 0.42199999 1.7506004e-38
0.013789422 0.018284334 0.42199999 1.7137222e-38
0.015240936 0.018284334 0.42199999 1.7135424e-38
0.01669245 0.018284334 0.42199999 1.7227619e-38
0.01818696 0.018327663 0.42300001 1.5843606e-38
0.019641913 0.018327663 0.42300001 1.575141e-38
0.021246517 0.018457646 0.426 1.5567032e-38
0.022765102 0.018500973 0.42699999 1.7871922e-38
0.023950046 0.018284334 0.42199999 1.7596049e-38
0.025341369 0.018241005 0.421 1.6213114e-38
0.026789444 0.018241005 0.421 1.667266e-38
0.028237518 0.018241005 0.421 1.9069747e-38
0.029756101 0.018284334 0.42199999 1.8613443e-38
0.030468127 0.017851057 0.412 1.8613443e-38
0.031807855 0.01780773 0.41100001 1.8518011e-38
0.033221532 0.01780773 0.41100001 1.8241424e-38
0.034550939 0.017764401 0.41 1.9441422e-38
0.035610333 0.017591089 0.40599999 1.9994595e-38
0.036915667 0.017547762 0.405 2.0085331e-38
0.03830871 0.017547762 0.405 2.0085331e-38
0.039603747 0.017504435 0.40400001 1.3718645e-38
0.040993348 0.017504435 0.40400001 1.252012e-38
0.042382948 0.017504435 0.40400001 1.4095433e-38
0.043880899 0.017547762 0.405 1.584715e-38
0.045162149 0.017504435 0.40400001 1.5114236e-38
0.046436522 0.017461106 0.403 1.9631822e-38
0.04782271 0.017461106 0.403 1.8339634e-38
0.049086764 0.017417779 0.40200001 1.631133e-38
0.050469488 0.017417779 0.40200001 2.3323324e-38
0.051723223 0.01737445 0.40099999 2.3138932e-38
0.052837651 0.017287795 0.39899999 2.3323652e-38
0.054210056 0.017287795 0.39899999 2.3415847e-38
0.055443157 0.017244468 0.398 2.2215506e-38
0.056812145 0.017244468 0.398 1.8066703e-38
0.058181107 0.017244468 0.398 1.6963968e-38
0.059550069 0.017244468 0.398 1.7424946e-38
-0.029462038 0.018455902 0.463 1.6036548e-38
-0.027749114 0.018376179 0.461 1.8799261e-38
-0.026106685 0.018336318 0.46000001 1.8707065e-38
-0.024417838 0.018256595 0.458 1.8428346e-38
-0.022792624 0.018216733 0.45699999 1.8151759e-38
-0.021220723 0.018216733 0.45699999 1.8245747e-38
-0.019605815 0.018176872 0.456 1.8614529e-38
-0.017997799 0.01813701 0.45500001 1.8888948e-38
-0.016396662 0.018097149 0.454 1.8059188e-38
-0.014769713 0.018017424 0.45199999 1.7964115e-38
-0.013215011 0.018017424 0.45199999 1.9623637e-38
-0.011634512 0.017977564 0.45100001 2.0643189e-38
-0.010060878 0.017937703 0.44999999 1.8338298e-38
-0.008418465 0.017738394 0.44499999 1.8975752e-38
-0.0068878406 0.017738394 0.44499999 1.8975752e-38
-0.0053572012 0.017738394 0.44499999 1.8883916e-38
-0.0038265765 0.017738394 0.44499999 1.9068308e-38
-0.0022907923 0.017698534 0.44400001 1.8429062e-38
-0.0007515683 0.017419502 0.43700001 1.9074431e-38
0.00073434191 0.017020887 0.42699999 1.9815226e-38
0.0022030817 0.017020887 0.42699999 1.8985466e-38
0.0036717935 0.017020887 0.42699999 1.8523053e-38
0.0051164282 0.016941164 0.42500001 1.815427e-38
0.006578261 0.016941164 0.42500001 1.8152112e-38
0.0080211759 0.016901301 0.42399999 1.7691134e-38
0.009457211 0.016861441 0.42300001 1.7413821e-38
0.010886367 0.016821578 0.42199999 1.7413821e-38
0.012337908 0.016821578 0.42199999 1.7505651e-38
0.013789422 0.016821578 0.42199999 1.7413455e-38
0.015240936 0.016821578 0.42199999 1.7228698e-38
0.01669245 0.016821578 0.42199999 1.6859916e-38
0.018143963 0.016821578 0.42199999 1.5935448e-38
0.019641913 0.016861441 0.42300001 1.5658862e-38
0.021246517 0.016981024 0.426 1.5842905e-38
0.022765102 0.017020887 0.42699999 1.8332187e-38
0.024233814 0.017020887 0.42699999 1.7319112e-38
0.025341369 0.016781718 0.421 1.6397155e-38
0.026789444 0.016781718 0.421 1.6671227e-38
0.028304588 0.016821578 0.42199999 1.9437096e-38
0.029756101 0.016821578 0.42199999 1.8518721e-38
0.030468127 0.016422965 0.412 1.8426525e-38
0.031885244 0.016422965 0.412 1.8425096e-38
0.033221532 0.016383102 0.41100001 1.8517292e-38
0.034635209 0.016383102 0.41100001 1.9810557e-38
0.035610333 0.016183794 0.40599999 1.953397e-38
0.036915667 0.016143933 0.405 1.9623637e-38
0.03830871 0.016143933 0.405 1.6673376e-38
0.039603747 0.016104072 0.40400001 1.1955834e-38
0.040993348 0.016104072 0.40400001 1.6657795e-38
0.042697672 0.016223656 0.40700001 1.4833721e-38
0.043989241 0.016183794 0.40599999 1.5663482e-38
0.045162149 0.016104072 0.40400001 1.5667062e-38
0.046436522 0.01606421 0.403 1.6404627e-38
0.04782271 0.01606421 0.403 1.4467036e-38
0.049086764 0.016024349 0.40200001 1.8431448e-38
0.050469488 0.016024349 0.40200001 2.0279038e-38
0.051594239 0.015944624 0.40000001 1.8896103e-38
0.052837651 0.015904762 0.39899999 2.0186816e-38
0.054074191 0.015864901 0.398 2.009462e-38
0.055443157 0.015864901 0.398 2.1937832e-38
0.056812145 0.015864901 0.398 2.2214419e-38
0.058181107 0.015864901 0.398 1.8435485e-38
0.059550069 0.015864901 0.398 1.8066703e-38
-0.029334772 0.016778242 0.461 1.5668507e-38
-0.027749114 0.016778242 0.461 1.7785789e-38
-0.026106685 0.016741846 0.46000001 1.9260919e-38
-0.024417838 0.016669055 0.458 1.8890027e-38
-0.022842498 0.016669055 0.458 1.8244658e-38
-0.021220723 0.016632659 0.45699999 1.8796758e-38
-0.019648809 0.016632659 0.45699999 1.8888954e-38
-0.018037355 0.016596265 0.456 1.8888948e-38
-0.016432779 0.016559869 0.45500001 1.7966992e-38
-0.014835065 0.016523473 0.454 1.8239273e-38
-0.013273484 0.016523473 0.454 1.8976838e-38
-0.011686107 0.016487079 0.45300001 2.054847e-38
-0.010105592 0.016450683 0.45199999 1.8888948e-38
-0.0084563009 0.016268708 0.447 1.8514418e-38
-0.0069033187 0.016232312 0.44600001 1.7961244e-38
-0.00536924 0.016232312 0.44600001 1.7410238e-38
-0.0038351754 0.016232312 0.44600001 1.9069759e-38
-0.0022959518 0.016195916 0.44499999 1.7970245e-38
-0.0007515683 0.015904754 0.43700001 1.953757e-38
0.00074981991 0.015868358 0.43599999 1.9447164e-38
0.0022030817 0.0155408 0.42699999 1.8801795e-38
0.0036717935 0.0155408 0.42699999 1.8339377e-38
0.0051284665 0.015504405 0.426 1.806279e-38
0.006578261 0.01546801 0.42500001 1.7968797e-38
0.0080211759 0.015431614 0.42399999 1.7600014e-38
0.009457211 0.015395219 0.42300001 1.7599652e-38
0.010886367 0.015358823 0.42199999 1.7230869e-38
0.012337908 0.015358823 0.42199999 1.7321623e-38
0.013789422 0.015358823 0.42199999 1.6768449e-38
0.015240936 0.015358823 0.42199999 1.7135789e-38
0.01669245 0.015358823 0.42199999 1.6767007e-38
0.018143963 0.015358823 0.42199999 1.611984e-38
0.019641913 0.015395219 0.42300001 1.6027644e-38
0.021246517 0.015504405 0.426 1.5843619e-38
0.022765102 0.0155408 0.42699999 1.8517292e-38
0.024233814 0.0155408 0.42699999 1.7319114e-38
0.025341369 0.015322428 0.421 1.6120571e-38
0.026789444 0.015322428 0.421 1.6487556e-38
0.028304588 0.015358823 0.42199999 1.9161229e-38
0.029756101 0.015358823 0.42199999 1.8242137e-38
0.030468127 0.014994871 0.412 1.8149941e-38
0.031885244 0.014994871 0.412 1.8151023e-38
0.033221532 0.014958477 0.41100001 1.8704197e-38
0.034635209 0.014958477 0.41100001 1.962759e-38
0.035961177 0.014922081 0.41 1.8521242e-38
0.037006814 0.014776499 0.40599999 1.9071535e-38
0.038403295 0.014776499 0.40599999 1.3171014e-38
0.039799802 0.014776499 0.40599999 1.2239232e-38
0.041399222 0.014849289 0.40799999 1.6756818e-38
0.042697672 0.014812895 0.40700001 1.5112466e-38
0.043989241 0.014776499 0.40599999 1.5573444e-38
0.045273937 0.014740104 0.405 1.5667069e-38
0.046436522 0.014667313 0.403 1.5390482e-38
0.04782271 0.014667313 0.403 1.4835847e-38
0.049086764 0.014630918 0.40200001 1.7601716e-38
0.050343942 0.014594522 0.40099999 1.7420571e-38
0.051465251 0.014521731 0.39899999 1.659081e-38
0.052705228 0.014485336 0.398 1.6495728e-38
0.054074191 0.014485336 0.398 1.6403533e-38
0.055303857 0.014448942 0.39700001 1.7050712e-38
0.056669403 0.014448942 0.39700001 1.8618038e-38
0.058034927 0.014448942 0.39700001 1.7881221e-38
0.05940045 0.014448942 0.39700001 1.8526591e-38
-0.027749114 0.015180325 0.461 1.732623e-38
-0.02616344 0.015180325 0.461 1.9262338e-38
-0.024471154 0.015114467 0.45899999 1.9167683e-38
-0.022892375 0.015114467 0.45899999 1.8706705e-38
-0.021267159 0.015081538 0.458 1.8612354e-38
-0.019648809 0.015048608 0.45699999 1.8981137e-38
-0.01807691 0.015048608 0.45699999 1.8797109e-38
-0.016432779 0.014982751 0.45500001 1.8243935e-38
-0.014867743 0.014982751 0.45500001 1.8422941e-38
-0.013273484 0.014949821 0.454 1.8422941e-38
-0.011711903 0.014949821 0.454 2.0179314e-38
-0.01012795 0.014916892 0.45300001 1.8980771e-38
-0.0085698087 0.014916892 0.45300001 1.8421484e-38
-0.0069033187 0.01468639 0.44600001 1.8052701e-38
-0.00536924 0.01468639 0.44600001 1.7410604e-38
-0.0038351754 0.01468639 0.44600001 1.8977929e-38
-0.0023011111 0.01468639 0.44600001 1.8523781e-38
-0.0007515683 0.014390027 0.43700001 2.0183303e-38
0.00074981991 0.014357097 0.43599999 1.9354968e-38
0.0022495168 0.014357097 0.43599999 1.889399e-38
0.0036717935 0.014060735 0.42699999 1.8801074e-38
0.0051284665 0.014027806 0.426 1.7879118e-38
0.006578261 0.013994877 0.42500001 1.7876601e-38
0.0080211759 0.013961948 0.42399999 1.7876601e-38
0.009457211 0.013929019 0.42300001 1.7598212e-38
0.010886367 0.013896089 0.42199999 1.7598212e-38
0.012337908 0.013896089 0.42199999 1.7230506e-38
0.013789422 0.013896089 0.42199999 1.7230506e-38
0.015240936 0.013896089 0.42199999 1.6768805e-38
0.01669245 0.013896089 0.42199999 1.6123435e-38
0.018143963 0.013896089 0.42199999 1.6211319e-38
0.019641913 0.013929019 0.42300001 1.5934732e-38
0.021296391 0.014060735 0.42699999 1.6766644e-38
0.022765102 0.014060735 0.42699999 1.7872992e-38
0.024233814 0.014060735 0.42699999 1.7320907e-38
0.025281174 0.013830231 0.41999999 1.639895e-38
0.026725808 0.013830231 0.41999999 1.6762694e-38
0.028237518 0.01386316 0.421 1.8975389e-38
0.029615078 0.013830231 0.41999999 1.8149576e-38
0.030468127 0.013566799 0.412 1.8149576e-38
0.031885244 0.013566799 0.412 1.8333617e-38
0.033302363 0.013566799 0.412 1.8794595e-38
0.034635209 0.013533871 0.41100001 1.8613803e-38
0.036048889 0.013533871 0.41100001 1.8152825e-38
0.037097964 0.013402154 0.40700001 1.8426879e-38
0.038497888 0.013402154 0.40700001 1.4093684e-38
0.039897833 0.013402154 0.40700001 1.3718353e-38
0.041399222 0.013435082 0.40799999 1.6853005e-38
0.04280258 0.013435082 0.40799999 1.511139e-38
0.043989241 0.013369223 0.40599999 1.6309933e-38
0.045273937 0.013336295 0.405 1.5852166e-38
0.046436522 0.013270437 0.403 1.4745819e-38
0.04782271 0.013270437 0.403 1.4190825e-38
0.049086764 0.013237508 0.40200001 1.6680107e-38
0.050092846 0.01313872 0.39899999 1.5668479e-38
0.051465251 0.01313872 0.39899999 1.4930914e-38
0.052705228 0.013105791 0.398 1.446778e-38
0.054074191 0.013105791 0.398 1.511315e-38
0.055303857 0.013072862 0.39700001 1.4375222e-38
0.056669403 0.013072862 0.39700001 1.336107e-38
0.058034927 0.013072862 0.39700001 1.1981357e-38
0.05940045 0.013072862 0.39700001 1.8158464e-38
-0.024524467 0.013552947 0.46000001 1.9173076e-38
-0.022942247 0.013552947 0.46000001 1.8527706e-38
-0.021313597 0.013523484 0.45899999 1.9721568e-38
-0.019605815 0.013435095 0.456 1.9537176e-38
-0.017997799 0.013405632 0.45500001 1.9260595e-38
-0.016432779 0.013405632 0.45500001 1.8707421e-38
-0.014867743 0.013405632 0.45500001 1.8979692e-38
-0.013273484 0.013376169 0.454 1.8334323e-38
-0.011711903 0.013376169 0.454 1.9071172e-38
-0.010150307 0.013376169 0.454 2.0269715e-38
-0.0085887257 0.013376169 0.454 1.8699503e-38
-0.0069187968 0.013169929 0.447 2.0635611e-38
-0.0053812782 0.013169929 0.447 1.8887519e-38
-0.0038351754 0.013140467 0.44600001 2.0270454e-38
-0.0022546763 0.0128753 0.43700001 1.9814873e-38
-0.0007515683 0.0128753 0.43700001 1.9907069e-38
0.00074981991 0.012845837 0.43599999 1.944752e-38
0.0022443573 0.012816374 0.435 1.9078737e-38
0.0037405859 0.012816374 0.435 1.8616683e-38
0.0051405053 0.012580669 0.42699999 1.8155705e-38
0.006578261 0.012521745 0.42500001 1.787732e-38
0.0080211759 0.01249228 0.42399999 1.7508538e-38
0.009457211 0.012462818 0.42300001 1.7599291e-38
0.010886367 0.012433355 0.42199999 1.74149e-38
0.012337908 0.012433355 0.42199999 1.7046475e-38
0.013789422 0.012433355 0.42199999 1.6769888e-38
0.015240936 0.012433355 0.42199999 1.7136508e-38
0.01669245 0.012433355 0.42199999 1.6398943e-38
0.018143963 0.012433355 0.42199999 1.5845416e-38
0.019641913 0.012462818 0.42300001 1.5937612e-38
0.021146769 0.01249228 0.42399999 1.6397499e-38
0.022711789 0.012551207 0.426 1.8149216e-38
0.023950046 0.012433355 0.42199999 1.7505291e-38
0.025281174 0.012374429 0.41999999 1.6767726e-38
0.026725808 0.012374429 0.41999999 1.6763054e-38
0.028237518 0.012403892 0.421 1.8145988e-38
0.029615078 0.012374429 0.41999999 1.7319802e-38
0.03105974 0.012374429 0.41999999 1.7319802e-38
0.032504376 0.012374429 0.41999999 1.8243572e-38
0.037097964 0.011991412 0.40700001 1.7783294e-38
0.038497888 0.011991412 0.40700001 1.787549e-38
0.042907491 0.012050338 0.40900001 1.5667087e-38
0.044314288 0.012050338 0.40900001 1.7326608e-38
0.045385722 0.011961948 0.40599999 1.649864e-38
0.046782203 0.011961948 0.40599999 1.4378141e-38
0.049208872 0.01187356 0.403 1.5210676e-38
0.050092846 0.011755708 0.39899999 1.5113876e-38
0.051465251 0.011755708 0.39899999 1.4376311e-38
0.052705228 0.011726245 0.398 1.474439e-38
0.054074191 0.011726245 0.398 1.4559998e-38
0.055303857 0.011696783 0.39700001 1.3914623e-38
0.056669403 0.011696783 0.39700001 1.2347298e-38
0.058034927 0.011696783 0.39700001 9.8695637e-39
0.05940045 0.011696783 0.39700001 1.6138867e-38
-0.019605815 0.011854487 0.456 1.9820246e-38
-0.017997799 0.011828491 0.45500001 1.9912088e-38
-0.016432779 0.011828491 0.45500001 1.9727697e-38
-0.014867743 0.011828491 0.45500001 1.9819527e-38
-0.013273484 0.011802494 0.454 1.954294e-38
-0.011711903 0.011802494 0.454 1.9542587e-38
-0.010150307 0.011802494 0.454 1.9911369e-38
-0.0022546763 0.011360551 0.43700001 2.0092896e-38
-0.0007515683 0.011360551 0.43700001 1.9631918e-38
0.00074810011 0.011308557 0.435 1.9447167e-38
0.0022443573 0.011308557 0.435 1.9262776e-38
0.0037405859 0.011308557 0.435 1.8433012e-38
0.0051164282 0.011048591 0.42500001 1.7972034e-38
0.006578261 0.011048591 0.42500001 1.7693292e-38
0.0080211759 0.011022594 0.42399999 1.7324509e-38
0.009457211 0.010996597 0.42300001 1.7046478e-38
0.010886367 0.0109706 0.42199999 1.7230869e-38
0.012337908 0.0109706 0.42199999 1.6954282e-38
0.013789422 0.0109706 0.42199999 1.6862086e-38
0.015240936 0.0109706 0.42199999 1.6953922e-38
0.01669245 0.0109706 0.42199999 1.6216357e-38
0.018143963 0.0109706 0.42199999 1.6121647e-38
0.019641913 0.010996597 0.42300001 1.584506e-38
0.021146769 0.011022594 0.42399999 1.6673742e-38
0.022658477 0.011048591 0.42500001 1.8148872e-38
0.023950046 0.0109706 0.42199999 1.7136508e-38
0.025341369 0.010944604 0.421 1.6767726e-38
0.026789444 0.010944604 0.421 1.6580455e-38
0.028237518 0.010944604 0.421 1.731802e-38
0.02968559 0.010944604 0.421 1.6126265e-38
0.031133693 0.010944604 0.421 1.9260916e-38
0.032581769 0.010944604 0.421 1.8622426e-38
0.045385722 0.010554654 0.40599999 1.7885214e-38
0.046782203 0.010554654 0.40599999 1.7700822e-38
0.051465251 0.010372676 0.39899999 1.4470674e-38
0.052705228 0.01034668 0.398 1.3916399e-38
0.054074191 0.01034668 0.398 1.3547616e-38
0.055443157 0.01034668 0.398 1.2812973e-38
0.056669403 0.010320684 0.39700001 1.5486646e-38
0.058034927 0.010320684 0.39700001 1.733205e-38
0.05940045 0.010320684 0.39700001 1.733205e-38
-0.0022598356 0.0098683322 0.43799999 2.0275488e-38
-0.0007515683 0.0098458026 0.43700001 2.0275488e-38
0.00074810011 0.0098007414 0.435 1.9539723e-38
0.0022391977 0.00977821 0.43399999 1.9078744e-38
0.0037319867 0.00977821 0.43399999 1.8709602e-38
0.0051164282 0.0095754368 0.42500001 1.7972037e-38
0.006578261 0.0095754368 0.42500001 1.7416705e-38
0.0080211759 0.0095529063 0.42399999 1.7416705e-38
0.009457211 0.0095303757 0.42300001 1.7324144e-38
0.010886367 0.0095078452 0.42199999 1.6955361e-38
0.012337908 0.0095078452 0.42199999 1.6769894e-38
0.013789422 0.0095078452 0.42199999 1.6862089e-38
0.015240936 0.0095078452 0.42199999 1.6677335e-38
0.01669245 0.0095078452 0.42199999 1.6031966e-38
0.01818696 0.0095303757 0.42300001 1.621312e-38
0.019641913 0.0095303757 0.42300001 1.621312e-38
0.021146769 0.0095529063 0.42399999 1.6398953e-38
0.022658477 0.0095754368 0.42500001 1.8058474e-38
0.024063554 0.0095529063 0.42399999 1.6674814e-38
0.025401561 0.0095078452 0.42199999 1.6213836e-38
0.026853073 0.0095078452 0.42199999 1.5474808e-38
0.028304588 0.0095078452 0.42199999 1.9347024e-38
0.029756101 0.0095078452 0.42199999 1.7884119e-38
0.031133693 0.0094853146 0.421 1.8621684e-38
0.032581769 0.0094853146 0.421 1.8162514e-38
0.052705228 0.0089671146 0.398 1.5209328e-38
0.054074191 0.0089671146 0.398 1.7145436e-38
0.055443157 0.0089671146 0.398 1.7241286e-38
0.056812145 0.0089671146 0.398 1.7333482e-38
0.058181107 0.0089671146 0.398 1.733204e-38
-0.0022598356 0.0083501395 0.43799999 2.0183653e-38
-0.0007515683 0.0083310753 0.43700001 2.0183653e-38
0.0007463803 0.0082738819 0.43399999 2.0091094e-38
0.0022340384 0.0082548177 0.433 1.9353529e-38
0.0037233881 0.0082548177 0.433 1.9076589e-38
0.0051284665 0.0081213675 0.426 1.8062437e-38
0.006578261 0.0081023043 0.42500001 1.7601096e-38
0.0080211759 0.0080832392 0.42399999 1.7232314e-38
0.009457211 0.008064175 0.42300001 1.7231588e-38
0.010886367 0.0080451109 0.42199999 1.7047197e-38
0.012337908 0.0080451109 0.42199999 1.7046481e-38
0.013789422 0.0080451109 0.42199999 1.6769894e-38
0.015240936 0.0080451109 0.42199999 1.7230136e-38
0.01669245 0.0080451109 0.42199999 1.6584767e-38
0.01818696 0.008064175 0.42300001 1.6214199e-38
0.019641913 0.008064175 0.42300001 1.5845416e-38
0.021196645 0.0081023043 0.42500001 1.6306757e-38
0.022658477 0.0081023043 0.42500001 1.7228714e-38
0.024063554 0.0080832392 0.42399999 1.6674458e-38
0.025461754 0.008064175 0.42300001 1.5752502e-38
0.026916709 0.008064175 0.42300001 1.4279147e-38
0.028371662 0.008064175 0.42300001 1.907332e-38
0.029897127 0.0080832392 0.42399999 1.8807899e-38
-0.0022598356 0.006831924 0.43799999 1.9905987e-38
-0.0007515683 0.0068163262 0.43700001 2.0090378e-38
0.00074466062 0.0067539341 0.433 1.9630116e-38
0.0022340384 0.0067539341 0.433 1.9261334e-38
0.0037233881 0.0067539341 0.433 1.8891835e-38
0.0051164282 0.0066291504 0.42500001 1.815427e-38
0.006578261 0.0066291504 0.42500001 1.7876964e-38
0.0080211759 0.0066135516 0.42399999 1.732379e-38
0.009457211 0.0065979543 0.42300001 1.7231588e-38
0.010886367 0.0065823556 0.42199999 1.7047197e-38
0.012337908 0.0065823556 0.42199999 1.6862449e-38
0.013789422 0.0065823556 0.42199999 1.6770254e-38
0.015240936 0.0065823556 0.42199999 1.6770244e-38
0.01669245 0.0065823556 0.42199999 1.6309266e-38
0.01818696 0.0065979543 0.42300001 1.6674814e-38
0.019641913 0.0065979543 0.42300001 1.6398227e-38
0.021146769 0.0066135516 0.42399999 1.602802e-38
0.022658477 0.0066291504 0.42500001 1.6581193e-38
0.024063554 0.0066135516 0.42399999 1.6951045e-38
0.025521947 0.0066135516 0.42399999 1.6305676e-38
0.02698034 0.0066135516 0.42399999 1.5844325e-38
0.028438734 0.0066135516 0.42399999 1.953215e-38
0.029897127 0.0066135516 0.42399999 1.8531309e-38
-0.0022598356 0.0053137308 0.43799999 1.9537204e-38
-0.0007515683 0.0053015989 0.43700001 1.8984031e-38
0.00074466062 0.0052530719 0.433 1.9351371e-38
0.0022340384 0.0052530719 0.433 1.8890393e-38
0.0037061898 0.0052288081 0.43099999 1.8890753e-38
0.0051164282 0.0051560174 0.42500001 1.8521971e-38
0.006578261 0.0051560174 0.42500001 1.796916e-38
0.0080211759 0.0051438855 0.42399999 1.7600377e-38
0.009457211 0.0051317536 0.42300001 1.6955008e-38
0.010886367 0.0051196218 0.42199999 1.6955008e-38
0.012337908 0.0051196218 0.42199999 1.6863168e-38
0.013789422 0.0051196218 0.42199999 1.6678777e-38
0.015240936 0.0051196218 0.42199999 1.6769888e-38
0.01669245 0.0051196218 0.42199999 1.6769888e-38
0.018143963 0.0051196218 0.42199999 1.6769531e-38
0.019595478 0.0051196218 0.42199999 1.5847574e-38
0.021096895 0.0051317536 0.42300001 1.6212414e-38
0.022658477 0.0051560174 0.42500001 1.6028022e-38
0.024063554 0.0051438855 0.42399999 1.6858136e-38
0.025521947 0.0051438855 0.42399999 1.6858136e-38
0.02698034 0.0051438855 0.42399999 1.6489704e-38
0.028438734 0.0051438855 0.42399999 1.9255573e-38
0.029897127 0.0051438855 0.42399999 1.8345836e-38
-0.0022598356 0.0037955157 0.43799999 1.9445372e-38
-0.00074812857 0.0037695193 0.435 1.8984394e-38
0.0007463803 0.0037608533 0.43399999 1.8798921e-38
0.0022340384 0.0037521881 0.433 1.8706725e-38
0.0036975907 0.0037261914 0.43000001 1.8707081e-38
0.0051284665 0.0036915289 0.426 1.8614885e-38
0.006578261 0.0036828637 0.42500001 1.8153194e-38
0.0080211759 0.0036741977 0.42399999 1.760002e-38
0.009457211 0.0036655325 0.42300001 1.7230882e-38
0.010912165 0.0036655325 0.42300001 1.6769903e-38
0.012367146 0.0036655325 0.42300001 1.6586581e-38
0.013789422 0.0036568667 0.42199999 1.6586581e-38
0.015240936 0.0036568667 0.42199999 1.6769888e-38
0.01669245 0.0036568667 0.42199999 1.6769888e-38
0.018143963 0.0036568667 0.42199999 1.6952843e-38
0.019595478 0.0036568667 0.42199999 1.658406e-38
0.021096895 0.0036655325 0.42300001 1.6397521e-38
0.022605162 0.0036741977 0.42399999 1.5936543e-38
0.024063554 0.0036741977 0.42399999 1.6858133e-38
0.025521947 0.0036741977 0.42399999 1.6673742e-38
0.02698034 0.0036741977 0.42399999 1.6305303e-38
0.028438734 0.0036741977 0.42399999 1.8610194e-38
0.029897127 0.0036741977 0.42399999 1.8622779e-38
0.031429499 0.0036828637 0.42500001 1.8253996e-38
-0.00074640871 0.0022565036 0.43399999 1.8984757e-38
0.0007463803 0.0022565036 0.43399999 1.8614529e-38
0.0022340384 0.0022513042 0.433 1.8614529e-38
0.0036889918 0.0022305069 0.42899999 1.8522334e-38
0.0051405053 0.0022201082 0.42699999 1.8245747e-38
0.006578261 0.0022097097 0.42500001 1.8060277e-38
0.0080400938 0.0022097097 0.42500001 1.7968081e-38
0.0094795683 0.0022045104 0.42399999 1.741491e-38
0.010912165 0.002199311 0.42300001 1.7046127e-38
0.012337908 0.0021941117 0.42199999 1.6769538e-38
0.013789422 0.0021941117 0.42199999 1.6677342e-38
0.015240936 0.0021941117 0.42199999 1.6861726e-38
0.01669245 0.0021941117 0.42199999 1.6861726e-38
0.018143963 0.0021941117 0.42199999 1.7045039e-38
0.019595478 0.0021941117 0.42199999 1.6768452e-38
0.021047018 0.0021941117 0.42199999 1.6673745e-38
0.022551848 0.002199311 0.42300001 1.6581549e-38
0.024006801 0.002199311 0.42300001 1.6857052e-38
0.025461754 0.002199311 0.42300001 1.6764856e-38
0.02698034 0.0022045104 0.42399999 1.5935802e-38
0.028438734 0.0022045104 0.42399999 1.7410932e-38
0.029897127 0.0022045104 0.42399999 1.8896479e-38
0.031429499 0.0022097097 0.42500001 1.8804283e-38
-0.00074640871 0.00075217499 0.43399999 1.9169148e-38
0.0007463803 0.00075217499 0.43399999 1.8798921e-38
0.0022288791 0.00074870879 0.43200001 1.8522334e-38
0.0036889918 0.00074350939 0.42899999 1.8337942e-38
0.005152544 0.00074177625 0.428 1.8153551e-38
0.0065937387 0.00073830999 0.426 1.8245024e-38
0.0080400938 0.00073657691 0.42500001 1.8060632e-38
0.0094795683 0.00073484372 0.42399999 1.7691487e-38
0.010912165 0.00073311065 0.42300001 1.7046118e-38
0.012337908 0.00073137751 0.42199999 1.7413468e-38
0.013789422 0.00073137751 0.42199999 1.7321272e-38
0.015240936 0.00073137751 0.42199999 1.7045041e-38
0.016652895 0.00072964438 0.421 1.7045041e-38
0.018100969 0.00072964438 0.421 1.7045036e-38
0.019595478 0.00073137751 0.42199999 1.695284e-38
0.021047018 0.00073137751 0.42199999 1.6952117e-38
0.022498533 0.00073137751 0.42199999 1.667553e-38
0.023950046 0.00073137751 0.42199999 1.649042e-38
0.025461754 0.00073311065 0.42300001 1.6029442e-38
0.026916709 0.00073311065 0.42300001 1.5843972e-38
0.028438734 0.00073484372 0.42399999 1.5936167e-38
0.029897127 0.00073484372 0.42399999 1.9173063e-38
0.031355549 0.00073484372 0.42399999 1.8712085e-38
0.032891333 0.00073657691 0.42500001 1.8161801e-38
-0.0022598356 -0.00075910747 0.43799999 1.9538286e-38
-0.00074640871 -0.00075217499 0.43399999 1.8892917e-38
0.00074466062 -0.00075044186 0.433 1.852162e-38
0.0022237194 -0.00074697559 0.43099999 1.8429425e-38
0.0036889918 -0.00074350939 0.42899999 1.8338298e-38
0.005152544 -0.00074177625 0.428 1.8061711e-38
0.0066092173 -0.00074004312 0.42699999 1.8061349e-38
0.0080400938 -0.00073657691 0.42500001 1.7692566e-38
0.0094795683 -0.00073484372 0.42399999 1.7875873e-38
0.010912165 -0.00073311065 0.42300001 1.7783677e-38
0.012367146 -0.00073311065 0.42300001 1.759821e-38
0.013789422 -0.00073137751 0.42199999 1.7506014e-38
0.015240936 -0.00073137751 0.42199999 1.7505298e-38
0.016652895 -0.00072964438 0.421 1.7136515e-38
0.018100969 -0.00072964438 0.421 1.7136503e-38
0.019595478 -0.00073137751 0.42199999 1.7044307e-38
0.021047018 -0.00073137751 0.42199999 1.6767004e-38
0.022498533 -0.00073137751 0.42199999 1.6582613e-38
0.023950046 -0.00073137751 0.42199999 1.5937965e-38
0.025461754 -0.00073311065 0.42300001 1.5661378e-38
0.026916709 -0.00073311065 0.42300001 1.5292946e-38
0.028438734 -0.00073484372 0.42399999 1.5292946e-38
0.029897127 -0.00073484372 0.42399999 1.8158917e-38
0.031355549 -0.00073484372 0.42399999 1.8804286e-38
0.032891333 -0.00073657691 0.42500001 1.7977407e-38
-0.0037749822 -0.0022825003 0.43900001 1.9817744e-38
-0.0022598356 -0.0022773009 0.43799999 1.9446091e-38
-0.0007515683 -0.0022721016 0.43700001 1.8985112e-38
0.00074466062 -0.0022513042 0.433 1.8522336e-38
0.0022237194 -0.0022409055 0.43099999 1.8337945e-38
0.0036975907 -0.0022357064 0.43000001 1.8337935e-38
0.0051645827 -0.0022305069 0.42899999 1.7876957e-38
0.0066092173 -0.0022201082 0.42699999 1.7968074e-38
0.0080400938 -0.0022097097 0.42500001 1.74149e-38
0.0094795683 -0.0022045104 0.42399999 1.750709e-38
0.010912165 -0.002199311 0.42300001 1.750709e-38
0.012367146 -0.002199311 0.42300001 1.8058828e-38
0.013789422 -0.0021941117 0.42199999 1.7597849e-38
0.015240936 -0.0021941117 0.42199999 1.7505651e-38
0.01669245 -0.0021941117 0.42199999 1.6860282e-38
0.018143963 -0.0021941117 0.42199999 1.7043947e-38
0.019595478 -0.0021941117 0.42199999 1.6398578e-38
0.021047018 -0.0021941117 0.42199999 1.6307108e-38
0.022498533 -0.0021941117 0.42199999 1.6122717e-38
0.023950046 -0.0021941117 0.42199999 1.5845053e-38
0.025461754 -0.002199311 0.42300001 1.5752858e-38
0.026916709 -0.002199311 0.42300001 1.5107476e-38
0.028438734 -0.0022045104 0.42399999 1.5476258e-38
0.029897127 -0.0022045104 0.42399999 1.8063491e-38
0.031429499 -0.0022097097 0.42500001 1.9077643e-38
0.032891333 -0.0022097097 0.42500001 1.779445e-38
-0.003766383 -0.0037955157 0.43799999 1.9909227e-38
-0.0022598356 -0.0037955157 0.43799999 1.990599e-38
-0.00074984838 -0.0037781845 0.43599999 1.9168425e-38
0.00074294081 -0.0037435226 0.43200001 1.843086e-38
0.0022237194 -0.0037348568 0.43099999 1.8338664e-38
0.0036975907 -0.0037261914 0.43000001 1.8153188e-38
0.0051645827 -0.0037175256 0.42899999 1.7876601e-38
0.0066246958 -0.0037088601 0.428 1.7968074e-38
0.0080400938 -0.0036828637 0.42500001 1.7599291e-38
0.0094795683 -0.0036741977 0.42399999 1.7506014e-38
0.010937962 -0.0036741977 0.42399999 1.7506014e-38
0.012367146 -0.0036655325 0.42300001 1.74149e-38
0.013822099 -0.0036655325 0.42300001 1.7230509e-38
0.015240936 -0.0036568667 0.42199999 1.7228704e-38
0.01669245 -0.0036568667 0.42199999 1.7044313e-38
0.018143963 -0.0036568667 0.42199999 1.6769158e-38
0.019595478 -0.0036568667 0.42199999 1.6492571e-38
0.021047018 -0.0036568667 0.42199999 1.6215631e-38
0.022498533 -0.0036568667 0.42199999 1.603124e-38
0.023950046 -0.0036568667 0.42199999 1.5569546e-38
0.025461754 -0.0036655325 0.42300001 1.547735e-38
0.02698034 -0.0036741977 0.42399999 1.5570249e-38
0.028438734 -0.0036741977 0.42399999 1.5017075e-38
0.02996764 -0.0036828637 0.42500001 1.631213e-38
0.031429499 -0.0036828637 0.42500001 1.926239e-38
0.032968722 -0.0036915289 0.426 1.779445e-38
-0.003766383 -0.0053137089 0.43799999 2.009325e-38
-0.0022598356 -0.0053137089 0.43799999 2.0090015e-38
-0.00074984838 -0.0052894456 0.43599999 1.9629037e-38
0.00074294081 -0.0052409186 0.43200001 1.8615251e-38
0.0022237194 -0.0052287867 0.43099999 1.843086e-38
0.0037061898 -0.0052287867 0.43099999 1.8060993e-38
0.0051766215 -0.0052166553 0.43000001 1.7876601e-38
0.0066246958 -0.0051923916 0.428 1.7876236e-38
0.0080779288 -0.0051802597 0.42699999 1.7046475e-38
0.009524283 -0.0051681278 0.426 1.7321979e-38
0.010963759 -0.0051559964 0.42500001 1.7321979e-38
0.01242562 -0.0051559964 0.42500001 1.7321623e-38
0.013854776 -0.0051438645 0.42399999 1.7229427e-38
0.015313168 -0.0051438645 0.42399999 1.7137587e-38
0.016771562 -0.0051438645 0.42399999 1.6676609e-38
0.01818696 -0.0051317327 0.42300001 1.6583695e-38
0.019641913 -0.0051317327 0.42300001 1.6030521e-38
0.021096895 -0.0051317327 0.42300001 1.6307458e-38
0.022551848 -0.0051317327 0.42300001 1.6030871e-38
0.024006801 -0.0051317327 0.42300001 1.5661741e-38
0.025521947 -0.0051438645 0.42399999 1.5661741e-38
0.02698034 -0.0051438645 0.42399999 1.5570249e-38
0.028438734 -0.0051438645 0.42399999 1.5109271e-38
0.02996764 -0.0051559964 0.42500001 1.7052229e-38
0.031429499 -0.0051559964 0.42500001 1.8527359e-38
0.032968722 -0.0051681278 0.426 1.7793729e-38
-0.00074984838 -0.0068007279 0.43599999 1.9263139e-38
0.00074810011 -0.0067851301 0.435 1.916699e-38
0.0022237194 -0.006722738 0.43099999 1.8706012e-38
0.0037061898 -0.006722738 0.43099999 1.8245021e-38
0.0051766215 -0.0067071402 0.43000001 1.7876238e-38
0.006640174 -0.006691542 0.42899999 1.7691487e-38
0.0080779288 -0.0066603459 0.42699999 1.74149e-38
0.0095466403 -0.0066603459 0.42699999 1.6769525e-38
0.010989555 -0.0066447482 0.426 1.7046112e-38
0.01242562 -0.0066291504 0.42500001 1.7137237e-38
0.013887453 -0.0066291504 0.42500001 1.7229433e-38
0.015313168 -0.0066135516 0.42399999 1.6953919e-38
0.016771562 -0.0066135516 0.42399999 1.6861724e-38
0.018229954 -0.0066135516 0.42399999 1.6677329e-38
0.019641913 -0.0065979543 0.42300001 1.6400743e-38
0.021096895 -0.0065979543 0.42300001 1.603159e-38
0.022605162 -0.0066135516 0.42399999 1.5847199e-38
0.024063554 -0.0066135516 0.42399999 1.6030864e-38
0.025521947 -0.0066135516 0.42399999 1.6307451e-38
0.027043974 -0.0066291504 0.42500001 1.4282369e-38
0.028505808 -0.0066291504 0.42500001 1.4927738e-38
0.02996764 -0.0066291504 0.42500001 1.8344763e-38
-0.0022701544 -0.0083882455 0.44 4.1517251e-39
-0.0007550079 -0.0083691822 0.43900001 7.8395502e-39
0.00074810011 -0.0082929246 0.435 1.2996735e-38
0.0022288791 -0.0082357321 0.43200001 1.4748452e-38
0.0037061898 -0.0082166679 0.43099999 1.7416352e-38
0.0051766215 -0.0081976037 0.43000001 1.7969526e-38
0.006640174 -0.0081785396 0.42899999 1.8429059e-38
0.0080968468 -0.0081594754 0.428 1.7875885e-38
0.0095466403 -0.0081404112 0.42699999 1.7968071e-38
0.011015353 -0.0081404112 0.42699999 1.7875875e-38
0.012454855 -0.0081213471 0.426 1.8060264e-38
0.013887453 -0.0081022829 0.42500001 1.7875873e-38
0.015349285 -0.0081022829 0.42500001 1.7691481e-38
0.016771562 -0.0080832187 0.42399999 1.7414895e-38
0.018229954 -0.0080832187 0.42399999 1.7507443e-38
0.019688347 -0.0080832187 0.42399999 1.7323052e-38
0.021146769 -0.0080832187 0.42399999 1.7136859e-38
0.022605162 -0.0080832187 0.42399999 1.5569533e-38
0.024120308 -0.0081022829 0.42500001 1.2715416e-38
0.025642334 -0.0081213471 0.426 9.4885689e-39
0.027107606 -0.0081213471 0.426 3.6734198e-40
0.028572878 -0.0081213471 0.426 9.6790964e-39
-0.0022649951 -0.0098908637 0.43900001 7.6511681e-39
-0.0007550079 -0.0098908637 0.43900001 6.176038e-39
0.00075153972 -0.0098458026 0.43700001 4.5183636e-39
0.0022443573 -0.0098007414 0.435 3.8729942e-39
0.0037233881 -0.0097556803 0.433 4.8860559e-39
0.0051886598 -0.0097106192 0.43099999 6.5455772e-39
0.0066556521 -0.0096880887 0.43000001 9.1237926e-39
0.0081157647 -0.0096655581 0.42899999 9.6769664e-39
0.0095689986 -0.0096430276 0.428 1.0780778e-38
0.01104115 -0.0096430276 0.428 1.0872973e-38
0.012513329 -0.0096430276 0.428 1.0780775e-38
0.013920127 -0.0095979674 0.426 1.0135405e-38
0.0153854 -0.0095979674 0.426 9.766976e-39
0.016811118 -0.0095754368 0.42500001 9.3059979e-39
0.018272951 -0.0095754368 0.42500001 8.8457386e-39
0.019734783 -0.0095754368 0.42500001 6.5408478e-39
0.021196645 -0.0095754368 0.42500001 5.4352262e-39
0.022711789 -0.0095979674 0.426 3.4991179e-39
0.024177061 -0.0095979674 0.426 3.2246989e-39
0.025642334 -0.0095979674 0.426 4.7920246e-39
0.027171237 -0.009620497 0.42699999 2.4914526e-39
0.02863995 -0.009620497 0.42699999 7.0090385e-39
0.030249687 -0.0096655581 0.42899999 1.7978841e-38
-0.0037749822 -0.011412523 0.43900001 1.0050403e-38
-0.0022649951 -0.011412523 0.43900001 8.4856231e-39
-0.00075328804 -0.011386526 0.43799999 7.2870799e-39
0.00075153972 -0.01136053 0.43700001 7.1894991e-39
0.0022443573 -0.011308536 0.435 7.1894991e-39
0.0037319867 -0.011282539 0.43399999 7.4678684e-39
0.005200699 -0.011230546 0.43200001 7.0990859e-39
0.0066711302 -0.011204549 0.43099999 5.6257607e-39
0.0081346827 -0.011178553 0.43000001 5.1647826e-39
0.0095913559 -0.011152555 0.42899999 4.8885614e-39
0.011066947 -0.011152555 0.42899999 4.8885614e-39
0.012542566 -0.011152555 0.42899999 4.6116214e-39
