# .PCD v0.7 - Point Cloud Data file format
VERSION 0.7
FIELDS x y z rgb
SIZE 4 4 4 4
TYPE F F F F
COUNT 1 1 1 1
WIDTH 660
HEIGHT 1
VIEWPOINT 0 0 0 1 0 0 0
POINTS 660
DATA ascii
-0.0098115029 0.077686712 0.815 2.037374e-38
-0.0070082243 0.077686712 0.815 2.2217653e-38
-0.015455923 0.075045474 0.81699997 2.120457e-38
-0.012552896 0.074494347 0.81099999 2.3048483e-38
-0.0097633488 0.074494347 0.81099999 2.3325776e-38
-0.0069738282 0.074494347 0.81099999 2.1574059e-38
-0.0041739885 0.074310638 0.80900002 2.2304316e-38
-0.0013913471 0.074310638 0.80900002 2.1474556e-38
0.0013912943 0.074310638 0.80900002 1.9729074e-38
-0.021024672 0.072036773 0.815 1.9361773e-38
-0.015418088 0.072036773 0.815 2.2954014e-38
-0.012490982 0.071329661 0.80699998 2.3508629e-38
-0.0097151939 0.071329661 0.80699998 2.323388e-38
-0.0069566299 0.071506448 0.80900002 1.8255316e-38
-0.0041636694 0.071329661 0.80699998 1.9625174e-38
-0.0013879074 0.071329661 0.80699998 2.3507439e-38
0.0013844152 0.071152888 0.80500001 1.9170422e-38
0.0041533508 0.071152888 0.80500001 1.9539204e-38
-0.015342416 0.068872094 0.81099999 2.2397154e-38
-0.012490982 0.068532407 0.80699998 2.3509635e-38
-0.0096911173 0.068362564 0.80500001 2.1383031e-38
-0.0069222338 0.068362564 0.80500001 1.7787402e-38
-0.0041533508 0.068362564 0.80500001 1.8705825e-38
-0.0013844678 0.068362564 0.80500001 2.3499998e-38
0.0013844152 0.068362564 0.80500001 1.9907971e-38
0.0041533508 0.068362564 0.80500001 2.0000167e-38
0.0069394317 0.068532407 0.80699998 1.7790067e-38
-0.015342416 0.066061012 0.81099999 2.2764957e-38
-0.012460027 0.065572277 0.80500001 2.3505403e-38
-0.0096670389 0.065409362 0.80299997 1.9263245e-38
-0.0069050356 0.065409362 0.80299997 1.7880311e-38
-0.0041430318 0.065409362 0.80299997 2.0640203e-38
-0.0013810281 0.065409362 0.80299997 1.8888486e-38
0.0013809756 0.065409362 0.80299997 1.8797334e-38
0.0041533508 0.065572277 0.80500001 2.0272464e-38
0.0069394317 0.065735184 0.80699998 1.9171938e-38
-0.012460027 0.062781952 0.80500001 2.2490224e-38
-0.0096188849 0.062314011 0.79900002 2.0457886e-38
-0.0068706395 0.062314011 0.79900002 1.5663713e-38
-0.0041223941 0.062314011 0.79900002 2.0364673e-38
-0.0013775885 0.062469989 0.801 1.5293913e-38
0.0013775361 0.062469989 0.801 1.8892063e-38
0.0041327132 0.062469989 0.801 1.6955955e-38
0.0069394317 0.06293793 0.80699998 1.8248126e-38
0.0097392714 0.063093908 0.80900002 1.8155931e-38
-0.012460027 0.059991661 0.80500001 2.1381711e-38
-0.0096188849 0.059544522 0.79900002 1.9533759e-38
-0.0068706395 0.059544522 0.79900002 1.5200568e-38
-0.0041223941 0.059544522 0.79900002 1.8151938e-38
-0.0013775885 0.059693567 0.801 1.5847048e-38
0.0013775361 0.059693567 0.801 1.8708376e-38
0.0041327132 0.059693567 0.801 1.8984963e-38
0.0069394317 0.060140707 0.80699998 1.548542e-38
0.0097151939 0.060140707 0.80699998 1.8988854e-38
0.012754087 0.061407618 0.824 1.8252137e-38
0.015588323 0.061407618 0.824 1.9727267e-38
-0.014982977 0.056277588 0.792 2.2856452e-38
-0.012258808 0.056277588 0.792 2.0920344e-38
-0.0096068457 0.056703933 0.79799998 1.9627421e-38
-0.0068706395 0.056774992 0.79900002 1.4925444e-38
-0.0041223941 0.056774992 0.79900002 1.658461e-38
-0.0013775885 0.056917105 0.801 1.7598762e-38
0.0013775361 0.056917105 0.801 1.6404906e-38
0.0041327132 0.056917105 0.801 1.9723949e-38
0.0069222338 0.057201337 0.80500001 1.6033972e-38
0.0096911173 0.057201337 0.80500001 1.6955929e-38
0.012521913 0.057485566 0.80900002 1.8341073e-38
0.015588323 0.058551434 0.824 2.0461572e-38
0.018556703 0.058977779 0.82999998 1.8624211e-38
-0.020534527 0.053802688 0.796 1.8715685e-38
-0.014982977 0.053532325 0.792 2.1196192e-38
-0.012258808 0.053532325 0.792 2.0458627e-38
-0.0096068457 0.053937871 0.79799998 1.9351213e-38
-0.0068706395 0.054005463 0.79900002 1.455704e-38
-0.0041223941 0.054005463 0.79900002 1.5664439e-38
-0.0013775885 0.054140642 0.801 1.732396e-38
0.0013775361 0.054140642 0.801 1.6492417e-38
0.0041327132 0.054140642 0.801 2.0456829e-38
0.0069222338 0.054411009 0.80500001 1.5760252e-38
0.0096911173 0.054411009 0.80500001 1.4377318e-38
0.012521913 0.054681376 0.80900002 1.8248524e-38
0.015588323 0.055695247 0.824 2.0000241e-38
0.018467274 0.05583043 0.82599998 1.8716053e-38
0.021359982 0.055965614 0.82800001 1.8531662e-38
-0.023213983 0.050915349 0.79400003 1.8991571e-38
-0.017796574 0.0510436 0.796 2.2308793e-38
-0.015058648 0.0510436 0.796 2.2761078e-38
-0.012351678 0.051171847 0.79799998 2.1285948e-38
-0.0096068457 0.051171847 0.79799998 1.8889167e-38
-0.0068706395 0.051235974 0.79900002 1.6307689e-38
-0.0041223941 0.051235974 0.79900002 1.5570063e-38
-0.0013775885 0.051364221 0.801 1.6952987e-38
0.0013775361 0.051364221 0.801 1.7229305e-38
0.0041327132 0.051364221 0.801 1.8981022e-38
0.0069050356 0.051492475 0.80299997 1.6495669e-38
0.0096670389 0.051492475 0.80299997 1.6126887e-38
0.012521913 0.051877223 0.80900002 1.6863747e-38
0.015588323 0.052839104 0.824 1.9168638e-38
0.018467274 0.052967351 0.82599998 1.8991208e-38
0.021359982 0.053095605 0.82800001 1.8622426e-38
0.02420803 0.053095605 0.82800001 1.8623492e-38
-0.025716294 0.047738578 0.787 2.0006454e-38
-0.023213983 0.04816319 0.79400003 2.2495736e-38
-0.020482935 0.04816319 0.79400003 2.332368e-38
-0.017751861 0.04816319 0.79400003 2.0834398e-38
-0.015058648 0.048284508 0.796 1.9348433e-38
-0.012351678 0.048405822 0.79799998 2.1376737e-38
-0.0096188849 0.048466485 0.79900002 1.9257959e-38
-0.0068706395 0.048466485 0.79900002 1.566233e-38
-0.0041327132 0.048587799 0.801 1.4463373e-38
-0.0013810281 0.048709121 0.80299997 1.4924344e-38
0.0013809756 0.048709121 0.80299997 1.8614035e-38
0.0041430318 0.048709121 0.80299997 1.6677926e-38
0.0069050356 0.048709121 0.80299997 1.6495657e-38
0.0096670389 0.048709121 0.80299997 1.4928331e-38
0.012521913 0.049073074 0.80900002 1.548038e-38
0.015550487 0.049861643 0.82200003 1.8522831e-38
0.018467274 0.050104275 0.82599998 2.1017351e-38
0.021359982 0.050225597 0.82800001 1.871246e-38
0.02420803 0.050225597 0.82800001 1.7702615e-38
-0.028423289 0.045010645 0.787 2.3233662e-38
-0.025716294 0.045010645 0.787 2.341769e-38
-0.023009323 0.045010645 0.787 1.604204e-38
-0.020328149 0.045067832 0.78799999 1.6392417e-38
-0.017751861 0.045410994 0.79400003 1.5747048e-38
-0.015058648 0.045525376 0.796 1.6021837e-38
-0.012351678 0.045639761 0.79799998 2.2752118e-38
-0.0096188849 0.045696955 0.79900002 2.017707e-38
-0.0068706395 0.045696955 0.79900002 1.9992678e-38
-0.0041327132 0.045811336 0.801 2.1561478e-38
-0.0013810281 0.045925725 0.80299997 1.5292175e-38
0.0013809756 0.045925725 0.80299997 1.7230011e-38
0.0041430318 0.045925725 0.80299997 1.8151968e-38
0.0069222338 0.04604011 0.80500001 1.7049181e-38
0.0097151939 0.046154492 0.80699998 1.621942e-38
0.012521913 0.04626888 0.80900002 1.6217259e-38
0.015418061 0.046612035 0.815 1.7231411e-38
0.018377844 0.047012389 0.82200003 2.1842423e-38
0.021359982 0.047355544 0.82800001 2.2487793e-38
0.02420803 0.047355544 0.82800001 2.2120455e-38
-0.03357926 0.041960351 0.78100002 2.0098998e-38
-0.030892927 0.041960351 0.78100002 2.3324059e-38
-0.028206594 0.041960351 0.78100002 2.3508451e-38
-0.025650941 0.042175259 0.78500003 2.3417687e-38
-0.023009323 0.042282708 0.787 2.1389383e-38
-0.020328149 0.042336434 0.78799999 1.7682467e-38
-0.017707145 0.042551339 0.792 1.4732207e-38
-0.015020813 0.042658795 0.79400003 1.4548149e-38
-0.012351678 0.042873699 0.79799998 1.832817e-38
-0.0096188849 0.042927425 0.79900002 1.7132864e-38
-0.0068878378 0.043034878 0.801 1.7778233e-38
-0.0041327132 0.043034878 0.801 1.8609789e-38
-0.0013844678 0.043249782 0.80500001 1.5475137e-38
0.0013844152 0.043249782 0.80500001 1.6215497e-38
0.0041533508 0.043249782 0.80500001 1.529354e-38
0.0069394317 0.043357234 0.80699998 1.6495271e-38
0.0097151939 0.043357234 0.80699998 1.8523575e-38
0.012521913 0.04346469 0.80900002 1.7970095e-38
0.015380226 0.043679595 0.81300002 1.4466661e-38
0.018333128 0.044055682 0.81999999 1.7785028e-38
0.021256793 0.044270586 0.824 1.815381e-38
0.024149556 0.044378038 0.82599998 1.557055e-38
0.02663123 0.043787047 0.815 2.0272527e-38
0.02943451 0.043787047 0.815 1.8254356e-38
-0.035940573 0.038901426 0.77399999 1.8347997e-38
-0.03357926 0.039253253 0.78100002 2.0929474e-38
-0.030892927 0.039253253 0.78100002 2.3137449e-38
-0.028206594 0.039253253 0.78100002 2.267647e-38
-0.025585586 0.039353773 0.78299999 2.0269288e-38
-0.02295085 0.039454296 0.78500003 2.063807e-38
-0.020302353 0.039554816 0.787 2.1469697e-38
-0.01766243 0.039705593 0.79000002 1.7228698e-38
-0.015020813 0.039906636 0.79400003 1.4915153e-38
-0.012351678 0.040107675 0.79799998 1.6113696e-38
-0.0096188849 0.040157937 0.79900002 1.6577561e-38
-0.0068878378 0.040258456 0.801 1.7591713e-38
-0.0041430318 0.040358976 0.80299997 1.6859175e-38
-0.0013844678 0.040459495 0.80500001 1.695137e-38
0.0013878547 0.040560015 0.80699998 1.5753825e-38
0.0041636694 0.040560015 0.80699998 1.6675781e-38
0.0069394317 0.040560015 0.80699998 1.5847738e-38
0.0097151939 0.040560015 0.80699998 1.9074585e-38
0.012521913 0.040660538 0.80900002 1.8339942e-38
0.01534239 0.040761057 0.81099999 1.7141399e-38
0.018176626 0.040861581 0.81300002 1.6402053e-38
0.021024618 0.0409621 0.815 1.603327e-38
0.023915663 0.041112881 0.81800002 1.2714616e-38
0.02663123 0.0409621 0.815 2.0735636e-38
0.02943451 0.0409621 0.815 1.8254709e-38
-0.035940573 0.036218554 0.77399999 2.3417675e-38
-0.03327829 0.036218554 0.77399999 2.3233283e-38
-0.030616036 0.036218554 0.77399999 2.1108384e-38
-0.027953781 0.036218554 0.77399999 1.9172276e-38
-0.025487557 0.036499318 0.77999997 1.5481917e-38
-0.022804664 0.036499318 0.77999997 1.6588264e-38
-0.020199163 0.036639702 0.78299999 1.6768426e-38
-0.017617714 0.036873672 0.78799999 1.8888926e-38
-0.014982977 0.037060849 0.792 1.5475527e-38
-0.012351678 0.03734161 0.79799998 1.4645766e-38
-0.0096188849 0.037388407 0.79900002 1.6577924e-38
-0.0068878378 0.037481993 0.801 1.7407685e-38
-0.0041430318 0.037575584 0.80299997 1.6859896e-38
-0.0013844678 0.037669171 0.80500001 1.6952092e-38
0.0013878547 0.037762757 0.80699998 1.5659882e-38
0.0041636694 0.037762757 0.80699998 1.7872577e-38
0.0069566299 0.037856348 0.80900002 1.4648164e-38
0.0097392714 0.037856348 0.80900002 1.8889163e-38
0.012521913 0.037856348 0.80900002 1.8339942e-38
0.01534239 0.037949935 0.81099999 1.6588225e-38
0.018176626 0.038043521 0.81300002 1.7417647e-38
0.021024618 0.038137108 0.815 1.6772277e-38
0.023915663 0.038277496 0.81800002 1.2626767e-38
0.02663123 0.038137108 0.815 1.9172657e-38
0.02943451 0.038137108 0.815 1.8071037e-38
-0.03327829 0.033535719 0.77399999 1.7136053e-38
-0.030616036 0.033535719 0.77399999 1.6035446e-38
-0.027953781 0.033535719 0.77399999 1.1610056e-38
-0.025356853 0.033622377 0.77600002 1.2808667e-38
-0.022804664 0.033795685 0.77999997 1.3915014e-38
-0.020199163 0.033925671 0.78299999 1.630529e-38
-0.017617714 0.034142312 0.78799999 1.7042855e-38
-0.014982977 0.034315623 0.792 1.6673001e-38
-0.012351678 0.034575589 0.79799998 1.4829088e-38
-0.0096429624 0.034705572 0.801 1.7038912e-38
-0.0069050356 0.03479223 0.80299997 1.7960868e-38
-0.0041533508 0.034878884 0.80500001 1.6121249e-38
-0.0013913471 0.035052195 0.80900002 1.5383684e-38
0.0013912943 0.035052195 0.80900002 1.5201074e-38
0.0041739885 0.035052195 0.80900002 1.612303e-38
0.0069738282 0.035138849 0.81099999 1.3448949e-38
0.0097633488 0.035138849 0.81099999 1.8796296e-38
0.01255287 0.035138849 0.81099999 1.6127925e-38
0.01534239 0.035138849 0.81099999 1.8064033e-38
0.018176626 0.035225507 0.81300002 1.7231107e-38
0.021024618 0.035312161 0.815 1.5387195e-38
0.023915663 0.035442147 0.81800002 1.6499377e-38
0.026729262 0.035442147 0.81800002 1.8988659e-38
-0.030616036 0.030852847 0.77399999 1.1520764e-38
-0.027953781 0.030852847 0.77399999 1.6868111e-38
-0.025356853 0.030932572 0.77600002 1.8800333e-38
-0.02268772 0.030932572 0.77600002 1.8892529e-38
-0.020018585 0.030932572 0.77600002 1.8798883e-38
-0.018042507 0.032168277 0.80699998 1.990523e-38
-0.015266744 0.032168277 0.80699998 1.7594257e-38
-0.012490982 0.032168277 0.80699998 1.6211322e-38
-0.0097151939 0.032168277 0.80699998 1.8145976e-38
-0.0069394317 0.032168277 0.80699998 1.7961584e-38
-0.0041739885 0.032248002 0.80900002 1.5567725e-38
-0.0013913471 0.032248002 0.80900002 1.4645769e-38
0.0013947338 0.032327726 0.81099999 1.437169e-38
0.0041843075 0.032327726 0.81099999 1.4648277e-38
0.0069910265 0.032407451 0.81300002 1.2894736e-38
0.0098115029 0.032487173 0.815 1.9256234e-38
0.012614782 0.032487173 0.815 1.2713476e-38
0.015455897 0.032566894 0.81699997 1.5110539e-38
0.018266054 0.032566894 0.81699997 1.4007535e-38
0.021076214 0.032566894 0.81699997 1.3546557e-38
-0.012521939 0.029443812 0.80900002 1.7041824e-38
-0.0097392714 0.029443812 0.80900002 1.823709e-38
-0.0069566299 0.029443812 0.80900002 1.6946351e-38
-0.0041739885 0.029443812 0.80900002 1.5751407e-38
-0.0013913471 0.029443812 0.80900002 1.5013842e-38
0.0013947338 0.029516602 0.81099999 1.5291138e-38
0.0041946266 0.029589394 0.81300002 1.4922356e-38
0.0070082243 0.029662183 0.815 1.3816724e-38
0.0098355804 0.029734973 0.81699997 1.7043571e-38
0.012645738 0.029734973 0.81699997 1.3819219e-38
0.015474816 0.029771371 0.81800002 1.9258761e-38
0.018333128 0.029844161 0.81999999 1.880753e-38
0.021256793 0.029989742 0.824 1.8438748e-38
-0.012521939 0.026639661 0.80900002 1.6407238e-38
-0.0097392714 0.026639661 0.80900002 1.5658852e-38
-0.0069566299 0.026639661 0.80900002 1.6304221e-38
-0.0041739885 0.026639661 0.80900002 1.6489689e-38
-0.0013913471 0.026639661 0.80900002 1.6120906e-38
0.0013947338 0.026705517 0.81099999 1.5476987e-38
0.0041946266 0.026771378 0.81300002 1.6952117e-38
0.0070082243 0.026837233 0.815 1.4463546e-38
0.0098355804 0.026903091 0.81699997 1.2804024e-38
0.012645738 0.026903091 0.81699997 1.1794169e-38
0.015512651 0.02700188 0.81999999 1.8340058e-38
0.018377844 0.027067741 0.82200003 1.7886656e-38
0.021256793 0.027133597 0.824 1.8163243e-38
0.02438345 0.027462889 0.83399999 1.8071037e-38
-0.018131938 0.023894433 0.81099999 2.350987e-38
-0.012490982 0.023776582 0.80699998 1.6410103e-38
-0.0097151939 0.023776582 0.80699998 1.685525e-38
-0.0069394317 0.023776582 0.80699998 1.833038e-38
-0.0041739885 0.023835508 0.80900002 1.7137237e-38
-0.0013913471 0.023835508 0.80900002 1.6307476e-38
0.0013912943 0.023835508 0.80900002 1.4741221e-38
0.0041843075 0.023894433 0.81099999 1.5663178e-38
0.0069910265 0.02395336 0.81300002 1.4372795e-38
0.0098115029 0.024012286 0.815 1.3543034e-38
0.012645738 0.024071211 0.81699997 1.2440617e-38
0.015474816 0.024100676 0.81800002 1.8525529e-38
0.018377844 0.024218528 0.82200003 1.8255438e-38
0.021256793 0.024277452 0.824 1.779446e-38
0.024324978 0.024513155 0.83200002 1.8070318e-38
-0.015342416 0.02108331 0.81099999 2.3416971e-38
-0.012490982 0.020979322 0.80699998 1.7608646e-38
-0.0097151939 0.020979322 0.80699998 2.045305e-38
-0.0069394317 0.020979322 0.80699998 1.8609137e-38
-0.0041739885 0.021031316 0.80900002 1.7965566e-38
-0.0013913471 0.021031316 0.80900002 1.6582631e-38
0.0013912943 0.021031316 0.80900002 1.4834123e-38
0.0041843075 0.02108331 0.81099999 1.6124862e-38
0.0069910265 0.021135304 0.81300002 1.5110723e-38
0.0098115029 0.021187296 0.815 1.474194e-38
0.012645738 0.02123929 0.81699997 1.4191615e-38
0.015474816 0.021265289 0.81800002 1.8893592e-38
0.018377844 0.021369275 0.82200003 1.7978132e-38
0.021256793 0.021421269 0.824 1.7978132e-38
0.024324978 0.02162924 0.83200002 1.7977772e-38
-0.015342416 0.018272186 0.81099999 2.341769e-38
-0.012521939 0.018227125 0.80900002 1.8900104e-38
-0.0097151939 0.018182063 0.80699998 2.2667187e-38
-0.0069394317 0.018182063 0.80699998 2.0638883e-38
-0.0041739885 0.018227125 0.80900002 1.9624355e-38
-0.0013913471 0.018227125 0.80900002 1.7780443e-38
0.0013912943 0.018227125 0.80900002 1.6215984e-38
0.0041843075 0.018272186 0.81099999 1.7691114e-38
0.0069910265 0.018317247 0.81300002 1.7507453e-38
0.0098115029 0.018362308 0.815 1.5571345e-38
0.012645738 0.018407367 0.81699997 1.3640246e-38
0.015474816 0.0184299 0.81800002 1.8987593e-38
0.018377844 0.018520022 0.82200003 1.8162161e-38
-0.012521939 0.015422974 0.80900002 2.0835493e-38
-0.0097151939 0.015384845 0.80699998 1.9899848e-38
-0.0069394317 0.015384845 0.80699998 1.6949588e-38
-0.0041739885 0.015422974 0.80900002 1.3821426e-38
-0.0013913471 0.015422974 0.80900002 1.22541e-38
0.0013947338 0.015461101 0.81099999 1.0595651e-38
0.0041843075 0.015461101 0.81099999 8.9361294e-39
0.0069910265 0.01549923 0.81300002 7.550325e-39
0.0098115029 0.015537359 0.815 4.5078693e-39
0.012645738 0.015575487 0.81699997 1.437889e-38
0.015512651 0.015632682 0.81999999 1.9726237e-38
0.018333128 0.015632682 0.81999999 1.7977772e-38
-0.012521939 0.012618782 0.80900002 1.1793478e-38
-0.0097151939 0.012587585 0.80699998 3.6841818e-39
-0.0069394317 0.012587585 0.80699998 8.3861533e-39
-0.0041739885 0.012618782 0.80900002 6.2686218e-39
-0.0013913471 0.012618782 0.80900002 3.6871442e-39
0.0013947338 0.012649978 0.81099999 4.2402955e-39
0.0041843075 0.012649978 0.81099999 3.871513e-39
0.0070082243 0.01271237 0.815 3.6885665e-39
0.0098355804 0.012743565 0.81699997 4.6171944e-40
0.012692173 0.01279036 0.81999999 1.2631495e-38
0.015512651 0.01279036 0.81999999 1.8808602e-38
0.018333128 0.01279036 0.81999999 1.7886653e-38
-0.012552896 0.009838894 0.81099999 9.9578189e-39
-0.0097392714 0.0098146303 0.80900002 9.2203267e-39
-0.0069566299 0.0098146303 0.80900002 9.0359354e-39
-0.0041739885 0.0098146303 0.80900002 7.7459127e-39
-0.0013913471 0.0098146303 0.80900002 5.8098045e-39
0.0013947338 0.009838894 0.81099999 5.5306812e-39
0.0041946266 0.0098631578 0.81300002 4.7009205e-39
0.0070254221 0.0099116843 0.81699997 4.8860531e-39
0.0098476196 0.0099238176 0.81800002 5.5314225e-39
0.012692173 0.0099480804 0.81999999 1.0235147e-38
0.015512651 0.0099480804 0.81999999 1.8440558e-38
0.018333128 0.0099480804 0.81999999 1.7702255e-38
-0.012552896 0.0070277699 0.81099999 1.2538969e-38
-0.0097392714 0.0070104389 0.80900002 7.8402775e-39
-0.0069566299 0.0070104389 0.80900002 8.1168644e-39
-0.0041739885 0.0070104389 0.80900002 9.3135859e-39
-0.0013913471 0.0070104389 0.80900002 5.9023476e-39
0.0013947338 0.0070277699 0.81099999 5.0707947e-39
0.0041946266 0.0070451014 0.81300002 5.2551859e-39
0.0070254221 0.0070797629 0.81699997 6.4537193e-39
0.0098476196 0.0070884293 0.81800002 6.1771324e-39
0.012692173 0.0071057603 0.81999999 8.1139441e-39
0.015512651 0.0071057603 0.81999999 1.8347659e-38
0.018333128 0.0071057603 0.81999999 1.7702255e-38
-0.012552896 0.0042166458 0.81099999 1.1617015e-38
-0.0097392714 0.0042062472 0.80900002 9.0399025e-39
-0.0069566299 0.0042062472 0.80900002 8.1179462e-39
-0.0041739885 0.0042062472 0.80900002 8.1143267e-39
-0.0013913471 0.0042062472 0.80900002 6.2704141e-39
0.0013947338 0.0042166458 0.81099999 5.9001924e-39
0.0041946266 0.0042270445 0.81300002 6.6377574e-39
0.0070254221 0.0042478419 0.81699997 7.4700166e-39
0.0098476196 0.0042530415 0.81800002 7.9309948e-39
0.012692173 0.0042634401 0.81999999 6.7324516e-39
0.015512651 0.0042634401 0.81999999 1.751934e-38
0.018333128 0.0042634401 0.81999999 1.7886656e-38
-0.0097392714 0.0014020958 0.80900002 9.6838328e-39
-0.0069566299 0.0014020958 0.80900002 6.7335726e-39
-0.0041739885 0.0014020958 0.80900002 6.547717e-39
-0.0013913471 0.0014020958 0.80900002 6.1789345e-39
0.0013947338 0.0014055619 0.81099999 7.2841862e-39
0.0041946266 0.0014090283 0.81300002 7.1919906e-39
0.0070082243 0.0014124945 0.815 7.1008838e-39
0.0098355804 0.0014159607 0.81699997 7.6540576e-39
0.012661218 0.0014176939 0.81800002 7.0075993e-39
0.015512651 0.0014211602 0.81999999 1.585838e-38
0.018333128 0.0014211602 0.81999999 1.7702264e-38
-0.012552896 -0.0014055619 0.81099999 1.1802135e-38
-0.0097392714 -0.0014020958 0.80900002 1.0973486e-38
-0.0069566299 -0.0014020958 0.80900002 7.9310298e-39
-0.0041739885 -0.0014020958 0.80900002 7.930992e-39
-0.0013913471 -0.0014020958 0.80900002 7.0090357e-39
0.0013947338 -0.0014055619 0.81099999 6.4558773e-39
0.0041946266 -0.0014090283 0.81300002 6.2714861e-39
0.0070082243 -0.0014124945 0.815 6.6381106e-39
0.0098355804 -0.0014159607 0.81699997 7.0990887e-39
0.012661218 -0.0014176939 0.81800002 5.9037727e-39
0.015512651 -0.0014211602 0.81999999 1.3002836e-38
0.018377844 -0.0014246264 0.82200003 1.8255075e-38
-0.012521939 -0.0042062472 0.80900002 1.2723738e-38
-0.0097392714 -0.0042062472 0.80900002 9.6852691e-39
-0.0069394317 -0.0041958485 0.80699998 7.3803784e-39
-0.0041636694 -0.0041958485 0.80699998 5.9048461e-39
-0.0013879074 -0.0041958485 0.80699998 6.0892374e-39
0.0013912943 -0.0042062472 0.80900002 5.8094191e-39
0.0041946266 -0.0042270445 0.81300002 5.9016147e-39
0.0070082243 -0.0042374432 0.815 6.7303062e-39
0.0098115029 -0.0042374432 0.815 6.3615237e-39
0.012645738 -0.0042478419 0.81699997 6.0878207e-39
0.015512651 -0.0042634401 0.81999999 1.0236624e-38
0.018377844 -0.0042738388 0.82200003 1.8896482e-38
0.021256793 -0.0042842375 0.824 1.8251112e-38
-0.012490982 -0.0069931075 0.80699998 1.346095e-38
-0.0097151939 -0.0069931075 0.80699998 1.0420316e-38
-0.0069394317 -0.0069931075 0.80699998 8.4842078e-39
-0.0041636694 -0.0069931075 0.80699998 5.3491766e-39
-0.0013879074 -0.0069931075 0.80699998 5.4413723e-39
0.0013912943 -0.0070104389 0.80900002 5.5331825e-39
0.0041843075 -0.0070277699 0.81099999 6.5473345e-39
0.0070082243 -0.0070624324 0.815 7.1912816e-39
0.0098115029 -0.0070624324 0.815 7.2834772e-39
0.012645738 -0.0070797629 0.81699997 7.5615088e-39
0.015474816 -0.0070884293 0.81800002 7.1927263e-39
0.018377844 -0.0071230917 0.82200003 1.8437662e-38
0.021256793 -0.0071404227 0.824 1.7792292e-38
-0.012490982 -0.0097903265 0.80699998 1.2447887e-38
-0.0097151939 -0.0097903265 0.80699998 9.7760284e-39
-0.0069394317 -0.0097903265 0.80699998 8.3008983e-39
-0.0041636694 -0.0097903265 0.80699998 5.9030763e-39
-0.0013879074 -0.0097903265 0.80699998 7.1016195e-39
0.0013912943 -0.0098145902 0.80900002 7.1012341e-39
0.0041843075 -0.009838854 0.81099999 7.1934297e-39
0.0069910265 -0.0098631177 0.81300002 7.6529688e-39
0.0098115029 -0.0098873805 0.815 7.5607731e-39
0.012645738 -0.0099116443 0.81699997 7.6540576e-39
0.015474816 -0.0099237766 0.81800002 5.9023406e-39
0.018377844 -0.0099723041 0.82200003 1.742351e-38
0.021256793 -0.0099965669 0.824 1.7976683e-38
0.024091084 -0.0099965669 0.824 1.7424949e-38
-0.012490982 -0.012587585 0.80699998 1.2354958e-38
-0.0097151939 -0.012587585 0.80699998 9.4086948e-39
-0.0069394317 -0.012587585 0.80699998 7.380391e-39
-0.0041636694 -0.012587585 0.80699998 6.7317481e-39
-0.0013879074 -0.012587585 0.80699998 7.1927263e-39
0.0013912943 -0.012618782 0.80900002 7.5600697e-39
0.0041739885 -0.012618782 0.80900002 7.467874e-39
0.0069738282 -0.012649978 0.81099999 7.5600697e-39
0.0098115029 -0.01271237 0.815 7.467874e-39
0.012614782 -0.01271237 0.815 7.5600641e-39
0.015455897 -0.012743565 0.81699997 5.8083471e-39
0.018333128 -0.01279036 0.81999999 1.5486673e-38
0.021256793 -0.012852753 0.824 1.8529129e-38
0.024091084 -0.012852753 0.824 1.7424949e-38
-0.012521939 -0.015422934 0.80900002 1.2723738e-38
-0.0097151939 -0.015384804 0.80699998 9.3157803e-39
-0.0069394317 -0.015384804 0.80699998 7.9328459e-39
-0.0041636694 -0.015384804 0.80699998 5.7197514e-39
-0.0013879074 -0.015384804 0.80699998 6.7339033e-39
0.0013912943 -0.015422934 0.80900002 7.1927263e-39
0.0041739885 -0.015422934 0.80900002 7.1005307e-39
0.0069738282 -0.015461061 0.81099999 7.5600697e-39
0.0097874263 -0.01549919 0.81300002 7.467874e-39
0.012614782 -0.015537319 0.815 7.4678684e-39
0.015455897 -0.015575446 0.81699997 6.2693253e-39
0.018333128 -0.015632641 0.81999999 1.2261984e-38
0.021256793 -0.015708897 0.824 1.8070308e-38
0.024091084 -0.015708897 0.824 1.7240923e-38
0.026925318 -0.015708897 0.824 1.7240923e-38
-0.012521939 -0.018227125 0.80900002 1.2632631e-38
-0.0097151939 -0.018182063 0.80699998 1.0697971e-38
-0.0069394317 -0.018182063 0.80699998 7.5633193e-39
-0.0041636694 -0.018182063 0.80699998 6.9161394e-39
-0.0013879074 -0.018182063 0.80699998 7.008335e-39
0.0013912943 -0.018227125 0.80900002 7.2834772e-39
0.0041739885 -0.018227125 0.80900002 7.2834772e-39
0.0069566299 -0.018227125 0.80900002 7.467874e-39
0.0097874263 -0.018317247 0.81300002 7.2834828e-39
0.012614782 -0.018362308 0.815 6.9164925e-39
0.015455897 -0.018407367 0.81699997 6.54771e-39
0.018288413 -0.0184299 0.81800002 8.6659982e-39
0.0212052 -0.018520022 0.82200003 1.8254344e-38
0.02403261 -0.018520022 0.82200003 1.6963983e-38
0.026925318 -0.018565083 0.824 1.6871788e-38
-0.012521939 -0.021031277 0.80900002 1.3921578e-38
-0.0097151939 -0.020979283 0.80699998 1.0513214e-38
-0.0069394317 -0.020979283 0.80699998 6.6409972e-39
-0.0041636694 -0.020979283 0.80699998 6.9139688e-39
-0.0013879074 -0.020979283 0.80699998 7.4671426e-39
0.0013912943 -0.021031277 0.80900002 7.1912816e-39
0.0041739885 -0.021031277 0.80900002 6.9146947e-39
0.0069566299 -0.021031277 0.80900002 7.0990859e-39
0.0097874263 -0.021135263 0.81300002 7.0068903e-39
0.012583827 -0.021135263 0.81300002 6.9154037e-39
0.015418061 -0.021187257 0.815 7.2841862e-39
0.018288413 -0.021265248 0.81800002 6.0874101e-39
0.021153605 -0.02131724 0.81999999 1.6689908e-38
0.023974136 -0.02131724 0.81999999 1.7333485e-38
0.026859967 -0.021369236 0.82200003 1.7056898e-38
-0.012521939 -0.023835469 0.80900002 1.3738979e-38
-0.0097151939 -0.023776541 0.80699998 8.8544182e-39
-0.0069394317 -0.023776541 0.80699998 5.166593e-39
-0.0041636694 -0.023776541 0.80699998 5.9963285e-39
-0.0013879074 -0.023776541 0.80699998 7.1948717e-39
0.0013912943 -0.023835469 0.80900002 7.1927263e-39
0.0041739885 -0.023835469 0.80900002 6.4551612e-39
0.0069738282 -0.023894394 0.81099999 6.9154037e-39
0.0097874263 -0.02395332 0.81300002 6.7310125e-39
0.012583827 -0.02395332 0.81300002 6.3643851e-39
0.015418061 -0.024012245 0.815 6.9175589e-39
0.018288413 -0.024100635 0.81800002 5.6275362e-39
0.021153605 -0.02415956 0.81999999 1.4109534e-38
0.023974136 -0.02415956 0.81999999 1.7425677e-38
0.026859967 -0.024218488 0.82200003 1.6872504e-38
-0.012521939 -0.026639661 0.80900002 1.3644988e-38
-0.0097151939 -0.0265738 0.80699998 8.6710962e-39
-0.0069394317 -0.0265738 0.80699998 6.4584011e-39
-0.0041636694 -0.0265738 0.80699998 6.9139688e-39
-0.0013879074 -0.0265738 0.80699998 8.5734901e-39
0.0013912943 -0.026639661 0.80900002 7.4693132e-39
0.0041739885 -0.026639661 0.80900002 6.4551612e-39
0.0069738282 -0.026705517 0.81099999 6.7324516e-39
0.0097874263 -0.026771378 0.81300002 6.4558647e-39
0.012583827 -0.026771378 0.81300002 5.9030567e-39
0.015455897 -0.026903091 0.81699997 6.2718392e-39
0.018288413 -0.026936024 0.81800002 5.8097694e-39
0.021153605 -0.02700188 0.81999999 1.3369811e-38
0.02403261 -0.027067741 0.82200003 1.7608627e-38
0.026859967 -0.027067741 0.82200003 1.7055453e-38
-0.012521939 -0.029443812 0.80900002 1.300071e-38
-0.0097392714 -0.029443812 0.80900002 7.5618717e-39
-0.0069394317 -0.029371019 0.80699998 7.746263e-39
-0.0041636694 -0.029371019 0.80699998 7.0068903e-39
-0.0013913471 -0.029443812 0.80900002 7.9288466e-39
0.0013912943 -0.029443812 0.80900002 7.6533485e-39
0.0041739885 -0.029443812 0.80900002 7.1001747e-39
0.0069738282 -0.029516602 0.81099999 6.915754e-39
0.0097874263 -0.029589394 0.81300002 6.3625803e-39
0.012614782 -0.029662183 0.815 5.9948992e-39
0.015455897 -0.029734973 0.81699997 7.0090511e-39
0.018288413 -0.029771371 0.81800002 5.9048517e-39
0.021153605 -0.029844161 0.81999999 1.0145851e-38
0.02403261 -0.029916953 0.82200003 1.742423e-38
0.026859967 -0.029916953 0.82200003 1.7055447e-38
-0.012521939 -0.032248002 0.80900002 1.1524862e-38
-0.0097392714 -0.032248002 0.80900002 7.5608026e-39
-0.0069566299 -0.032248002 0.80900002 8.1139763e-39
-0.0041739885 -0.032248002 0.80900002 7.377821e-39
-0.0013913471 -0.032248002 0.80900002 7.2856254e-39
0.0013912943 -0.032248002 0.80900002 7.7459127e-39
0.0041843075 -0.032327726 0.81099999 6.916152e-39
0.0069738282 -0.032327726 0.81099999 6.0860032e-39
0.0097874263 -0.032407451 0.81300002 6.5469813e-39
0.012614782 -0.032487173 0.815 6.2718364e-39
0.015455897 -0.032566894 0.81699997 6.6406189e-39
0.018333128 -0.032686479 0.81999999 5.8115743e-39
0.0212052 -0.032766204 0.82200003 8.2086607e-39
0.02403261 -0.032766204 0.82200003 1.7241276e-38
0.026859967 -0.032766204 0.82200003 1.6780298e-38
-0.012521939 -0.035052154 0.80900002 9.9589735e-39
-0.0097392714 -0.035052154 0.80900002 8.4831246e-39
-0.0069566299 -0.035052154 0.80900002 8.5753202e-39
-0.0041739885 -0.035052154 0.80900002 6.1810729e-39
-0.0013913471 -0.035052154 0.80900002 6.642051e-39
0.0013912943 -0.035052154 0.80900002 8.2058188e-39
0.0041843075 -0.035138808 0.81099999 7.1916669e-39
0.0069738282 -0.035138808 0.81099999 7.1919878e-39
0.0097874263 -0.035225466 0.81300002 6.1778359e-39
0.012614782 -0.03531212 0.815 4.7009205e-39
0.015474816 -0.035442106 0.81800002 2.5804211e-39
0.018333128 -0.03552876 0.81999999 4.8975213e-39
0.0212052 -0.035615418 0.82200003 1.1443411e-38
0.02403261 -0.035615418 0.82200003 1.7330948e-38
0.026859967 -0.035615418 0.82200003 1.7146557e-38
-0.012521939 -0.037856348 0.80900002 1.0605044e-38
-0.0097392714 -0.037856348 0.80900002 7.4714712e-39
-0.0069566299 -0.037856348 0.80900002 7.010493e-39
-0.0041739885 -0.037856348 0.80900002 4.7041702e-39
-0.0013913471 -0.037856348 0.80900002 5.1651483e-39
0.0013912943 -0.037856348 0.80900002 6.9168429e-39
0.0041843075 -0.037949935 0.81099999 5.9948866e-39
0.0069738282 -0.037949935 0.81099999 7.2834421e-39
0.0098115029 -0.038137108 0.815 7.4678334e-39
0.012645738 -0.038230695 0.81699997 1.4570172e-38
0.015474816 -0.038277496 0.81800002 1.5860911e-38
0.018377844 -0.038464673 0.82200003 1.7701546e-38
0.021256793 -0.03855826 0.824 1.7148372e-38
-0.012521939 -0.040660497 0.80900002 1.1800299e-38
-0.0097392714 -0.040660497 0.80900002 1.0414105e-38
-0.0069566299 -0.040660497 0.80900002 8.8467798e-39
-0.0041739885 -0.040660497 0.80900002 8.112121e-39
-0.0013913471 -0.040660497 0.80900002 1.1062381e-38
0.0013947338 -0.040761016 0.81099999 1.2166185e-38
0.0041843075 -0.040761016 0.81099999 8.2017733e-39
0.0070082243 -0.040962059 0.815 8.7567702e-39
0.0098355804 -0.041062579 0.81699997 8.5723789e-39
0.012692173 -0.04121336 0.81999999 1.8619917e-38
0.015550487 -0.041313883 0.82200003 1.7697961e-38
0.018467274 -0.041514922 0.82599998 1.6595538e-38
-0.015418088 -0.043787047 0.815 1.9264886e-38
-0.012552896 -0.043572139 0.81099999 1.6406821e-38
-0.0097392714 -0.04346469 0.80900002 2.0740392e-38
-0.0069566299 -0.04346469 0.80900002 1.4286697e-38
-0.0041739885 -0.04346469 0.80900002 8.2060529e-39
-0.0013947869 -0.043572139 0.81099999 1.0234357e-38
0.0013981734 -0.043679595 0.81300002 7.6481749e-39
0.0042152638 -0.0438945 0.81699997 5.8964846e-39
0.0070512192 -0.044055682 0.81999999 6.7277222e-39
0.0099198511 -0.044270586 0.824 5.8057659e-39
0.012816 -0.044485494 0.82800001 9.4067386e-39
0.015663994 -0.044485494 0.82800001 1.6874585e-38
0.018556703 -0.044592947 0.82999998 1.66881e-38
-0.018221367 -0.046611995 0.815 2.3508807e-38
-0.015418088 -0.046611995 0.815 2.2953087e-38
-0.012614809 -0.046611995 0.815 1.9357457e-38
-0.0097633488 -0.046383224 0.81099999 1.9724432e-38
-0.0069738282 -0.046383224 0.81099999 1.7696128e-38
-0.0041843075 -0.046383224 0.81099999 1.3180676e-38
-0.0013947869 -0.046383224 0.81099999 9.2162643e-39
0.0014050524 -0.04672638 0.81699997 6.9106379e-39
0.0042410614 -0.047012348 0.82200003 7.5560073e-39
0.0070856158 -0.047126733 0.824 8.6631242e-39
0.0099439286 -0.047241118 0.82599998 1.0322646e-38
0.012785044 -0.047241118 0.82599998 1.124417e-38
0.015626159 -0.047241118 0.82599998 1.5761756e-38
-0.018221367 -0.049436986 0.815 2.2680475e-38
-0.015418088 -0.049436986 0.815 2.3325835e-38
-0.012552896 -0.049194347 0.81099999 2.258827e-38
-0.0097392714 -0.049073033 0.80900002 2.3134957e-38
-0.0069566299 -0.049073033 0.80900002 1.8893958e-38
-0.0041739885 -0.049073033 0.80900002 1.6400298e-38
-0.0013913471 -0.049073033 0.80900002 1.3911016e-38
0.0013981734 -0.049315669 0.81300002 8.1113489e-39
0.0042049452 -0.049436986 0.815 1.473314e-39
0.0070512192 -0.049740281 0.81999999 3.9654687e-39
0.0098716961 -0.049740281 0.81999999 5.1640119e-39
0.012754087 -0.049982917 0.824 4.52941e-39
0.015626159 -0.050104234 0.82599998 9.0469959e-39
-0.015418088 -0.052261975 0.815 1.346586e-38
-0.012552896 -0.052005474 0.81099999 1.5494164e-38
-0.0097392714 -0.051877223 0.80900002 1.7328757e-38
-0.0069566299 -0.051877223 0.80900002 1.5392648e-38
-0.0041739885 -0.051877223 0.80900002 1.3825986e-38
-0.0013913471 -0.051877223 0.80900002 1.3918181e-38
0.0013947338 -0.052005474 0.81099999 1.3088841e-38
0.0042049452 -0.052261975 0.815 1.290445e-38
0.0070512192 -0.052582603 0.81999999 1.3092833e-38
0.0098716961 -0.052582603 0.81999999 1.4567963e-38
0.012754087 -0.052839104 0.824 1.549172e-38
0.015626159 -0.052967351 0.82599998 1.7059046e-38
