# .PCD v0.7 - Point Cloud Data file format
VERSION 0.7
FIELDS x y z rgb
SIZE 4 4 4 4
TYPE F F F F
COUNT 1 1 1 1
WIDTH 561
HEIGHT 1
VIEWPOINT 0 0 0 1 0 0 0
POINTS 561
DATA ascii
0.0014016129 0.077686712 0.815 2.1477519e-38
0.0042049452 0.077686712 0.815 2.0463367e-38
-0.0041739885 0.074310638 0.80900002 2.3048018e-38
-0.0013913471 0.074310638 0.80900002 2.0927518e-38
0.0013981734 0.074678056 0.81300002 2.2858624e-38
0.0042049452 0.074861765 0.815 2.2121059e-38
-0.015550514 0.072655506 0.82200003 2.3326167e-38
-0.012521939 0.071506448 0.80900002 2.3142134e-38
-0.0097392714 0.071506448 0.80900002 2.2581587e-38
-0.0069394317 0.071329661 0.80699998 2.3507865e-38
-0.0041636694 0.071329661 0.80699998 2.2761662e-38
-0.0013913471 0.071506448 0.80900002 2.1655315e-38
0.0013912943 0.071506448 0.80900002 1.8526018e-38
0.0042049452 0.072036773 0.815 2.1476241e-38
-0.024091084 0.069976091 0.824 1.880753e-38
-0.021256847 0.069976091 0.824 2.175561e-38
-0.018422585 0.069976091 0.824 2.2124392e-38
-0.015550514 0.069806248 0.82200003 2.3325398e-38
-0.012490982 0.068532407 0.80699998 2.2772224e-38
-0.0097151939 0.068532407 0.80699998 2.1013143e-38
-0.0069394317 0.068532407 0.80699998 1.9998991e-38
-0.0041636694 0.068532407 0.80699998 2.285536e-38
-0.0013844678 0.068362564 0.80500001 2.1841208e-38
0.0013775361 0.06802287 0.801 1.2716346e-38
0.0041327132 0.06802287 0.801 1.7787081e-38
0.0070254221 0.069381632 0.81699997 2.0092437e-38
0.0098355804 0.069381632 0.81699997 2.0461219e-38
-0.024091084 0.067119949 0.824 2.0006439e-38
-0.021256847 0.067119949 0.824 2.2768583e-38
-0.018422585 0.067119949 0.824 2.0555888e-38
-0.015550514 0.066957042 0.82200003 2.304407e-38
-0.012429069 0.065409362 0.80299997 2.2859679e-38
-0.0096670389 0.065409362 0.80299997 2.2857155e-38
-0.0069222338 0.065572277 0.80500001 1.6311265e-38
-0.0041430318 0.065409362 0.80299997 2.2762439e-38
-0.0013775885 0.065246448 0.801 2.294683e-38
0.0013775361 0.065246448 0.801 1.4101412e-38
0.0041327132 0.065246448 0.801 1.4838966e-38
0.0069394317 0.065735184 0.80699998 1.806555e-38
0.0098355804 0.066549748 0.81699997 2.0186049e-38
0.012692173 0.06679412 0.81999999 1.8161795e-38
-0.026925318 0.064263761 0.824 1.9177032e-38
-0.024091084 0.064263761 0.824 2.0744357e-38
-0.021256847 0.064263761 0.824 2.1380921e-38
-0.01837787 0.064107783 0.82200003 2.2856051e-38
-0.015550514 0.064107783 0.82200003 2.2577644e-38
-0.012429069 0.062625974 0.80299997 2.1747883e-38
-0.0096670389 0.062625974 0.80299997 2.2668435e-38
-0.0069050356 0.062625974 0.80299997 1.8335241e-38
-0.0041327132 0.062469989 0.801 2.2853604e-38
-0.0013775885 0.062469989 0.801 2.2761409e-38
0.0013775361 0.062469989 0.801 1.5663382e-38
0.0041327132 0.062469989 0.801 1.7783882e-38
0.0069394317 0.06293793 0.80699998 1.7698237e-38
0.0097874263 0.063405871 0.81300002 1.9726541e-38
0.012661218 0.063795827 0.81800002 1.8623855e-38
-0.026925318 0.061407618 0.824 1.9637647e-38
-0.024091084 0.061407618 0.824 1.9453255e-38
-0.021256847 0.061407618 0.824 2.1750104e-38
-0.01837787 0.061258573 0.82200003 2.1381322e-38
-0.015550514 0.061258573 0.82200003 2.2857162e-38
-0.012490982 0.060140707 0.80699998 2.331814e-38
-0.0096911173 0.059991661 0.80500001 2.2023091e-38
-0.0069050356 0.059842616 0.80299997 1.824307e-38
-0.0041327132 0.059693567 0.801 2.2485157e-38
-0.0013775885 0.059693567 0.801 1.6769028e-38
0.0013775361 0.059693567 0.801 1.4928325e-38
0.0041327132 0.059693567 0.801 1.5573695e-38
0.0069394317 0.060140707 0.80699998 1.6131653e-38
0.0097874263 0.060587857 0.81300002 2.0280456e-38
0.012661218 0.060960475 0.81800002 1.8347631e-38
0.015588323 0.061407618 0.824 1.8439827e-38
-0.024091084 0.058551434 0.824 1.8251823e-38
-0.021256847 0.058551434 0.824 2.1104729e-38
-0.018422585 0.058551434 0.824 2.193449e-38
-0.015626185 0.058693547 0.82599998 2.2857528e-38
-0.012460027 0.057201337 0.80500001 2.092142e-38
-0.0096670389 0.057059225 0.80299997 2.1748297e-38
-0.0068878378 0.056917105 0.801 1.8798036e-38
-0.0041327132 0.056917105 0.801 2.2665238e-38
-0.0013741488 0.056774992 0.79900002 2.2941824e-38
0.0013740966 0.056774992 0.79900002 1.6770472e-38
0.0041223941 0.056774992 0.79900002 1.3820212e-38
0.0069050356 0.057059225 0.80299997 1.5301523e-38
0.0096670389 0.057059225 0.80299997 1.9911305e-38
0.012692173 0.058267202 0.81999999 1.8622786e-38
0.015588323 0.058551434 0.824 1.8438394e-38
-0.02403261 0.055560067 0.82200003 1.8067405e-38
-0.021205254 0.055560067 0.82200003 2.1750104e-38
-0.018422585 0.055695247 0.824 2.3133039e-38
-0.015701856 0.056100793 0.82999998 2.2762802e-38
-0.012429069 0.054275829 0.80299997 2.2301823e-38
-0.0096429624 0.054140642 0.801 2.2761746e-38
-0.0068878378 0.054140642 0.801 1.6676835e-38
-0.0041327132 0.054140642 0.801 1.4835737e-38
-0.0013741488 0.054005463 0.79900002 1.5481097e-38
0.0013723767 0.053937871 0.79799998 1.9719323e-38
0.0041172346 0.053937871 0.79799998 1.3357824e-38
0.0068706395 0.054005463 0.79900002 1.0886625e-38
0.0096429624 0.054140642 0.801 1.7155928e-38
-0.02403261 0.052710854 0.82200003 1.8988998e-38
-0.021205254 0.052710854 0.82200003 2.2670263e-38
-0.018422585 0.052839104 0.824 2.3407828e-38
-0.015115402 0.051235974 0.79900002 2.2951173e-38
-0.012367156 0.051235974 0.79900002 1.9539934e-38
-0.0096429624 0.051364221 0.801 2.1469501e-38
-0.0068878378 0.051364221 0.801 2.2391457e-38
-0.0041327132 0.051364221 0.801 2.3229689e-38
-0.0013741488 0.051235974 0.79900002 2.1477972e-38
0.0013723767 0.051171847 0.79799998 2.1655131e-38
0.0040965974 0.050915349 0.79400003 1.049946e-38
0.0068276445 0.050915349 0.79400003 1.9173454e-38
0.0096429624 0.051364221 0.801 1.9173454e-38
-0.026794612 0.049740322 0.81999999 2.018827e-38
-0.023974136 0.049740322 0.81999999 2.0741444e-38
-0.021153659 0.049740322 0.81999999 2.2117773e-38
-0.017863648 0.048466485 0.79900002 2.2763142e-38
-0.015115402 0.048466485 0.79900002 2.2857531e-38
-0.012367156 0.048466485 0.79900002 2.2949726e-38
-0.0096188849 0.048466485 0.79900002 1.9068421e-38
-0.0068878378 0.048587799 0.801 2.1649865e-38
-0.0041327132 0.048587799 0.801 2.341769e-38
-0.0013741488 0.048466485 0.79900002 2.341769e-38
0.0013723767 0.048405822 0.79799998 2.341769e-38
0.0040965974 0.04816319 0.79400003 2.1020604e-38
0.0068276445 0.04816319 0.79400003 1.8163961e-38
-0.026794612 0.046898 0.81999999 1.981949e-38
-0.023974136 0.046898 0.81999999 2.1110229e-38
-0.021153659 0.046898 0.81999999 2.304408e-38
-0.017863648 0.045696955 0.79900002 2.2214319e-38
-0.015115402 0.045696955 0.79900002 2.2763846e-38
-0.012367156 0.045696955 0.79900002 1.8522847e-38
-0.0096188849 0.045696955 0.79900002 1.722059e-38
-0.0068706395 0.045696955 0.79900002 2.3397668e-38
-0.0041327132 0.045811336 0.801 2.341769e-38
-0.0013741488 0.045696955 0.79900002 2.341769e-38
0.0013740966 0.045696955 0.79900002 2.3324052e-38
-0.026304469 0.043249782 0.80500001 1.9636543e-38
-0.023360165 0.042927425 0.79900002 2.2310216e-38
-0.020611919 0.042927425 0.79900002 2.2858261e-38
-0.017863648 0.042927425 0.79900002 2.3134848e-38
-0.015058648 0.042766247 0.796 2.1650218e-38
-0.012320722 0.042766247 0.796 2.2295578e-38
-0.0096068457 0.042873699 0.79799998 1.9156473e-38
-0.0068706395 0.042927425 0.79900002 2.3490028e-38
-0.0041223941 0.042927425 0.79900002 2.1830567e-38
-0.0013775885 0.043034878 0.801 9.9373305e-39
0.0013775361 0.043034878 0.801 1.0482549e-38
-0.029001145 0.040358976 0.80299997 1.8991571e-38
-0.026304469 0.040459495 0.80500001 2.2399883e-38
-0.023535585 0.040459495 0.80500001 2.2031101e-38
-0.020611919 0.040157937 0.79900002 2.2857531e-38
-0.017863648 0.040157937 0.79900002 2.2765335e-38
-0.015058648 0.040007155 0.796 1.7777702e-38
-0.012320722 0.040007155 0.796 2.349452e-38
-0.0096068457 0.040107675 0.79799998 2.0818923e-38
-0.0068620401 0.040107675 0.79799998 2.1740879e-38
-0.0041223941 0.040157937 0.79900002 1.9621832e-38
-0.0013775885 0.040258456 0.801 1.501205e-38
0.0013775361 0.040258456 0.801 2.3325131e-38
-0.026239114 0.037575584 0.80299997 2.2307302e-38
-0.023477111 0.037575584 0.80299997 2.2860476e-38
-0.020663513 0.037481993 0.801 2.3044084e-38
-0.017841289 0.03734161 0.79799998 2.3320671e-38
-0.015058648 0.037248023 0.796 1.6762576e-38
-0.012320722 0.037248023 0.796 2.2939683e-38
-0.0096068457 0.03734161 0.79799998 2.0910052e-38
-0.0068620401 0.03734161 0.79799998 2.1186639e-38
-0.0041223941 0.037388407 0.79900002 2.1284971e-38
-0.0013741488 0.037388407 0.79900002 1.9717645e-38
0.0013775361 0.037481993 0.801 2.3042749e-38
-0.026239114 0.03479223 0.80299997 2.3138505e-38
-0.023477111 0.03479223 0.80299997 2.0464832e-38
-0.020663513 0.034705572 0.801 2.1470268e-38
-0.017841289 0.034575589 0.79799998 2.3502533e-38
-0.015058648 0.034488935 0.796 1.9164395e-38
-0.012320722 0.034488935 0.796 1.9994155e-38
-0.0096068457 0.034575589 0.79799998 1.9901656e-38
-0.0068620401 0.034575589 0.79799998 2.0178242e-38
-0.0041223941 0.034618918 0.79900002 2.1930688e-38
-0.0013741488 0.034618918 0.79900002 1.556919e-38
0.0013775361 0.034705572 0.801 1.6857305e-38
0.0041327132 0.034705572 0.801 1.3999241e-38
-0.023360165 0.031849388 0.79900002 2.0832535e-38
-0.020611919 0.031849388 0.79900002 2.1748393e-38
-0.017863648 0.031849388 0.79900002 2.0918633e-38
-0.015115402 0.031849388 0.79900002 2.0547734e-38
-0.012367156 0.031849388 0.79900002 2.146969e-38
-0.0096188849 0.031849388 0.79900002 1.8978958e-38
-0.0068706395 0.031849388 0.79900002 2.2298001e-38
-0.0041223941 0.031849388 0.79900002 2.2944846e-38
-0.0013741488 0.031849388 0.79900002 1.5108217e-38
0.0013740966 0.031849388 0.79900002 1.6487116e-38
0.0041223941 0.031849388 0.79900002 1.7593463e-38
0.0068878378 0.031929109 0.801 1.6868553e-38
-0.020663513 0.029152649 0.801 2.1109197e-38
-0.017908363 0.029152649 0.801 2.2768718e-38
-0.015115402 0.029079858 0.79900002 2.2859131e-38
-0.012367156 0.029079858 0.79900002 2.1107414e-38
-0.0096188849 0.029079858 0.79900002 1.7777899e-38
-0.0068706395 0.029079858 0.79900002 2.155792e-38
-0.0041223941 0.029079858 0.79900002 2.1836007e-38
-0.0013741488 0.029079858 0.79900002 1.9992094e-38
0.0013740966 0.029079858 0.79900002 1.7135048e-38
0.0041223941 0.029079858 0.79900002 1.962433e-38
0.0068878378 0.029152649 0.801 1.83444e-38
-0.020663513 0.026376227 0.801 2.2032605e-38
-0.017908363 0.026376227 0.801 2.3231148e-38
-0.015115402 0.026310369 0.79900002 2.2861289e-38
-0.012367156 0.026310369 0.79900002 2.0556398e-38
-0.0096068457 0.02627744 0.79799998 1.7687547e-38
-0.0068620401 0.02627744 0.79799998 1.9808046e-38
-0.0041223941 0.026310369 0.79900002 2.2945228e-38
-0.0013741488 0.026310369 0.79900002 2.0363751e-38
0.0013740966 0.026310369 0.79900002 1.4364474e-38
0.0041223941 0.026310369 0.79900002 1.6669364e-38
0.0068878378 0.026376227 0.801 1.8342955e-38
0.0096670389 0.026442086 0.80299997 1.8803933e-38
-0.020818295 0.023776582 0.80699998 2.2217352e-38
-0.018042507 0.023776582 0.80699998 2.3415895e-38
-0.015115402 0.023540879 0.79900002 2.2584342e-38
-0.012367156 0.023540879 0.79900002 2.1385799e-38
-0.0096068457 0.023511415 0.79799998 1.9439989e-38
-0.0068620401 0.023511415 0.79799998 1.9716576e-38
-0.0041223941 0.023540879 0.79900002 2.2204411e-38
-0.0013741488 0.023540879 0.79900002 2.2573193e-38
0.0013740966 0.023540879 0.79900002 1.6949218e-38
0.0041223941 0.023540879 0.79900002 1.5935066e-38
0.0068878378 0.023599803 0.801 1.788234e-38
0.0096670389 0.023658732 0.80299997 1.8988687e-38
-0.018042507 0.020979322 0.80699998 2.3048194e-38
-0.015191073 0.020875337 0.80299997 2.2770172e-38
-0.012367156 0.020771351 0.79900002 2.1479434e-38
-0.0096188849 0.020771351 0.79900002 2.1102029e-38
-0.0068620401 0.020745352 0.79799998 1.981129e-38
-0.0041172346 0.020745352 0.79799998 2.0174645e-38
-0.001372429 0.020745352 0.79799998 2.3309297e-38
0.0013740966 0.020771351 0.79900002 1.7594957e-38
0.0041223941 0.020771351 0.79900002 1.8332522e-38
0.0068878378 0.020823343 0.801 1.8159289e-38
0.0096670389 0.020875337 0.80299997 1.898905e-38
-0.018087223 0.018227125 0.80900002 2.341769e-38
-0.015228909 0.018137002 0.80500001 2.3324778e-38
-0.012367156 0.018001821 0.79900002 2.2402822e-38
-0.0096188849 0.018001821 0.79900002 2.2761538e-38
-0.0068620401 0.01797929 0.79799998 2.1747386e-38
-0.0041172346 0.01797929 0.79799998 2.0174645e-38
-0.001372429 0.01797929 0.79799998 2.3309297e-38
0.0013740966 0.018001821 0.79900002 1.7042117e-38
0.0041223941 0.018001821 0.79900002 1.8793834e-38
0.0068878378 0.018046882 0.801 1.825292e-38
0.0096670389 0.018091943 0.80299997 1.8529507e-38
-0.015266744 0.015384845 0.80699998 1.9169151e-38
-0.012398113 0.015270459 0.801 1.8708172e-38
-0.0096188849 0.015232331 0.79900002 1.6125237e-38
-0.0068706395 0.015232331 0.79900002 1.3912542e-38
-0.0041223941 0.015232331 0.79900002 1.3911479e-38
-0.0013741488 0.015232331 0.79900002 1.999639e-38
0.0013740966 0.015232331 0.79900002 1.5478767e-38
0.0041223941 0.015232331 0.79900002 1.7507071e-38
0.0069050356 0.015308589 0.80299997 1.8526978e-38
0.0096670389 0.015308589 0.80299997 1.8711369e-38
-0.012398113 0.012493998 0.801 7.9281459e-39
-0.0096188849 0.012462802 0.79900002 4.0598825e-39
-0.0068706395 0.012462802 0.79900002 4.8896432e-39
-0.0041223941 0.012462802 0.79900002 8.388771e-39
-0.0013741488 0.012462802 0.79900002 4.3321632e-39
0.0013740966 0.012462802 0.79900002 3.2308099e-39
0.0041223941 0.012462802 0.79900002 8.3937652e-39
0.0068878378 0.012493998 0.801 1.6873223e-38
0.0096670389 0.012525194 0.80299997 1.7795179e-38
-0.012398113 0.0097175753 0.801 9.4065102e-39
-0.0096429624 0.0097175753 0.801 7.9285299e-39
-0.0068878378 0.0097175753 0.801 9.3114643e-39
-0.0041327132 0.0097175753 0.801 1.0143729e-38
-0.0013775885 0.0097175753 0.801 4.4276001e-39
0.0013775361 0.0097175753 0.801 3.5034339e-39
0.0041327132 0.0097175753 0.801 1.392154e-38
0.0068878378 0.0097175753 0.801 1.8531309e-38
0.0096911173 0.0097661028 0.80500001 1.788594e-38
-0.015153238 0.0069411141 0.801 1.0879112e-38
-0.012398113 0.0069411141 0.801 9.6805692e-39
-0.0096429624 0.0069411141 0.801 8.5746182e-39
-0.0068878378 0.0069411141 0.801 1.0695118e-38
-0.0041327132 0.0069411141 0.801 8.8555211e-39
-0.0013775885 0.0069411141 0.801 5.9974565e-39
0.0013775361 0.0069411141 0.801 6.4547885e-39
0.0041327132 0.0069411141 0.801 1.0234809e-38
0.0068878378 0.0069411141 0.801 1.926634e-38
0.0096911173 0.0069757765 0.80500001 1.8344384e-38
-0.020663513 0.0041646529 0.801 1.7702277e-38
-0.017908363 0.0041646529 0.801 1.3092496e-38
-0.015153238 0.0041646529 0.801 8.393803e-39
-0.012398113 0.0041646529 0.801 8.9469768e-39
-0.0096429624 0.0041646529 0.801 9.8678709e-39
-0.0068878378 0.0041646529 0.801 1.1435197e-38
-0.0041327132 0.0041646529 0.801 1.0052978e-38
-0.0013775885 0.0041646529 0.801 6.365153e-39
0.0013775361 0.0041646529 0.801 7.3774805e-39
0.0041327132 0.0041646529 0.801 7.3774805e-39
0.0068878378 0.0041646529 0.801 1.8530208e-38
0.0096911173 0.0041854503 0.80500001 1.7884838e-38
-0.017908363 0.0013882307 0.801 1.3736436e-38
-0.015153238 0.0013882307 0.801 9.588033e-39
-0.012429069 0.0013916971 0.80299997 1.1247554e-38
-0.0096670389 0.0013916971 0.80299997 1.0788743e-38
-0.0068878378 0.0013882307 0.801 1.2171677e-38
-0.0041223941 0.0013847646 0.79900002 1.0604717e-38
-0.0013741488 0.0013847646 0.79900002 7.7466526e-39
0.0013740966 0.0013847646 0.79900002 7.5611585e-39
0.0041223941 0.0013847646 0.79900002 5.9016371e-39
0.0068878378 0.0013882307 0.801 1.7149078e-38
0.0096670389 0.0013916971 0.80299997 1.7794447e-38
-0.017953077 -0.0013916971 0.80299997 1.0141898e-38
-0.015191073 -0.0013916971 0.80299997 9.6834797e-39
-0.012429069 -0.0013916971 0.80299997 1.1619588e-38
-0.0096429624 -0.0013882307 0.801 1.2357139e-38
-0.0068878378 -0.0013882307 0.801 1.1619574e-38
-0.0041223941 -0.0013847646 0.79900002 9.9586344e-39
-0.0013741488 -0.0013847646 0.79900002 7.3771568e-39
0.0013740966 -0.0013847646 0.79900002 7.5611585e-39
0.0041223941 -0.0013847646 0.79900002 7.2845716e-39
0.0068878378 -0.0013882307 0.801 1.6042017e-38
0.0096670389 -0.0013916971 0.80299997 1.7978125e-38
-0.023535585 -0.0041854503 0.80500001 1.7793368e-38
-0.017953077 -0.0041750516 0.80299997 9.9604057e-39
-0.015191073 -0.0041750516 0.80299997 1.1341556e-38
-0.012429069 -0.0041750516 0.80299997 1.2355708e-38
-0.0096429624 -0.0041646529 0.801 1.2357136e-38
-0.0068706395 -0.0041542542 0.79900002 1.1527375e-38
-0.0041172346 -0.0041490546 0.79799998 9.6802469e-39
-0.0013689892 -0.0041386564 0.796 7.0065736e-39
0.0013689372 -0.0041386564 0.796 6.5477226e-39
0.0041172346 -0.0041490546 0.79799998 7.193092e-39
0.0068706395 -0.0041542542 0.79900002 1.5212264e-38
0.0096188849 -0.0041542542 0.79900002 1.7885937e-38
-0.020766702 -0.0069757765 0.80500001 1.2173478e-38
-0.017953077 -0.0069584455 0.80299997 1.0974935e-38
-0.015153238 -0.0069411141 0.801 1.1525948e-38
-0.012398113 -0.0069411141 0.801 1.3462056e-38
-0.0096429624 -0.0069411141 0.801 1.1711418e-38
-0.0068706395 -0.0069237831 0.79900002 1.0973853e-38
-0.0041172346 -0.0069151176 0.79799998 9.1299528e-39
-0.0013689892 -0.0068977866 0.796 7.2860402e-39
0.0013689372 -0.0068977866 0.796 7.6511807e-39
0.0041069156 -0.0068977866 0.796 6.7292244e-39
0.0068620401 -0.0069151176 0.79799998 1.4845635e-38
0.0096188849 -0.0069237831 0.79900002 1.7703699e-38
-0.020766702 -0.0097660637 0.80500001 1.2357869e-38
-0.017953077 -0.0097417999 0.80299997 1.0513956e-38
-0.015153238 -0.0097175362 0.801 1.0880575e-38
-0.012398113 -0.0097175362 0.801 1.1433749e-38
-0.0096188849 -0.0096932733 0.79900002 1.1618143e-38
-0.0068706395 -0.0096932733 0.79900002 1.1802534e-38
-0.0041172346 -0.009681141 0.79799998 1.0144102e-38
-0.0013689892 -0.0096568782 0.796 8.0236024e-39
0.0013689372 -0.0096568782 0.796 8.0228499e-39
0.0041069156 -0.0096568782 0.796 6.5477198e-39
0.0068620401 -0.009681141 0.79799998 1.5949829e-38
0.0096188849 -0.0096932733 0.79900002 1.7701546e-38
-0.020766702 -0.01255639 0.80500001 1.2080916e-38
-0.017953077 -0.012525194 0.80299997 1.1066764e-38
-0.015153238 -0.012493998 0.801 1.1250072e-38
-0.012398113 -0.012493998 0.801 1.1711051e-38
-0.0096188849 -0.012462802 0.79900002 1.2264592e-38
-0.0068706395 -0.012462802 0.79900002 1.2264592e-38
-0.0041172346 -0.012447204 0.79799998 1.0512877e-38
-0.0013689892 -0.012416008 0.796 7.7470085e-39
0.0013689372 -0.012416008 0.796 6.7339216e-39
0.0041069156 -0.012416008 0.796 5.2587915e-39
0.0068448423 -0.012416008 0.796 1.5303733e-38
0.0096188849 -0.012462802 0.79900002 1.7977407e-38
-0.026304469 -0.015346677 0.80500001 1.696328e-38
-0.023535585 -0.015346677 0.80500001 1.4750585e-38
-0.020715106 -0.015308549 0.80299997 1.0882376e-38
-0.017953077 -0.015308549 0.80299997 1.1158963e-38
-0.015153238 -0.015270419 0.801 1.0974935e-38
-0.012398113 -0.015270419 0.801 1.3095434e-38
-0.0096188849 -0.015232292 0.79900002 1.2355352e-38
-0.0068620401 -0.015213227 0.79799998 1.2539744e-38
-0.0041172346 -0.015213227 0.79799998 9.4072459e-39
-0.0013689892 -0.015175099 0.796 8.8540721e-39
0.0013689372 -0.015175099 0.796 7.0097896e-39
0.0041069156 -0.015175099 0.796 6.3644202e-39
0.0068448423 -0.015175099 0.796 1.2354192e-38
0.0096068457 -0.015213227 0.79799998 1.8070321e-38
-0.026304469 -0.018137002 0.80500001 1.5306295e-38
-0.023535585 -0.018137002 0.80500001 1.2171643e-38
-0.020715106 -0.018091943 0.80299997 1.1249358e-38
-0.017953077 -0.018091943 0.80299997 1.1064967e-38
-0.015153238 -0.018046882 0.801 1.2356068e-38
-0.012367156 -0.018001821 0.79900002 1.254046e-38
-0.0096188849 -0.018001821 0.79900002 1.2264589e-38
-0.0068620401 -0.01797929 0.79799998 1.1711415e-38
-0.0041172346 -0.01797929 0.79799998 9.8678709e-39
-0.0013689892 -0.017934229 0.796 8.9459146e-39
0.0013689372 -0.017934229 0.796 7.5615088e-39
0.0041069156 -0.017934229 0.796 6.5473569e-39
0.0068448423 -0.017934229 0.796 9.4039416e-39
0.0096068457 -0.01797929 0.79799998 1.8162526e-38
-0.023535585 -0.02092729 0.80500001 1.3184e-38
-0.020766702 -0.02092729 0.80500001 1.2173088e-38
-0.017953077 -0.020875297 0.80299997 1.2265284e-38
-0.015153238 -0.020823304 0.801 1.2540828e-38
-0.012367156 -0.02077131 0.79900002 1.2356437e-38
-0.0096188849 -0.02077131 0.79900002 1.2448616e-38
-0.0068620401 -0.020745313 0.79799998 1.1711051e-38
-0.0041069156 -0.020693321 0.796 1.1157165e-38
-0.0013689892 -0.020693321 0.796 8.4834917e-39
0.0013689372 -0.020693321 0.796 7.8384488e-39
0.0041069156 -0.020693321 0.796 5.7179493e-39
0.0068448423 -0.020693321 0.796 6.915754e-39
0.0095827691 -0.020693321 0.796 1.6965078e-38
-0.026304469 -0.023717616 0.80500001 1.4015203e-38
-0.023535585 -0.023717616 0.80500001 1.2355682e-38
-0.020766702 -0.023717616 0.80500001 1.0697252e-38
-0.017953077 -0.023658691 0.80299997 1.3370925e-38
-0.015153238 -0.023599764 0.801 1.3276585e-38
-0.012367156 -0.02354084 0.79900002 1.1524869e-38
-0.0096068457 -0.023511376 0.79799998 1.1341556e-38
-0.0068620401 -0.023511376 0.79799998 1.0972774e-38
-0.0041069156 -0.023452451 0.796 1.0972774e-38
-0.0013689892 -0.023452451 0.796 9.9586218e-39
0.0013654978 -0.023393527 0.79400003 7.9306515e-39
0.0040965974 -0.023393527 0.79400003 7.9306515e-39
0.0068276445 -0.023393527 0.79400003 6.4562276e-39
0.0095586926 -0.023393527 0.79400003 1.6136769e-38
-0.029145608 -0.0265738 0.80699998 1.7148359e-38
-0.026369819 -0.0265738 0.80699998 1.1804676e-38
-0.023535585 -0.026507944 0.80500001 1.1896871e-38
-0.020766702 -0.026507944 0.80500001 1.1710699e-38
-0.017953077 -0.026442086 0.80299997 1.1987286e-38
-0.015153238 -0.026376227 0.801 1.1617766e-38
-0.012367156 -0.026310369 0.79900002 1.0511419e-38
-0.0096068457 -0.02627744 0.79799998 1.0602556e-38
-0.0068620401 -0.02627744 0.79799998 1.1063534e-38
-0.0041069156 -0.026211582 0.796 1.1251158e-38
-0.0013689892 -0.026211582 0.796 9.7760284e-39
0.0013654978 -0.026145725 0.79400003 7.5636668e-39
0.0040965974 -0.026145725 0.79400003 7.4714712e-39
0.0068276445 -0.026145725 0.79400003 7.470367e-39
0.0095586926 -0.026145725 0.79400003 1.5583582e-38
0.01228974 -0.026145725 0.79400003 1.6964699e-38
-0.029145608 -0.029371019 0.80699998 1.5765427e-38
-0.026369819 -0.029371019 0.80699998 1.2170235e-38
-0.023594057 -0.029371019 0.80699998 1.2078039e-38
-0.020715106 -0.029225441 0.80299997 1.1895442e-38
-0.017908363 -0.029152649 0.801 1.0696899e-38
-0.015115402 -0.029079858 0.79900002 1.0050803e-38
-0.012367156 -0.029079858 0.79900002 1.0142999e-38
-0.0096188849 -0.029079858 0.79900002 1.0696913e-38
-0.0068620401 -0.029043462 0.79799998 1.3093999e-38
-0.0041069156 -0.028970672 0.796 1.2447901e-38
-0.0013655497 -0.028897883 0.79400003 1.0050815e-38
0.0013654978 -0.028897883 0.79400003 7.0086952e-39
0.0040965974 -0.028897883 0.79400003 7.3774777e-39
0.0068276445 -0.028897883 0.79400003 6.0888772e-39
0.0095586926 -0.028897883 0.79400003 1.3925506e-38
0.01228974 -0.028897883 0.79400003 1.7241283e-38
-0.029145608 -0.032168277 0.80699998 1.4750925e-38
-0.026369819 -0.032168277 0.80699998 1.1986549e-38
-0.023535585 -0.032088555 0.80500001 1.3092896e-38
-0.020715106 -0.032008834 0.80299997 1.1710699e-38
-0.017908363 -0.031929109 0.801 1.106533e-38
-0.015115402 -0.031849388 0.79900002 9.7738508e-39
-0.012367156 -0.031849388 0.79900002 1.1156785e-38
-0.0096188849 -0.031849388 0.79900002 1.1434853e-38
-0.0068620401 -0.031809524 0.79799998 1.3002179e-38
-0.0041069156 -0.031729802 0.796 1.1158247e-38
-0.0013655497 -0.031650081 0.79400003 8.5767692e-39
0.0013654978 -0.031650081 0.79400003 7.6533485e-39
0.0040965974 -0.031650081 0.79400003 7.9299354e-39
0.0068276445 -0.031650081 0.79400003 7.7451644e-39
0.0095586926 -0.031650081 0.79400003 1.3553489e-38
0.012320695 -0.031729802 0.796 1.7149088e-38
-0.026435172 -0.035052154 0.80900002 1.2172344e-38
-0.023535585 -0.034878843 0.80500001 1.2633322e-38
-0.020715106 -0.034792189 0.80299997 1.0513211e-38
-0.017908363 -0.034705531 0.801 9.6834502e-39
-0.015153238 -0.034705531 0.801 8.5778187e-39
-0.012367156 -0.034618877 0.79900002 1.0790514e-38
-0.0096188849 -0.034618877 0.79900002 1.1987642e-38
-0.0068620401 -0.034575548 0.79799998 1.3278381e-38
-0.0041069156 -0.034488894 0.796 1.1158247e-38
-0.0013655497 -0.03440224 0.79400003 9.6831167e-39
0.0013620582 -0.034315582 0.792 6.7335306e-39
0.0040862779 -0.034315582 0.792 6.9179219e-39
0.0068104463 -0.034315582 0.792 5.355631e-39
0.0095586926 -0.03440224 0.79400003 1.0518586e-38
0.012351652 -0.034575548 0.79799998 1.6872867e-38
-0.026369819 -0.037762757 0.80699998 1.7056179e-38
-0.023594057 -0.037762757 0.80699998 1.576544e-38
-0.020715106 -0.037575584 0.80299997 1.5118989e-38
-0.017908363 -0.037481993 0.801 1.4289228e-38
-0.015153238 -0.037481993 0.801 1.3275783e-38
-0.012398113 -0.037481993 0.801 1.1800652e-38
-0.0096188849 -0.037388407 0.79900002 1.2441363e-38
-0.0068706395 -0.037388407 0.79900002 1.2164776e-38
-0.0041069156 -0.037248023 0.796 1.1798202e-38
-0.0013655497 -0.03715444 0.79400003 1.0323072e-38
0.0013620582 -0.037060849 0.792 1.0415901e-38
0.0040862779 -0.037060849 0.792 1.1706639e-38
0.0068104463 -0.037060849 0.792 1.0236557e-38
0.0095827691 -0.037248023 0.796 1.3371208e-38
0.01236713 -0.037388407 0.79900002 1.7147649e-38
-0.017908363 -0.040258415 0.801 1.7333479e-38
-0.015153238 -0.040258415 0.801 1.7976318e-38
-0.012398113 -0.040258415 0.801 1.8898274e-38
-0.0096429624 -0.040258415 0.801 1.3732795e-38
-0.0068878378 -0.040258415 0.801 8.9386223e-39
-0.0041223941 -0.040157896 0.79900002 1.4932808e-38
-0.0013689892 -0.040007114 0.796 1.6961112e-38
0.0013620582 -0.039806075 0.792 1.7793731e-38
0.0040862779 -0.039806075 0.792 1.7793731e-38
0.0068104463 -0.039806075 0.792 1.7241274e-38
-0.012429069 -0.04314233 0.80299997 1.9355272e-38
-0.0096670389 -0.04314233 0.80299997 1.6310659e-38
-0.0069050356 -0.04314233 0.80299997 9.3959865e-39
-0.0041533508 -0.043249782 0.80500001 4.2366297e-39
-0.0013844678 -0.043249782 0.80500001 4.5132124e-39
0.0013912943 -0.04346469 0.80900002 9.1268797e-39
-0.012460027 -0.046040069 0.80500001 1.7141851e-38
-0.0096911173 -0.046040069 0.80500001 1.4563235e-38
-0.0069222338 -0.046040069 0.80500001 1.4010062e-38
-0.0041533508 -0.046040069 0.80500001 1.4468519e-38
-0.0013879074 -0.046154454 0.80699998 1.4376323e-38
0.0013878547 -0.046154454 0.80699998 1.004666e-38
0.0041739885 -0.046268839 0.80900002 1.1060806e-38
0.0069566299 -0.046268839 0.80900002 1.5763593e-38
-0.015153238 -0.048587758 0.801 2.1567994e-38
-0.012398113 -0.048587758 0.801 1.7880169e-38
-0.0096670389 -0.04870908 0.80299997 1.7050357e-38
-0.0069050356 -0.04870908 0.80299997 1.7050357e-38
-0.0041533508 -0.048830397 0.80500001 1.6681226e-38
-0.0013844678 -0.048830397 0.80500001 1.6957813e-38
0.0013878547 -0.048951712 0.80699998 1.5208245e-38
0.0041636694 -0.048951712 0.80699998 1.4839462e-38
0.0069394317 -0.048951712 0.80699998 1.5485927e-38
0.0096911173 -0.048830397 0.80500001 1.9819122e-38
0.01246 -0.048830397 0.80500001 1.8532012e-38
-0.015153238 -0.051364221 0.801 1.880536e-38
-0.012398113 -0.051364221 0.801 1.5394121e-38
-0.0096670389 -0.051492475 0.80299997 1.4564321e-38
-0.0069050356 -0.051492475 0.80299997 1.5209691e-38
-0.0041533508 -0.051620722 0.80500001 1.5394095e-38
-0.0013844678 -0.051620722 0.80500001 1.6223855e-38
0.0013878547 -0.051748972 0.80699998 1.4380659e-38
0.0041636694 -0.051748972 0.80699998 1.2905529e-38
0.0069394317 -0.051748972 0.80699998 1.5395176e-38
0.0096911173 -0.051620722 0.80500001 1.7976654e-38
0.01246 -0.051620722 0.80500001 1.7517495e-38
-0.015266744 -0.054546189 0.80699998 2.1110982e-38
-0.012490982 -0.054546189 0.80699998 2.0742199e-38
-0.0096911173 -0.054411009 0.80500001 1.9913515e-38
-0.0069222338 -0.054411009 0.80500001 1.9913515e-38
-0.0041533508 -0.054411009 0.80500001 2.0005713e-38
-0.0013844678 -0.054411009 0.80500001 1.9821322e-38
0.0013878547 -0.054546189 0.80699998 1.9545095e-38
0.0041636694 -0.054546189 0.80699998 1.9268508e-38
0.0069394317 -0.054546189 0.80699998 2.0191196e-38
0.0097151939 -0.054546189 0.80699998 2.074437e-38
