# .PCD v0.7 - Point Cloud Data file format
VERSION 0.7
FIELDS x y z rgb
SIZE 4 4 4 4
TYPE F F F F
COUNT 1 1 1 1
WIDTH 993
HEIGHT 1
VIEWPOINT 0 0 0 1 0 0 0
POINTS 993
DATA ascii
0.0067330436 0.024878819 0.435 1.473799e-38
0.0082292724 0.024878819 0.435 1.4830185e-38
0.0097255008 0.024878819 0.435 1.4738713e-38
0.011247527 0.024936009 0.43599999 1.50153e-38
0.012747223 0.024936009 0.43599999 1.4831625e-38
0.014246891 0.024936009 0.43599999 1.4555038e-38
0.01574656 0.024936009 0.43599999 1.4185892e-38
0.017246228 0.024936009 0.43599999 1.4185892e-38
0.018745895 0.024936009 0.43599999 1.4185532e-38
0.020245565 0.024936009 0.43599999 1.4185532e-38
0.021795137 0.024993204 0.43700001 1.3910024e-38
0.023298245 0.024993204 0.43700001 1.3910024e-38
0.024801353 0.024993204 0.43700001 1.3725643e-38
0.026364652 0.025050396 0.43799999 1.4555403e-38
0.027871199 0.025050396 0.43799999 1.4280975e-38
0.029310677 0.024993204 0.43700001 1.4188779e-38
0.030813785 0.024993204 0.43700001 1.4004019e-38
0.032316923 0.024993204 0.43700001 1.3266454e-38
0.034361769 0.025393553 0.44400001 1.2249762e-38
0.035888955 0.025393553 0.44400001 1.1512197e-38
0.037416138 0.025393553 0.44400001 9.2051184e-39
0.038943324 0.025393553 0.44400001 6.9002277e-39
0.040561657 0.025450744 0.44499999 1.0959774e-38
0.042092282 0.025450744 0.44499999 1.3541252e-38
0.043720964 0.025507938 0.44600001 1.0867903e-38
0.045255031 0.025507938 0.44600001 1.0960099e-38
0.047208726 0.025736708 0.44999999 1.3080938e-38
0.048864897 0.025793901 0.45100001 1.2988742e-38
0.05041616 0.025793901 0.45100001 1.4282031e-38
0.051967423 0.025793901 0.45100001 1.3821053e-38
0.053518716 0.025793901 0.45100001 1.566281e-38
0.055069979 0.025793901 0.45100001 1.7230136e-38
0.056621239 0.025793901 0.45100001 1.3542331e-38
0.058301486 0.025851091 0.45199999 1.3450135e-38
0.060121037 0.025965478 0.454 1.4554675e-38
0.061818488 0.026022671 0.45500001 1.7228348e-38
0.063244201 0.025965478 0.454 1.8430131e-38
0.064805813 0.025965478 0.454 1.9259892e-38
0.066367395 0.025965478 0.454 1.9353892e-38
0.067928977 0.025965478 0.454 2.0183653e-38
0.069490552 0.025965478 0.454 1.9629387e-38
0.071052134 0.025965478 0.454 1.6218149e-38
0.072613716 0.025965478 0.454 1.3829332e-38
0.074338712 0.026022671 0.45500001 1.4198114e-38
-0.015565994 0.023156095 0.43099999 1.8616263e-38
-0.014083509 0.023156095 0.43099999 1.4375254e-38
-0.012601039 0.023156095 0.43099999 1.6219167e-38
-0.011118569 0.023156095 0.43099999 1.511071e-38
-0.0096360845 0.023156095 0.43099999 1.5295101e-38
-0.0081536146 0.023156095 0.43099999 1.4464264e-38
-0.0066711442 0.023156095 0.43099999 1.5294025e-38
-0.0051886598 0.023156095 0.43099999 1.4096218e-38
-0.0037147889 0.023209823 0.43200001 1.3911826e-38
-0.0022340384 0.023263548 0.433 1.4095857e-38
-0.00074468891 0.023263548 0.433 1.4280249e-38
0.0007463803 0.023317274 0.43399999 1.4739066e-38
0.0022391977 0.023317274 0.43399999 1.464687e-38
0.0037319867 0.023317274 0.43399999 1.4462479e-38
0.0052247755 0.023317274 0.43399999 1.4370284e-38
0.0067330436 0.023371002 0.435 1.4461763e-38
0.0082292724 0.023371002 0.435 1.473835e-38
0.0097255008 0.023371002 0.435 1.4830909e-38
0.011247527 0.023424728 0.43599999 1.4923104e-38
0.012747223 0.023424728 0.43599999 1.4647589e-38
0.014246891 0.023424728 0.43599999 1.4278807e-38
0.01574656 0.023424728 0.43599999 1.4093697e-38
0.017246228 0.023424728 0.43599999 1.4093697e-38
0.018745895 0.023424728 0.43599999 1.3910024e-38
0.020245565 0.023424728 0.43599999 1.3725633e-38
0.021795137 0.023478454 0.43700001 1.3725633e-38
0.023298245 0.023478454 0.43700001 1.3817829e-38
0.024801353 0.023478454 0.43700001 1.3542331e-38
0.026364652 0.02353218 0.43799999 1.41877e-38
0.027934834 0.023585908 0.43900001 1.4280612e-38
0.029310677 0.023478454 0.43700001 1.3819633e-38
0.030743271 0.023424728 0.43599999 1.3727798e-38
0.032242969 0.023424728 0.43599999 1.3819994e-38
0.033820029 0.023478454 0.43700001 1.3729583e-38
0.035323136 0.023478454 0.43700001 1.2992018e-38
0.036826245 0.023478454 0.43700001 1.2437037e-38
0.03841706 0.02353218 0.43799999 1.2437037e-38
0.040014759 0.023585908 0.43900001 1.409623e-38
0.041619334 0.023639634 0.44 1.4372817e-38
0.043328848 0.023747087 0.442 1.1236689e-38
0.044950623 0.023800813 0.44299999 1.0591319e-38
0.047313634 0.024230624 0.45100001 1.1972446e-38
0.048864897 0.024230624 0.45100001 1.335538e-38
0.05041616 0.024230624 0.45100001 1.3449033e-38
0.051967423 0.024230624 0.45100001 1.2711468e-38
0.053518716 0.024230624 0.45100001 1.3910737e-38
0.055069979 0.024230624 0.45100001 1.6953193e-38
0.056621239 0.024230624 0.45100001 1.5662104e-38
0.058301486 0.02428435 0.45199999 1.4094778e-38
0.059856188 0.02428435 0.45199999 1.4554309e-38
0.061682619 0.024391802 0.454 1.6582613e-38
0.063244201 0.024391802 0.454 1.7230506e-38
0.064663075 0.024338078 0.45300001 1.7968071e-38
0.066221215 0.024338078 0.45300001 1.8062072e-38
0.067779355 0.024338078 0.45300001 1.8984028e-38
0.069337495 0.024338078 0.45300001 1.9905624e-38
0.071052134 0.024391802 0.454 2.0274407e-38
0.072613716 0.024391802 0.454 1.7602528e-38
0.074175328 0.024391802 0.454 1.5021051e-38
-0.018530935 0.021662164 0.43099999 1.705327e-38
-0.017048465 0.021662164 0.43099999 1.6312078e-38
-0.015565994 0.021662164 0.43099999 1.4560361e-38
-0.014083509 0.021662164 0.43099999 1.2165799e-38
-0.012601039 0.021662164 0.43099999 1.2718972e-38
-0.011118569 0.021662164 0.43099999 1.492382e-38
-0.0096137272 0.021611905 0.43000001 1.4370646e-38
-0.0081346966 0.021611905 0.43000001 1.4462479e-38
-0.0066711442 0.021662164 0.43099999 1.4554675e-38
-0.0051886598 0.021662164 0.43099999 1.3911816e-38
-0.0037147889 0.021712426 0.43200001 1.3911816e-38
-0.0022288791 0.021712426 0.43200001 1.4003656e-38
-0.00074468891 0.021762686 0.433 1.4095852e-38
0.0007463803 0.021812946 0.43399999 1.4371363e-38
0.0022391977 0.021812946 0.43399999 1.4279167e-38
0.0037405859 0.021863207 0.435 1.4370284e-38
0.0052368147 0.021863207 0.435 1.4370284e-38
0.0067330436 0.021863207 0.435 1.4463198e-38
0.0082481895 0.021913467 0.43599999 1.4463198e-38
0.0097478582 0.021913467 0.43599999 1.492382e-38
0.011247527 0.021913467 0.43599999 1.492382e-38
0.012747223 0.021913467 0.43599999 1.4370646e-38
0.014246891 0.021913467 0.43599999 1.3909668e-38
0.01574656 0.021913467 0.43599999 1.4186245e-38
0.017246228 0.021913467 0.43599999 1.409405e-38
0.018745895 0.021913467 0.43599999 1.3818542e-38
0.020292001 0.021963727 0.43700001 1.3726346e-38
0.021795137 0.021963727 0.43700001 1.3541605e-38
0.023298245 0.021963727 0.43700001 1.3818192e-38
0.024801353 0.021963727 0.43700001 1.3911113e-38
0.026424848 0.022064248 0.43900001 1.41877e-38
0.027934834 0.022064248 0.43900001 1.418806e-38
0.029310677 0.021963727 0.43700001 1.4003669e-38
0.030743271 0.021913467 0.43599999 1.3819633e-38
0.032242969 0.021913467 0.43599999 1.3819633e-38
0.033820029 0.021963727 0.43700001 1.3727069e-38
0.035323136 0.021963727 0.43700001 1.3727069e-38
0.036826245 0.021963727 0.43700001 1.3727798e-38
0.03841706 0.022013986 0.43799999 1.3727798e-38
0.040014759 0.022064248 0.43900001 1.345229e-38
0.041619334 0.022114508 0.44 1.345229e-38
0.043230824 0.022164769 0.44100001 1.0867909e-38
0.044849154 0.022215029 0.442 1.0960105e-38
0.047418542 0.022717629 0.45199999 1.1695166e-38
0.048973247 0.022717629 0.45199999 1.3539078e-38
0.05041616 0.022667371 0.45100001 1.261892e-38
0.051967423 0.022667371 0.45100001 1.2526724e-38
0.053518716 0.022667371 0.45100001 1.3262854e-38
0.055069979 0.022667371 0.45100001 1.5567745e-38
0.056746785 0.022717629 0.45199999 1.6400745e-38
0.058301486 0.022717629 0.45199999 1.5110007e-38
0.059856188 0.022717629 0.45199999 1.6215275e-38
0.061410893 0.022717629 0.45199999 1.6860645e-38
0.062965594 0.022717629 0.45199999 1.7046831e-38
0.064520322 0.022717629 0.45199999 1.7139026e-38
0.066075027 0.022717629 0.45199999 1.7599301e-38
0.067629732 0.022717629 0.45199999 1.8336866e-38
0.06918443 0.022717629 0.45199999 1.8707434e-38
0.070895642 0.02276789 0.45300001 1.8984021e-38
0.072453782 0.02276789 0.45300001 1.9997454e-38
0.074011952 0.02276789 0.45300001 1.5295477e-38
0.07573691 0.02281815 0.454 1.4106988e-38
-0.020013418 0.020168213 0.43099999 1.4928788e-38
-0.018530935 0.020168213 0.43099999 1.3177071e-38
-0.017008908 0.02012142 0.43000001 1.2256184e-38
-0.015529878 0.02012142 0.43000001 1.1149836e-38
-0.014050834 0.02012142 0.43000001 1.1517565e-38
-0.012601039 0.020168213 0.43099999 1.2162934e-38
-0.011118569 0.020168213 0.43099999 1.510858e-38
-0.0096137272 0.02012142 0.43000001 1.4186624e-38
-0.0081346966 0.02012142 0.43000001 1.4187327e-38
-0.0066711442 0.020168213 0.43099999 1.391074e-38
-0.0051886598 0.020168213 0.43099999 1.363523e-38
-0.0037061898 0.020168213 0.43099999 1.3727425e-38
-0.0022288791 0.020215008 0.43200001 1.3911461e-38
-0.0007429691 0.020215008 0.43200001 1.4095852e-38
0.0007463803 0.020308595 0.43399999 1.4004012e-38
0.0022391977 0.020308595 0.43399999 1.3911816e-38
0.0037319867 0.020308595 0.43399999 1.4370284e-38
0.0052368147 0.02035539 0.435 1.4278088e-38
0.0067485217 0.020402184 0.43599999 1.4739069e-38
0.0082481895 0.020402184 0.43599999 1.492346e-38
0.0097478582 0.020402184 0.43599999 1.4740148e-38
0.011247527 0.020402184 0.43599999 1.4555757e-38
0.012747223 0.020402184 0.43599999 1.4185532e-38
0.014246891 0.020402184 0.43599999 1.4277728e-38
0.01574656 0.020402184 0.43599999 1.40944e-38
0.017246228 0.020402184 0.43599999 1.4002204e-38
0.018788893 0.020448979 0.43700001 1.381711e-38
0.020292001 0.020448979 0.43700001 1.3909305e-38
0.021845009 0.020495772 0.43799999 1.3909674e-38
0.023404872 0.020542568 0.43900001 1.400187e-38
0.024914859 0.020542568 0.43900001 1.3817838e-38
0.026424848 0.020542568 0.43900001 1.4555403e-38
0.027934834 0.020542568 0.43900001 1.4372088e-38
0.029310677 0.020448979 0.43700001 1.4095502e-38
0.030743271 0.020402184 0.43599999 1.3819628e-38
0.032242969 0.020402184 0.43599999 1.3727432e-38
0.033820029 0.020448979 0.43700001 1.3358653e-38
0.035323136 0.020448979 0.43700001 1.3358653e-38
0.036826245 0.020448979 0.43700001 1.3084217e-38
0.03841706 0.020495772 0.43799999 1.2899825e-38
0.040014759 0.020542568 0.43900001 1.3083501e-38
0.041619334 0.020589361 0.44 1.3360087e-38
0.043230824 0.020636156 0.44100001 1.0959401e-38
0.044849154 0.02068295 0.442 1.1051597e-38
0.046369459 0.02068295 0.442 1.2525292e-38
0.048973247 0.021150887 0.45199999 1.3355053e-38
0.050527949 0.021150887 0.45199999 1.2157591e-38
0.05208265 0.021150887 0.45199999 1.2434178e-38
0.053637382 0.021150887 0.45199999 1.3540163e-38
0.055192083 0.021150887 0.45199999 1.4462119e-38
0.056746785 0.021150887 0.45199999 1.6584063e-38
0.058172502 0.021104094 0.45100001 1.6491868e-38
0.059723765 0.021104094 0.45100001 1.6768449e-38
0.061275028 0.021104094 0.45100001 1.6123079e-38
0.062826291 0.021104094 0.45100001 1.5015993e-38
0.064520322 0.021150887 0.45199999 1.4555015e-38
0.066075027 0.021150887 0.45199999 1.4555041e-38
0.067629732 0.021150887 0.45199999 1.520041e-38
0.06918443 0.021150887 0.45199999 1.5662101e-38
0.070739135 0.021150887 0.45199999 1.695284e-38
0.072293833 0.021150887 0.45199999 1.7600718e-38
0.074011952 0.021197682 0.45300001 1.6863153e-38
0.07573691 0.021244476 0.454 1.5118266e-38
0.079902276 0.02152524 0.46000001 1.4198468e-38
0.081484497 0.02152524 0.46000001 1.4014076e-38
-0.019966984 0.018630957 0.43000001 1.0874681e-38
-0.01848794 0.018630957 0.43000001 1.1059073e-38
-0.017008908 0.018630957 0.43000001 1.1334593e-38
-0.015529878 0.018630957 0.43000001 1.1426789e-38
-0.014050834 0.018630957 0.43000001 1.1334623e-38
-0.012571802 0.018630957 0.43000001 1.0873644e-38
-0.011092772 0.018630957 0.43000001 1.455648e-38
-0.0096137272 0.018630957 0.43000001 1.4003306e-38
-0.0081346966 0.018630957 0.43000001 1.4187327e-38
-0.0066711442 0.018674284 0.43099999 1.4002936e-38
-0.0051886598 0.018674284 0.43099999 1.3727069e-38
-0.0037061898 0.018674284 0.43099999 1.3727069e-38
-0.0022288791 0.018717613 0.43200001 1.4095129e-38
-0.0007429691 0.018717613 0.43200001 1.4187324e-38
0.0007463803 0.018804267 0.43399999 1.4186964e-38
0.0022391977 0.018804267 0.43399999 1.3910377e-38
0.0037319867 0.018804267 0.43399999 1.4277009e-38
0.0052368147 0.018847596 0.435 1.4830183e-38
0.0067485217 0.018890923 0.43599999 1.4922741e-38
0.0082481895 0.018890923 0.43599999 1.5014937e-38
0.0097702164 0.018934252 0.43700001 1.4739066e-38
0.011273324 0.018934252 0.43700001 1.4554675e-38
0.01277646 0.018934252 0.43700001 1.4462467e-38
0.014312244 0.018977579 0.43799999 1.418588e-38
0.015854908 0.019020908 0.43900001 1.3724541e-38
0.01740445 0.019064235 0.44 1.3355759e-38
0.018917877 0.019064235 0.44 1.3356134e-38
0.020431304 0.019064235 0.44 1.4093699e-38
0.021944759 0.019064235 0.44 1.3818917e-38
0.023458187 0.019064235 0.44 1.3818917e-38
0.024971614 0.019064235 0.44 1.3819996e-38
0.026424848 0.019020908 0.43900001 1.4096583e-38
0.027871199 0.018977579 0.43799999 1.409622e-38
0.029310677 0.018934252 0.43700001 1.3911829e-38
0.030813785 0.018934252 0.43700001 1.3635955e-38
0.032316923 0.018934252 0.43700001 1.354376e-38
0.033820029 0.018934252 0.43700001 1.3175343e-38
0.035323136 0.018934252 0.43700001 1.3083147e-38
0.036826245 0.018934252 0.43700001 1.2991302e-38
0.03841706 0.018977579 0.43799999 1.2806911e-38
0.040014759 0.019020908 0.43900001 1.2806558e-38
0.041619334 0.019064235 0.44 1.3267536e-38
0.043230824 0.019107563 0.44100001 1.1327828e-38
0.044849154 0.01915089 0.442 1.1788806e-38
0.046369459 0.01915089 0.442 1.2986983e-38
0.048973247 0.019584168 0.45199999 1.326357e-38
0.050527949 0.019584168 0.45199999 1.234091e-38
0.05208265 0.019584168 0.45199999 1.2525302e-38
0.053637382 0.019584168 0.45199999 1.3261428e-38
0.055192083 0.019584168 0.45199999 1.4459971e-38
0.056746785 0.019584168 0.45199999 1.5571348e-38
0.058172502 0.019540841 0.45100001 1.5571348e-38
0.059723765 0.019540841 0.45100001 1.4923801e-38
0.061275028 0.019540841 0.45100001 1.409404e-38
0.062826291 0.019540841 0.45100001 1.2894788e-38
0.064377584 0.019540841 0.45100001 1.3079179e-38
0.065928847 0.019540841 0.45100001 1.3448693e-38
0.067629732 0.019584168 0.45199999 1.3633084e-38
0.06918443 0.019584168 0.45199999 1.3727069e-38
0.070739135 0.019584168 0.45199999 1.455683e-38
0.072293833 0.019584168 0.45199999 1.4007227e-38
0.073848568 0.019584168 0.45199999 1.5574552e-38
0.075570092 0.019627497 0.45300001 1.7698296e-38
0.078149803 0.019887462 0.45899999 1.5854383e-38
0.079728581 0.019887462 0.45899999 1.6132415e-38
0.081484497 0.019930791 0.46000001 1.4657285e-38
0.083247297 0.019974118 0.461 1.3830754e-38
-0.019966984 0.017140472 0.43000001 1.0505539e-38
-0.01848794 0.017140472 0.43000001 1.0597734e-38
-0.017008908 0.017140472 0.43000001 1.1149839e-38
-0.015529878 0.017140472 0.43000001 1.0873252e-38
-0.014050834 0.017140472 0.43000001 1.0505211e-38
-0.012571802 0.017140472 0.43000001 1.1242776e-38
-0.011092772 0.017140472 0.43000001 1.4372804e-38
-0.0096137272 0.017140472 0.43000001 1.4096218e-38
-0.0081346966 0.017140472 0.43000001 1.4094776e-38
-0.0066711442 0.017180333 0.43099999 1.4186971e-38
-0.005200699 0.017220195 0.43200001 1.3911463e-38
-0.0037147889 0.017220195 0.43200001 1.3911463e-38
-0.0022340384 0.017260056 0.433 1.4095132e-38
-0.00074468891 0.017260056 0.433 1.4095132e-38
0.0007463803 0.017299917 0.43399999 1.4002933e-38
0.0022391977 0.017299917 0.43399999 1.3818542e-38
0.0037405859 0.017339779 0.435 1.3907876e-38
0.0052368147 0.017339779 0.435 1.4922028e-38
0.0067485217 0.01737964 0.43599999 1.501494e-38
0.0082671084 0.017419502 0.43700001 1.4922744e-38
0.0097925728 0.017459365 0.43799999 1.4830899e-38
0.01129912 0.017459365 0.43799999 1.4093334e-38
0.012834934 0.017499227 0.43900001 1.3816018e-38
0.014344921 0.017499227 0.43900001 1.335504e-38
0.015927142 0.01757895 0.44100001 1.3078478e-38
0.01740445 0.017539088 0.44 1.3447261e-38
0.018917877 0.017539088 0.44 1.409405e-38
0.020431304 0.017539088 0.44 1.4001854e-38
0.021944759 0.017539088 0.44 1.3819633e-38
0.023458187 0.017539088 0.44 1.3911829e-38
0.024971614 0.017539088 0.44 1.3819996e-38
0.026424848 0.017499227 0.43900001 1.3912192e-38
0.027871199 0.017459365 0.43799999 1.3819994e-38
0.029310677 0.017419502 0.43700001 1.3727798e-38
0.030813785 0.017419502 0.43700001 1.3452643e-38
0.032316923 0.017419502 0.43700001 1.3268252e-38
0.033820029 0.017419502 0.43700001 1.3176056e-38
0.035323136 0.017419502 0.43700001 1.2991665e-38
0.036826245 0.017419502 0.43700001 1.280799e-38
0.03841706 0.017459365 0.43799999 1.2531403e-38
0.040014759 0.017499227 0.43900001 1.2716513e-38
0.041619334 0.017539088 0.44 1.3454078e-38
0.043132793 0.017539088 0.44 1.1604771e-38
0.044747688 0.01757895 0.44100001 1.1696966e-38
0.046369459 0.017618811 0.442 1.3263563e-38
0.048973247 0.018017424 0.45199999 1.3632346e-38
0.050527949 0.018017424 0.45199999 1.2248715e-38
0.05208265 0.018017424 0.45199999 1.2064324e-38
0.053637382 0.018017424 0.45199999 1.3353255e-38
0.055192083 0.018017424 0.45199999 1.3814233e-38
0.056746785 0.018017424 0.45199999 1.3818182e-38
0.058172502 0.017977564 0.45100001 1.3172812e-38
0.059723765 0.017977564 0.45100001 1.3172812e-38
0.061275028 0.017977564 0.45100001 1.215866e-38
0.062826291 0.017977564 0.45100001 1.2617497e-38
0.064377584 0.017977564 0.45100001 1.3262867e-38
0.065928847 0.017977564 0.45100001 1.3448327e-38
0.067629732 0.018017424 0.45199999 1.3632718e-38
0.069031365 0.017977564 0.45100001 1.3540879e-38
0.070582628 0.017977564 0.45100001 1.3356488e-38
0.072293833 0.018017424 0.45199999 1.1237693e-38
0.073848568 0.018017424 0.45199999 1.1422085e-38
0.075570092 0.018057287 0.45300001 1.1522248e-38
0.077979535 0.018256595 0.458 1.6408616e-38
0.079728581 0.018296456 0.45899999 1.8159277e-38
0.081484497 0.018336318 0.46000001 1.788269e-38
0.083247297 0.018376179 0.461 1.6591941e-38
0.085016981 0.018416042 0.46200001 1.4840224e-38
-0.019966984 0.015649987 0.43000001 1.5118969e-38
-0.01848794 0.015649987 0.43000001 1.2168709e-38
-0.017008908 0.015649987 0.43000001 1.1521149e-38
-0.015529878 0.015649987 0.43000001 1.1705541e-38
-0.014050834 0.015649987 0.43000001 1.3362205e-38
-0.012571802 0.015649987 0.43000001 1.3638792e-38
-0.011092772 0.015649987 0.43000001 1.5016009e-38
-0.0096137272 0.015649987 0.43000001 1.4186248e-38
-0.0081536146 0.015686382 0.43099999 1.4462467e-38
-0.0066866227 0.015722778 0.43200001 1.4462467e-38
-0.005200699 0.015722778 0.43200001 1.4093684e-38
-0.0037233881 0.015759172 0.433 1.4093684e-38
-0.0022391977 0.015795568 0.43399999 1.427916e-38
-0.00074640871 0.015795568 0.43399999 1.4002573e-38
0.0007463803 0.015795568 0.43399999 1.4000785e-38
0.0022443573 0.015831964 0.435 1.3908589e-38
0.0037405859 0.015831964 0.435 1.3723116e-38
0.0052488535 0.015868358 0.43599999 1.5013855e-38
0.0067640003 0.015904754 0.43700001 1.5200047e-38
0.0082860254 0.015941149 0.43799999 1.4646873e-38
0.0098149311 0.015977545 0.43900001 1.3815312e-38
0.011324918 0.015977545 0.43900001 1.3354334e-38
0.012864171 0.016013939 0.44 1.3536923e-38
0.014410274 0.016050335 0.44100001 1.3444727e-38
0.015927142 0.016050335 0.44100001 1.3724567e-38
0.01740445 0.016013939 0.44 1.5015305e-38
0.018917877 0.016013939 0.44 1.4280962e-38
0.020431304 0.016013939 0.44 1.4280962e-38
0.021944759 0.016013939 0.44 1.3727798e-38
0.023458187 0.016013939 0.44 1.3819994e-38
0.024914859 0.015977545 0.43900001 1.3912195e-38
0.026424848 0.015977545 0.43900001 1.3819999e-38
0.027871199 0.015941149 0.43799999 1.3727798e-38
0.029310677 0.015904754 0.43700001 1.3727798e-38
0.030813785 0.015904754 0.43700001 1.3635593e-38
0.032316923 0.015904754 0.43700001 1.3451201e-38
0.033820029 0.015904754 0.43700001 1.3176412e-38
0.035323136 0.015904754 0.43700001 1.2992021e-38
0.036826245 0.015904754 0.43700001 1.2899107e-38
0.03841706 0.015941149 0.43799999 1.262252e-38
0.040014759 0.015977545 0.43900001 1.2899107e-38
0.041619334 0.016013939 0.44 1.3636672e-38
0.043132793 0.016013939 0.44 1.1237787e-38
0.044747688 0.016050335 0.44100001 1.1329983e-38
0.046264555 0.016050335 0.44100001 1.3080248e-38
0.048864897 0.016414288 0.45100001 1.3356835e-38
0.050527949 0.016450683 0.45199999 1.2523857e-38
0.05208265 0.016450683 0.45199999 1.1601901e-38
0.053637382 0.016450683 0.45199999 1.3446166e-38
0.055314191 0.016487079 0.45300001 1.3353971e-38
0.056746785 0.016450683 0.45199999 1.2986636e-38
0.058172502 0.016414288 0.45100001 1.2710049e-38
0.059723765 0.016414288 0.45100001 1.2525655e-38
0.061275028 0.016414288 0.45100001 1.2341264e-38
0.062826291 0.016414288 0.45100001 1.3172109e-38
0.064520322 0.016450683 0.45199999 1.33565e-38
0.066075027 0.016450683 0.45199999 1.3540163e-38
0.067629732 0.016450683 0.45199999 1.3263576e-38
0.069031365 0.016414288 0.45100001 1.3264292e-38
0.070582628 0.016414288 0.45100001 1.2342336e-38
0.072293833 0.016450683 0.45199999 9.5828356e-39
0.073848568 0.016450683 0.45199999 1.0412596e-38
0.07573691 0.016523473 0.454 1.0044949e-38
0.077979535 0.016669055 0.458 1.1427883e-38
0.079902276 0.016741846 0.46000001 1.2903385e-38
0.081484497 0.016741846 0.46000001 1.2442407e-38
0.083247297 0.016778242 0.461 1.382607e-38
0.085016981 0.016814638 0.46200001 1.5024613e-38
0.086606108 0.016814638 0.46200001 1.4289591e-38
-0.011144367 0.014225381 0.43200001 1.5202903e-38
-0.0096584428 0.014225381 0.43200001 1.4926316e-38
-0.0081725325 0.014225381 0.43200001 1.520182e-38
-0.0067021013 0.01425831 0.433 1.5017428e-38
-0.0052127377 0.01425831 0.433 1.4556813e-38
-0.0037319867 0.014291239 0.43399999 1.4280226e-38
-0.0022391977 0.014291239 0.43399999 1.4371716e-38
-0.00074640871 0.014291239 0.43399999 1.427952e-38
0.00074810011 0.014324169 0.435 1.4186599e-38
0.0022443573 0.014324169 0.435 1.4002207e-38
0.003749185 0.014357097 0.43599999 1.418445e-38
0.0052608922 0.014390027 0.43700001 1.5567385e-38
0.0067794779 0.014422956 0.43799999 1.5292227e-38
0.0083049433 0.014455886 0.43900001 1.5384423e-38
0.0098372884 0.014488814 0.44 1.4643643e-38
0.011350715 0.014488814 0.44 1.3629491e-38
0.012893408 0.014521744 0.44100001 1.2801503e-38
0.014410274 0.014521744 0.44100001 1.455322e-38
0.015891025 0.014488814 0.44 1.4372088e-38
0.01740445 0.014488814 0.44 1.4372088e-38
0.018917877 0.014488814 0.44 1.4463561e-38
0.020431304 0.014488814 0.44 1.4463561e-38
0.021944759 0.014488814 0.44 1.4004385e-38
0.023404872 0.014455886 0.43900001 1.3912189e-38
0.024914859 0.014455886 0.43900001 1.3912195e-38
0.026424848 0.014455886 0.43900001 1.3727804e-38
0.027871199 0.014422956 0.43799999 1.3544489e-38
0.029310677 0.014390027 0.43700001 1.3544489e-38
0.030813785 0.014390027 0.43700001 1.3452643e-38
0.032316923 0.014390027 0.43700001 1.3360448e-38
0.033820029 0.014390027 0.43700001 1.2992384e-38
0.035323136 0.014390027 0.43700001 1.2807993e-38
0.036826245 0.014390027 0.43700001 1.280763e-38
0.03841706 0.014422956 0.43799999 1.280763e-38
0.040014759 0.014455886 0.43900001 1.2900186e-38
0.041619334 0.014488814 0.44 1.3453359e-38
0.043132793 0.014488814 0.44 1.1604052e-38
0.044747688 0.014521744 0.44100001 1.1788443e-38
0.046264555 0.014521744 0.44100001 1.3079185e-38
0.048864897 0.014851034 0.45100001 1.3355771e-38
0.050527949 0.014883962 0.45199999 1.2063235e-38
0.05208265 0.014883962 0.45199999 1.1878844e-38
0.053756051 0.014916892 0.45300001 1.316993e-38
0.055436295 0.014949821 0.454 1.2985539e-38
0.056997877 0.014949821 0.454 1.2526371e-38
0.058301486 0.014883962 0.45199999 1.2434175e-38
0.059856188 0.014883962 0.45199999 1.2065396e-38
0.061410893 0.014883962 0.45199999 1.2895156e-38
0.062965594 0.014883962 0.45199999 1.2987349e-38
0.064520322 0.014883962 0.45199999 1.2987349e-38
0.066075027 0.014883962 0.45199999 1.2802592e-38
0.067629732 0.014883962 0.45199999 1.2802592e-38
0.06918443 0.014883962 0.45199999 1.234198e-38
0.070739135 0.014883962 0.45199999 1.0405871e-38
0.072293833 0.014883962 0.45199999 9.123333e-39
0.073848568 0.014883962 0.45199999 9.7687024e-39
0.076404199 0.015081538 0.458 9.5836147e-39
0.078149803 0.015114467 0.45899999 9.6758104e-39
0.079902276 0.015147396 0.46000001 1.0782852e-38
0.081484497 0.015147396 0.46000001 1.0229678e-38
0.083247297 0.015180325 0.461 1.0046032e-38
0.084832951 0.015180325 0.461 1.0783597e-38
0.086606108 0.015213255 0.46200001 1.3733889e-38
-0.0081914505 0.012757448 0.433 1.5853307e-38
-0.0067021013 0.012757448 0.433 1.5945503e-38
-0.0052127377 0.012757448 0.433 1.5852591e-38
-0.0037319867 0.01278691 0.43399999 1.5576004e-38
-0.0022443573 0.012816374 0.435 1.5574925e-38
-0.00074812857 0.012816374 0.435 1.548273e-38
0.00074810011 0.012816374 0.435 1.5296533e-38
0.0022443573 0.012816374 0.435 1.5480925e-38
0.003749185 0.012845837 0.43599999 1.5298341e-38
0.0052608922 0.0128753 0.43700001 1.5851515e-38
0.0067949565 0.012934226 0.43900001 1.5667121e-38
0.0083049433 0.012934226 0.43900001 1.6035903e-38
0.0098372884 0.012963688 0.44 1.5571007e-38
0.011350715 0.012963688 0.44 1.3173921e-38
0.012893408 0.012993152 0.44100001 1.4186245e-38
0.014377597 0.012963688 0.44 1.492381e-38
0.015891025 0.012963688 0.44 1.4280612e-38
0.017364895 0.012934226 0.43900001 1.4280612e-38
0.018874882 0.012934226 0.43900001 1.4280612e-38
0.02038487 0.012934226 0.43900001 1.4188416e-38
0.021894885 0.012934226 0.43900001 1.4004385e-38
0.023404872 0.012934226 0.43900001 1.3912189e-38
0.024914859 0.012934226 0.43900001 1.3728877e-38
0.026424848 0.012934226 0.43900001 1.3636681e-38
0.027871199 0.012904762 0.43799999 1.3361176e-38
0.029310677 0.0128753 0.43700001 1.3176785e-38
0.030813785 0.0128753 0.43700001 1.3268971e-38
0.032316923 0.0128753 0.43700001 1.2992384e-38
0.033820029 0.0128753 0.43700001 1.3084217e-38
0.035323136 0.0128753 0.43700001 1.2899825e-38
0.036910512 0.012904762 0.43799999 1.2715078e-38
0.038504772 0.012934226 0.43900001 1.2715078e-38
0.040014759 0.012934226 0.43900001 1.2807277e-38
0.041619334 0.012963688 0.44 1.400582e-38
0.043132793 0.012963688 0.44 1.123779e-38
0.044747688 0.012993152 0.44100001 1.1514377e-38
0.046264555 0.012993152 0.44100001 1.2988431e-38
0.048864897 0.01328778 0.45100001 1.2527453e-38
0.050527949 0.013317242 0.45199999 1.1418944e-38
0.05208265 0.013317242 0.45199999 1.2248705e-38
0.053637382 0.013317242 0.45199999 1.2435958e-38
0.055436295 0.013376169 0.454 1.280474e-38
0.056997877 0.013376169 0.454 1.2618544e-38
0.058430474 0.013346707 0.45300001 1.2341957e-38
0.059988618 0.013346707 0.45300001 1.2433081e-38
0.061546758 0.013346707 0.45300001 1.2801863e-38
0.063104898 0.013346707 0.45300001 1.2525645e-38
0.064663075 0.013346707 0.45300001 1.2710036e-38
0.066075027 0.013317242 0.45199999 1.1792027e-38
0.067629732 0.013317242 0.45199999 1.2345201e-38
0.06918443 0.013317242 0.45199999 1.2070402e-38
0.070739135 0.013317242 0.45199999 9.5811204e-39
0.072293833 0.013317242 0.45199999 8.9399899e-39
0.074828856 0.013494021 0.458 9.4009681e-39
0.076404199 0.013494021 0.458 8.3882833e-39
0.078320056 0.013552947 0.46000001 9.218044e-39
0.079902276 0.013552947 0.46000001 1.004423e-38
0.081484497 0.013552947 0.46000001 9.2144693e-39
0.083066709 0.013552947 0.46000001 9.0311472e-39
0.084832951 0.013582409 0.461 8.0169953e-39
0.086606108 0.013611873 0.46200001 1.041916e-38
-0.0037405859 0.011308557 0.435 1.5304452e-38
-0.0022443573 0.011308557 0.435 1.5396648e-38
-0.00074812857 0.011308557 0.435 1.5212257e-38
0.00074810011 0.011308557 0.435 1.5211903e-38
0.0022443573 0.011308557 0.435 1.5211903e-38
0.0083238613 0.011438541 0.44 1.4935316e-38
0.0098372884 0.011438541 0.44 1.5391641e-38
0.011350715 0.011438541 0.44 1.3455533e-38
0.012864171 0.011438541 0.44 1.4830909e-38
0.014377597 0.011438541 0.44 1.4830909e-38
0.015891025 0.011438541 0.44 1.4280612e-38
0.017364895 0.011412544 0.43900001 1.4280612e-38
0.018874882 0.011412544 0.43900001 1.4280612e-38
0.02038487 0.011412544 0.43900001 1.4188416e-38
0.021894885 0.011412544 0.43900001 1.3821075e-38
0.023404872 0.011412544 0.43900001 1.372888e-38
0.024914859 0.011412544 0.43900001 1.3544486e-38
0.026424848 0.011412544 0.43900001 1.3544486e-38
0.027871199 0.011386547 0.43799999 1.3453009e-38
0.029377747 0.011386547 0.43799999 1.3268618e-38
0.030813785 0.011360551 0.43700001 1.3268971e-38
0.032316923 0.011360551 0.43700001 1.308458e-38
0.033820029 0.011360551 0.43700001 1.2900548e-38
0.035323136 0.011360551 0.43700001 1.2716157e-38
0.036910512 0.011386547 0.43799999 1.2715081e-38
0.038504772 0.011412544 0.43900001 1.2438494e-38
0.040014759 0.011412544 0.43900001 1.253105e-38
0.041619334 0.011438541 0.44 1.3453006e-38
0.043132793 0.011438541 0.44 1.1423273e-38
0.044747688 0.011464538 0.44100001 1.1238882e-38
0.046264555 0.011464538 0.44100001 1.2435254e-38
0.048864897 0.011724504 0.45100001 1.1605494e-38
0.05041616 0.011724504 0.45100001 1.1610904e-38
0.051967423 0.011724504 0.45100001 1.2993838e-38
0.053637382 0.011750501 0.45199999 1.4104487e-38
0.055436295 0.011802494 0.454 1.4381074e-38
0.058946412 0.011880483 0.45699999 1.3460184e-38
0.060518313 0.011880483 0.45699999 1.3827897e-38
0.061818488 0.011828491 0.45500001 1.3643506e-38
0.063383505 0.011828491 0.45500001 1.3644222e-38
0.066221215 0.011776498 0.45300001 1.4106284e-38
0.067779355 0.011776498 0.45300001 1.4106284e-38
0.06918443 0.011750501 0.45199999 1.4199184e-38
0.070739135 0.011750501 0.45199999 1.4014792e-38
0.076737836 0.011958474 0.46000001 9.6786746e-39
0.078320056 0.011958474 0.46000001 8.2957402e-39
0.079902276 0.011958474 0.46000001 8.6623675e-39
0.081484497 0.011958474 0.46000001 7.7404112e-39
0.083066709 0.011958474 0.46000001 6.6369545e-39
0.084832951 0.011984471 0.461 9.5872147e-39
0.086606108 0.012010468 0.46200001 1.3734618e-38
0.011350715 0.0099133933 0.44 1.4101618e-38
0.012864171 0.0099133933 0.44 1.4647599e-38
0.014410274 0.0099359248 0.44100001 1.4463208e-38
0.015891025 0.0099133933 0.44 1.4463564e-38
0.017364895 0.0098908637 0.43900001 1.4463564e-38
0.018874882 0.0098908637 0.43900001 1.418806e-38
0.02038487 0.0098908637 0.43900001 1.418806e-38
0.021894885 0.0098908637 0.43900001 1.3821075e-38
0.023351558 0.0098683322 0.43799999 1.372888e-38
0.024858104 0.0098683322 0.43799999 1.36374e-38
0.026364652 0.0098683322 0.43799999 1.3453009e-38
0.027871199 0.0098683322 0.43799999 1.336046e-38
0.029377747 0.0098683322 0.43799999 1.3176069e-38
0.030884294 0.0098683322 0.43799999 1.308494e-38
0.032316923 0.0098458026 0.43700001 1.2992744e-38
0.033820029 0.0098458026 0.43700001 1.2532845e-38
0.035403967 0.0098683322 0.43799999 1.2440649e-38
0.036910512 0.0098683322 0.43799999 1.2438857e-38
0.038504772 0.0098908637 0.43900001 1.2346661e-38
0.040014759 0.0098908637 0.43900001 1.2164065e-38
0.041619334 0.0099133933 0.44 1.2717239e-38
0.043132793 0.0099133933 0.44 1.1788818e-38
0.044646218 0.0099133933 0.44 1.1696623e-38
0.047313634 0.010161228 0.45100001 1.1881718e-38
0.048864897 0.010161228 0.45100001 1.3817826e-38
0.05041616 0.010161228 0.45100001 1.4107729e-38
0.051967423 0.010161228 0.45100001 1.3738947e-38
0.079902276 0.010364003 0.46000001 1.0876526e-38
0.081484497 0.010364003 0.46000001 1.225946e-38
0.083066709 0.010364003 0.46000001 1.32776e-38
0.084832951 0.010386532 0.461 1.4199556e-38
0.086606108 0.010409064 0.46200001 1.3922246e-38
0.012893408 0.008407332 0.44100001 1.4832346e-38
0.014410274 0.008407332 0.44100001 1.4740151e-38
0.015891025 0.0083882678 0.44 1.4372444e-38
0.017364895 0.0083692037 0.43900001 1.4280249e-38
0.018874882 0.0083692037 0.43900001 1.4279893e-38
0.02038487 0.0083692037 0.43900001 1.4279893e-38
0.021894885 0.0083692037 0.43900001 1.4188416e-38
0.023351558 0.0083501395 0.43799999 1.409622e-38
0.024858104 0.0083501395 0.43799999 1.3544486e-38
0.026364652 0.0083501395 0.43799999 1.3636681e-38
0.027871199 0.0083501395 0.43799999 1.336046e-38
0.029377747 0.0083501395 0.43799999 1.336046e-38
0.030884294 0.0083501395 0.43799999 1.299347e-38
0.03239087 0.0083501395 0.43799999 1.2809079e-38
0.033897419 0.0083501395 0.43799999 1.2532845e-38
0.035403967 0.0083501395 0.43799999 1.2440649e-38
0.036910512 0.0083501395 0.43799999 1.253105e-38
0.038504772 0.0083692037 0.43900001 1.2438854e-38
0.040014759 0.0083692037 0.43900001 1.216406e-38
0.041619334 0.0083882678 0.44 1.2532842e-38
0.043132793 0.0083882678 0.44 1.1238522e-38
0.044646218 0.0083882678 0.44 1.0593152e-38
0.047418542 0.0086170379 0.45199999 1.1237787e-38
0.048973247 0.0086170379 0.45199999 1.5570982e-38
0.05041616 0.0085979737 0.45100001 1.383113e-38
0.051967423 0.0085979737 0.45100001 1.3738934e-38
0.083427884 0.0088076815 0.46200001 1.4014076e-38
0.085016981 0.0088076815 0.46200001 1.3921881e-38
0.012893408 0.0068787187 0.44100001 1.4185545e-38
0.014410274 0.0068787187 0.44100001 1.4738719e-38
0.015891025 0.00686312 0.44 1.4279893e-38
0.017364895 0.0068475222 0.43900001 1.4279893e-38
0.018874882 0.0068475222 0.43900001 1.4463208e-38
0.02038487 0.0068475222 0.43900001 1.4371012e-38
0.021894885 0.0068475222 0.43900001 1.409622e-38
0.023351558 0.006831924 0.43799999 1.4004025e-38
0.024858104 0.006831924 0.43799999 1.3912189e-38
0.026364652 0.006831924 0.43799999 1.3727798e-38
0.027871199 0.006831924 0.43799999 1.3819994e-38
0.029377747 0.006831924 0.43799999 1.3635602e-38
0.030884294 0.006831924 0.43799999 1.3360094e-38
0.03239087 0.006831924 0.43799999 1.3267899e-38
0.033897419 0.006831924 0.43799999 1.2900548e-38
0.035403967 0.006831924 0.43799999 1.243957e-38
0.036910512 0.006831924 0.43799999 1.2348454e-38
0.038504772 0.0068475222 0.43900001 1.2164062e-38
0.040014759 0.0068475222 0.43900001 1.1980387e-38
0.041619334 0.00686312 0.44 1.234917e-38
0.043230824 0.0068787187 0.44100001 1.170021e-38
0.044747688 0.0068787187 0.44100001 1.0040689e-38
0.047523454 0.0070658941 0.45300001 1.0686774e-38
0.048973247 0.0070502958 0.45199999 1.5112165e-38
0.050527949 0.0070502958 0.45199999 1.4106638e-38
0.011376512 0.0053501264 0.44100001 1.3823233e-38
0.012893408 0.0053501264 0.44100001 1.4462144e-38
0.014410274 0.0053501264 0.44100001 1.4369949e-38
0.015891025 0.0053379945 0.44 1.4280259e-38
0.01740445 0.0053379945 0.44 1.4280259e-38
0.018874882 0.0053258627 0.43900001 1.418806e-38
0.02038487 0.0053258627 0.43900001 1.4095864e-38
0.021894885 0.0053258627 0.43900001 1.4004025e-38
0.023351558 0.0053137308 0.43799999 1.3911829e-38
0.024858104 0.0053137308 0.43799999 1.3727798e-38
0.026364652 0.0053137308 0.43799999 1.3543407e-38
0.027871199 0.0053137308 0.43799999 1.354376e-38
0.029377747 0.0053137308 0.43799999 1.3451564e-38
0.030884294 0.0053137308 0.43799999 1.3542678e-38
0.03239087 0.0053137308 0.43799999 1.3727069e-38
0.033897419 0.0053137308 0.43799999 1.3083861e-38
0.035403967 0.0053137308 0.43799999 1.2899469e-38
0.036994785 0.0053258627 0.43900001 1.2531053e-38
0.038504772 0.0053258627 0.43900001 1.2438857e-38
0.040014759 0.0053258627 0.43900001 1.2163337e-38
0.041619334 0.0053379945 0.44 1.2624315e-38
0.043230824 0.0053501264 0.44100001 1.216262e-38
0.044747688 0.0053501264 0.44100001 1.1056273e-38
0.046474367 0.0053743897 0.44299999 1.1331065e-38
0.04918994 0.0055078394 0.454 1.501889e-38
0.050751522 0.0055078394 0.454 1.3921881e-38
0.011376512 0.0038215127 0.44100001 1.4374612e-38
0.012893408 0.0038215127 0.44100001 1.4830561e-38
0.014410274 0.0038215127 0.44100001 1.4369583e-38
0.015927142 0.0038215127 0.44100001 1.4371735e-38
0.01740445 0.003812847 0.44 1.4463931e-38
0.018917877 0.003812847 0.44 1.4279896e-38
0.02038487 0.0038041815 0.43900001 1.4279896e-38
0.021894885 0.0038041815 0.43900001 1.409622e-38
0.023351558 0.0037955157 0.43799999 1.3911829e-38
0.024858104 0.0037955157 0.43799999 1.3727438e-38
0.026364652 0.0037955157 0.43799999 1.3543047e-38
0.027871199 0.0037955157 0.43799999 1.3359006e-38
0.029377747 0.0037955157 0.43799999 1.3451201e-38
0.030884294 0.0037955157 0.43799999 1.3359006e-38
0.03239087 0.0037955157 0.43799999 1.3451201e-38
0.033897419 0.0037955157 0.43799999 1.3176412e-38
0.035484798 0.0038041815 0.43900001 1.2992021e-38
0.036994785 0.0038041815 0.43900001 1.2806558e-38
0.038504772 0.0038041815 0.43900001 1.2529971e-38
0.040105909 0.003812847 0.44 1.2070425e-38
0.041619334 0.003812847 0.44 1.2254816e-38
0.043230824 0.0038215127 0.44100001 1.216262e-38
0.044849154 0.0038301782 0.442 1.2254816e-38
0.046474367 0.0038388437 0.44299999 1.1977147e-38
0.011402309 0.0022980981 0.442 1.4465739e-38
0.012893408 0.0022928989 0.44100001 1.4739091e-38
0.014410274 0.0022928989 0.44100001 1.4831287e-38
0.015891025 0.0022876994 0.44 1.4556127e-38
0.01740445 0.0022876994 0.44 1.4463931e-38
0.018917877 0.0022876994 0.44 1.4372091e-38
0.02038487 0.0022825003 0.43900001 1.4279896e-38
0.021894885 0.0022825003 0.43900001 1.409622e-38
0.023351558 0.0022773009 0.43799999 1.3819633e-38
0.024858104 0.0022773009 0.43799999 1.3635955e-38
0.026364652 0.0022773009 0.43799999 1.3451564e-38
0.027871199 0.0022773009 0.43799999 1.3359006e-38
0.029377747 0.0022773009 0.43799999 1.326681e-38
0.030884294 0.0022773009 0.43799999 1.335829e-38
0.03239087 0.0022773009 0.43799999 1.335829e-38
0.033897419 0.0022773009 0.43799999 1.3083498e-38
0.035484798 0.0022825003 0.43900001 1.2991302e-38
0.036994785 0.0022825003 0.43900001 1.3081706e-38
0.038504772 0.0022825003 0.43900001 1.2897314e-38
0.040105909 0.0022876994 0.44 1.2346296e-38
0.041619334 0.0022876994 0.44 1.22541e-38
0.043230824 0.0022928989 0.44100001 1.2162976e-38
0.044849154 0.0022980981 0.442 1.2531759e-38
0.046474367 0.0023032974 0.44299999 1.2439548e-38
0.011402309 0.00076604 0.442 1.4556855e-38
0.012893408 0.00076430693 0.44100001 1.4648328e-38
0.014410274 0.00076430693 0.44100001 1.4648328e-38
0.015891025 0.00076257373 0.44 1.4648322e-38
0.01740445 0.00076257373 0.44 1.4556127e-38
0.018917877 0.00076257373 0.44 1.4372807e-38
0.020431304 0.00076257373 0.44 1.409622e-38
0.021894885 0.00076084066 0.43900001 1.4096218e-38
0.023404872 0.00076084066 0.43900001 1.3819631e-38
0.024858104 0.00075910747 0.43799999 1.3727072e-38
0.026364652 0.00075910747 0.43799999 1.3542681e-38
0.027934834 0.00076084066 0.43900001 1.3083861e-38
0.029377747 0.00075910747 0.43799999 1.2899469e-38
0.030884294 0.00075910747 0.43799999 1.3174261e-38
0.032464825 0.00076084066 0.43900001 1.3174261e-38
0.033974811 0.00076084066 0.43900001 1.2991302e-38
0.035484798 0.00076084066 0.43900001 1.2899107e-38
0.036994785 0.00076084066 0.43900001 1.2530687e-38
0.038592484 0.00076257373 0.44 1.2530687e-38
0.040105909 0.00076257373 0.44 1.2530321e-38
0.041619334 0.00076257373 0.44 1.2438126e-38
0.043230824 0.00076430693 0.44100001 1.1978229e-38
0.044849154 0.00076604 0.442 1.1886034e-38
0.046579279 0.00076950627 0.44400001 1.161015e-38
0.048106465 0.00076950627 0.44400001 1.456041e-38
0.050192587 0.00077817187 0.449 1.3738205e-38
0.011376512 -0.00076430693 0.44100001 1.47416e-38
0.012893408 -0.00076430693 0.44100001 1.5108224e-38
0.014377597 -0.00076257373 0.44 1.4923833e-38
0.015891025 -0.00076257373 0.44 1.4648322e-38
0.01740445 -0.00076257373 0.44 1.4556127e-38
0.018917877 -0.00076257373 0.44 1.4372807e-38
0.02038487 -0.00076084066 0.43900001 1.4188416e-38
0.021894885 -0.00076084066 0.43900001 1.4004019e-38
0.023404872 -0.00076084066 0.43900001 1.3543041e-38
0.024914859 -0.00076084066 0.43900001 1.3634876e-38
0.026424848 -0.00076084066 0.43900001 1.3542681e-38
0.027934834 -0.00076084066 0.43900001 1.3266457e-38
0.029444821 -0.00076084066 0.43900001 1.3082066e-38
0.030954808 -0.00076084066 0.43900001 1.2990952e-38
0.032464825 -0.00076084066 0.43900001 1.2898756e-38
0.033974811 -0.00076084066 0.43900001 1.2806914e-38
0.035484798 -0.00076084066 0.43900001 1.2714718e-38
0.037079055 -0.00076257373 0.44 1.2346649e-38
0.038592484 -0.00076257373 0.44 1.2254453e-38
0.04019706 -0.00076430693 0.44100001 1.2437765e-38
0.041713927 -0.00076430693 0.44100001 1.2253374e-38
0.043328848 -0.00076604 0.442 1.1885671e-38
0.044950623 -0.00076777308 0.44299999 1.1609084e-38
0.046579279 -0.00076950627 0.44400001 1.050561e-38
0.048106465 -0.00076950627 0.44400001 1.4838805e-38
0.050192587 -0.00077817187 0.449 1.3554543e-38
0.011376512 -0.0022928989 0.44100001 1.5018537e-38
0.012893408 -0.0022928989 0.44100001 1.5292618e-38
0.014377597 -0.0022876994 0.44 1.5108227e-38
0.015891025 -0.0022876994 0.44 1.4740518e-38
0.01740445 -0.0022876994 0.44 1.4463931e-38
0.018874882 -0.0022825003 0.43900001 1.4372091e-38
0.02038487 -0.0022825003 0.43900001 1.41877e-38
0.021894885 -0.0022825003 0.43900001 1.3911473e-38
0.023404872 -0.0022825003 0.43900001 1.3819278e-38
0.024914859 -0.0022825003 0.43900001 1.3543047e-38
0.026424848 -0.0022825003 0.43900001 1.3358655e-38
0.027934834 -0.0022825003 0.43900001 1.3083147e-38
0.029444821 -0.0022825003 0.43900001 1.2898756e-38
0.030954808 -0.0022825003 0.43900001 1.2899107e-38
0.032464825 -0.0022825003 0.43900001 1.2806911e-38
0.033974811 -0.0022825003 0.43900001 1.2622522e-38
0.035484798 -0.0022825003 0.43900001 1.2438131e-38
0.037079055 -0.0022876994 0.44 1.1884952e-38
0.038592484 -0.0022876994 0.44 1.1977147e-38
0.04019706 -0.0022928989 0.44100001 1.1884952e-38
0.041808512 -0.0022980981 0.442 1.1884952e-38
0.043328848 -0.0022980981 0.442 1.1517604e-38
0.045052093 -0.0023084967 0.44400001 1.1241017e-38
0.046684187 -0.0023136961 0.44499999 1.0137556e-38
0.048323158 -0.0023188954 0.44600001 1.4747338e-38
0.050192587 -0.0023344934 0.449 1.3645304e-38
0.011376512 -0.0038215127 0.44100001 1.5022124e-38
0.012893408 -0.0038215127 0.44100001 1.5570281e-38
0.014377597 -0.003812847 0.44 1.5201499e-38
0.015891025 -0.003812847 0.44 1.4649757e-38
0.01740445 -0.003812847 0.44 1.437317e-38
0.018874882 -0.0038041815 0.43900001 1.4372091e-38
0.02038487 -0.0038041815 0.43900001 1.41877e-38
0.021894885 -0.0038041815 0.43900001 1.4004019e-38
0.023404872 -0.0038041815 0.43900001 1.3819628e-38
0.024914859 -0.0038041815 0.43900001 1.3358655e-38
0.026424848 -0.0038041815 0.43900001 1.3358655e-38
0.027934834 -0.0038041815 0.43900001 1.3082066e-38
0.029444821 -0.0038041815 0.43900001 1.3082066e-38
0.03102532 -0.003812847 0.44 1.2806914e-38
0.032538775 -0.003812847 0.44 1.2806914e-38
0.034052201 -0.003812847 0.44 1.253104e-38
0.03556563 -0.003812847 0.44 1.2162258e-38
0.037079055 -0.003812847 0.44 1.1885673e-38
0.038680196 -0.0038215127 0.44100001 1.1701282e-38
0.040288206 -0.0038301782 0.442 1.1701282e-38
0.041903105 -0.0038388437 0.44299999 1.1609087e-38
0.04352491 -0.0038475094 0.44400001 1.1517251e-38
0.045153562 -0.0038561746 0.44499999 1.0779686e-38
0.046789095 -0.0038648406 0.44600001 1.0508507e-38
0.048323158 -0.0038648406 0.44600001 1.4472919e-38
0.050192587 -0.0038908371 0.449 1.3553464e-38
0.012893408 -0.0053501045 0.44100001 1.142976e-38
0.014377597 -0.0053379727 0.44 1.3089281e-38
0.015891025 -0.0053379727 0.44 1.5111101e-38
0.01740445 -0.0053379727 0.44 1.492671e-38
0.018917877 -0.0053379727 0.44 1.4833785e-38
0.02038487 -0.0053258413 0.43900001 1.4280612e-38
0.021894885 -0.0053258413 0.43900001 1.4372802e-38
0.023404872 -0.0053258413 0.43900001 1.4096215e-38
0.024914859 -0.0053258413 0.43900001 1.3543397e-38
0.026424848 -0.0053258413 0.43900001 1.3359006e-38
0.027934834 -0.0053258413 0.43900001 1.3083498e-38
0.029511893 -0.0053379727 0.44 1.2806911e-38
0.03102532 -0.0053379727 0.44 1.2714712e-38
0.032538775 -0.0053379727 0.44 1.2714712e-38
0.034052201 -0.0053379727 0.44 1.253103e-38
0.03556563 -0.0053379727 0.44 1.2162248e-38
0.037163328 -0.0053501045 0.44100001 1.1884952e-38
0.0387679 -0.0053622364 0.442 1.1884952e-38
0.040288206 -0.0053622364 0.442 1.1609081e-38
0.041997693 -0.0053864997 0.44400001 1.1516885e-38
0.04352491 -0.0053864997 0.44400001 1.1425399e-38
0.045153562 -0.0053986316 0.44499999 1.0872225e-38
0.046789095 -0.0054107634 0.44600001 1.2444615e-38
0.048431505 -0.0054228953 0.447 1.3919745e-38
0.012893408 -0.0068787187 0.44100001 4.2442738e-39
0.014410274 -0.0068787187 0.44100001 3.2301219e-39
0.015927142 -0.0068787187 0.44100001 3.8704592e-39
0.017444007 -0.0068787187 0.44100001 5.8987631e-39
0.018917877 -0.00686312 0.44 8.7553576e-39
0.020431304 -0.00686312 0.44 1.059927e-38
0.021944759 -0.00686312 0.44 1.1794574e-38
0.023458187 -0.00686312 0.44 1.271653e-38
0.024971614 -0.00686312 0.44 1.354376e-38
0.026485041 -0.00686312 0.44 1.3451564e-38
0.027998466 -0.00686312 0.44 1.3635593e-38
0.029511893 -0.00686312 0.44 1.3359006e-38
0.03102532 -0.00686312 0.44 1.2989867e-38
0.032538775 -0.00686312 0.44 1.3082063e-38
0.034129597 -0.0068787187 0.44100001 1.2622517e-38
0.035727289 -0.0068943165 0.442 1.2438126e-38
0.037247594 -0.0068943165 0.442 1.2161541e-38
0.0387679 -0.0068943165 0.442 1.2253737e-38
0.040470511 -0.0069255126 0.44400001 1.2069346e-38
0.042092282 -0.0069411104 0.44499999 1.197715e-38
0.043720964 -0.0069567086 0.44600001 1.1609084e-38
0.045255031 -0.0069567086 0.44600001 1.1516888e-38
0.046894003 -0.0069723064 0.447 1.3368719e-38
0.012922644 -0.0084263748 0.442 6.0874703e-39
0.014410274 -0.0084073106 0.44100001 4.9811228e-39
0.015927142 -0.0084073106 0.44100001 5.62323e-39
0.017444007 -0.0084073106 0.44100001 3.7793174e-39
0.018960873 -0.0084073106 0.44100001 2.6704685e-39
0.02047774 -0.0084073106 0.44100001 1.5641209e-39
0.021994635 -0.0084073106 0.44100001 9.2126826e-40
0.023458187 -0.0083882455 0.44 1.5666377e-39
0.024971614 -0.0083882455 0.44 2.582942e-39
0.026545234 -0.0084073106 0.44100001 4.4268546e-39
0.028125731 -0.0084263748 0.442 6.9110751e-39
0.029713109 -0.008445438 0.44299999 8.3862052e-39
0.031307369 -0.0084645031 0.44400001 9.3992879e-39
0.032686677 -0.0084263748 0.442 9.6758748e-39
0.034206983 -0.0084263748 0.442 1.0136124e-38
0.035888955 -0.0084645031 0.44400001 9.7673418e-39
0.037500408 -0.0084835673 0.44499999 9.5829505e-39
0.039118744 -0.0085026314 0.44600001 8.9375811e-39
0.040652808 -0.0085026314 0.44600001 8.2922117e-39
0.042186871 -0.0085026314 0.44600001 7.7390379e-39
0.043818995 -0.0085216956 0.447 5.7135927e-39
0.045356497 -0.0085216956 0.447 1.3642417e-38
0.011402309 -0.0099584544 0.442 7.4681991e-39
0.012922644 -0.0099584544 0.442 5.3531423e-39
0.014410274 -0.0099359248 0.44100001 4.6155773e-39
0.015927142 -0.0099359248 0.44100001 5.7168703e-39
0.017444007 -0.0099359248 0.44100001 5.5324791e-39
0.018960873 -0.0099359248 0.44100001 4.7974252e-39
0.02047774 -0.0099359248 0.44100001 4.4286426e-39
0.021994635 -0.0099359248 0.44100001 3.9619108e-39
0.023511501 -0.0099359248 0.44100001 2.5789763e-39
0.025028368 -0.0099359248 0.44100001 2.2123448e-39
0.026545234 -0.0099359248 0.44100001 2.6733229e-39
0.028125731 -0.0099584544 0.442 2.3067082e-39
0.029780183 -0.010003516 0.44400001 2.0301213e-39
0.031307369 -0.010003516 0.44400001 1.5694935e-39
0.032834582 -0.010003516 0.44400001 1.938276e-39
0.034361769 -0.010003516 0.44400001 1.8460804e-39
0.035969783 -0.010026045 0.44499999 1.8460804e-39
0.037584677 -0.010048577 0.44600001 1.5694935e-39
0.039118744 -0.010048577 0.44600001 1.2929066e-39
0.040743958 -0.010071106 0.447 1.9379285e-39
0.042376053 -0.010093637 0.44800001 2.306711e-39
0.044015054 -0.010116167 0.449 2.674727e-39
0.045559436 -0.010116167 0.449 1.3185029e-38
0.047418542 -0.010183758 0.45199999 1.3277956e-38
0.011402309 -0.011490513 0.442 7.3781811e-39
0.012893408 -0.011464517 0.44100001 6.0874703e-39
0.014410274 -0.011464517 0.44100001 5.6264922e-39
0.015927142 -0.011464517 0.44100001 5.71652e-39
0.01740445 -0.011438519 0.44 5.3477375e-39
0.018917877 -0.011438519 0.44 5.2558922e-39
0.020431304 -0.011438519 0.44 5.2558922e-39
0.021944759 -0.011438519 0.44 5.2562453e-39
0.023458187 -0.011438519 0.44 4.9796584e-39
0.024971614 -0.011438519 0.44 4.2420934e-39
0.026545234 -0.011464517 0.44100001 3.6889196e-39
0.028125731 -0.011490513 0.442 3.1364661e-39
0.029780183 -0.011542507 0.44400001 3.0442705e-39
0.031307369 -0.011542507 0.44400001 3.7811152e-39
0.032834582 -0.011542507 0.44400001 3.7811152e-39
0.034439158 -0.011568503 0.44499999 3.1386143e-39
0.035969783 -0.011568503 0.44499999 3.1386143e-39
0.037584677 -0.011594499 0.44600001 3.2293708e-39
0.039206453 -0.011620495 0.447 3.5981533e-39
0.040835109 -0.011646492 0.44800001 3.9655065e-39
0.042376053 -0.011646492 0.44800001 4.2420934e-39
0.044015054 -0.011672489 0.449 4.0562546e-39
0.045660902 -0.011698485 0.44999999 1.2907035e-38
0.047418542 -0.011750478 0.45199999 1.3552758e-38
0.0098820031 -0.013022592 0.442 7.1937899e-39
0.011402309 -0.013022592 0.442 7.1015942e-39
0.012893408 -0.01299313 0.44100001 5.9030763e-39
0.014410274 -0.01299313 0.44100001 5.3499025e-39
