# .PCD v0.7 - Point Cloud Data file format
VERSION 0.7
FIELDS x y z rgb
SIZE 4 4 4 4
TYPE F F F F
COUNT 1 1 1 1
WIDTH 1007
HEIGHT 1
VIEWPOINT 0 0 0 1 0 0 0
POINTS 1007
DATA ascii
0.030954808 0.043367635 0.43900001 1.4835103e-38
0.032464825 0.043367635 0.43900001 1.4189733e-38
0.033974811 0.043367635 0.43900001 1.0964656e-38
0.035484798 0.043367635 0.43900001 1.0042714e-38
0.037079055 0.043466419 0.44 1.022822e-38
0.038680196 0.04356521 0.44100001 1.0136025e-38
0.040288206 0.043663997 0.442 1.0688836e-38
0.041903105 0.043762781 0.44299999 1.1334205e-38
0.04352491 0.043861572 0.44400001 1.3364677e-38
0.024801353 0.041655332 0.43700001 1.2622032e-38
0.026304461 0.041655332 0.43700001 1.0685924e-38
0.027934834 0.041845974 0.43900001 1.3360001e-38
0.029444821 0.041845974 0.43900001 1.3452196e-38
0.030954808 0.041845974 0.43900001 1.3177379e-38
0.032464825 0.041845974 0.43900001 1.0042728e-38
0.033974811 0.041845974 0.43900001 9.951974e-39
0.035484798 0.041845974 0.43900001 1.0136365e-38
0.037163328 0.042036619 0.44100001 9.3999269e-39
0.038680196 0.042036619 0.44100001 7.7404056e-39
0.040288206 0.042131938 0.442 8.1113489e-39
0.041903105 0.042227257 0.44299999 7.1893926e-39
0.04352491 0.04232258 0.44400001 1.0323631e-38
0.045052093 0.04232258 0.44400001 1.5763173e-38
0.024801353 0.040140606 0.43700001 1.1792284e-38
0.026304461 0.040140606 0.43700001 1.1423501e-38
0.027807569 0.040140606 0.43700001 1.409721e-38
0.029310677 0.040140606 0.43700001 1.3820623e-38
0.030813785 0.040140606 0.43700001 1.2531689e-38
0.032464825 0.040324315 0.43900001 9.5814287e-39
0.033974811 0.040324315 0.43900001 9.3995542e-39
0.03556563 0.04041617 0.44 9.9527279e-39
0.037163328 0.040508024 0.44100001 1.0044596e-38
0.038680196 0.040508024 0.44100001 7.463118e-39
0.040288206 0.040599879 0.442 8.1138909e-39
0.041903105 0.040691733 0.44299999 8.2060865e-39
0.04352491 0.040783592 0.44400001 1.1613714e-38
0.045052093 0.040783592 0.44400001 1.5762517e-38
0.024858104 0.038714245 0.43799999 1.2343675e-38
0.026304461 0.038625855 0.43700001 1.1698306e-38
0.027807569 0.038625855 0.43700001 1.1148686e-38
0.029310677 0.038625855 0.43700001 9.1204127e-39
0.030813785 0.038625855 0.43700001 9.4910309e-39
0.032538775 0.038891021 0.44 9.4910309e-39
0.034052201 0.038891021 0.44 1.0228246e-38
0.035646461 0.038979411 0.44100001 1.0320441e-38
0.037163328 0.038979411 0.44100001 1.0505564e-38
0.0387679 0.039067801 0.442 9.8601946e-39
0.040288206 0.039067801 0.442 9.5843238e-39
0.041997693 0.039244577 0.44400001 9.3077369e-39
0.04352491 0.039244577 0.44400001 1.3091751e-38
0.045153562 0.039332964 0.44499999 1.5120055e-38
0.046789095 0.039421357 0.44600001 1.4935677e-38
0.021645512 0.036856338 0.43399999 1.4282292e-38
0.023138301 0.036856338 0.43399999 9.488119e-39
0.024858104 0.037196029 0.43799999 1.2805748e-38
0.026244266 0.037026182 0.43599999 1.1975987e-38
0.027743934 0.037026182 0.43599999 1.1702236e-38
0.029310677 0.037111107 0.43700001 9.766131e-39
0.030813785 0.037111107 0.43700001 9.3984822e-39
0.032538775 0.037365872 0.44 1.0320438e-38
0.034052201 0.037365872 0.44 1.0505914e-38
0.035646461 0.037450798 0.44100001 1.0321523e-38
0.037163328 0.037450798 0.44100001 1.0229688e-38
0.0387679 0.03753572 0.442 9.3999269e-39
0.040379357 0.037620641 0.44299999 8.9389418e-39
0.041997693 0.037705567 0.44400001 1.2165789e-38
0.043622937 0.037790485 0.44499999 1.5025704e-38
0.045153562 0.037790485 0.44499999 1.5578878e-38
0.046789095 0.03787541 0.44600001 1.4752001e-38
0.021645512 0.03535201 0.43399999 1.4467039e-38
0.023138301 0.03535201 0.43399999 8.3821414e-39
0.024687845 0.035433467 0.435 1.4097235e-38
0.026184073 0.035433467 0.435 1.2529909e-38
0.027680302 0.035433467 0.435 1.0594444e-38
0.031095834 0.035922207 0.44100001 9.5825231e-39
0.03261273 0.035922207 0.44100001 9.9513056e-39
0.034129597 0.035922207 0.44100001 1.0598123e-38
0.035646461 0.035922207 0.44100001 9.7683619e-39
0.037247594 0.03600366 0.442 9.9531035e-39
0.0387679 0.03600366 0.442 9.2155385e-39
0.040470511 0.036166575 0.44400001 8.570169e-39
0.041997693 0.036166575 0.44400001 1.1981407e-38
0.043622937 0.036248028 0.44499999 1.3277956e-38
0.045255031 0.036329489 0.44600001 1.466089e-38
0.046789095 0.036329489 0.44600001 1.4751992e-38
0.018616911 0.033769671 0.433 1.2344352e-38
0.020106262 0.033769671 0.433 1.4557047e-38
0.021645512 0.03384766 0.43399999 1.4928393e-38
0.023138301 0.03384766 0.43399999 9.120068e-39
0.02463109 0.03384766 0.43399999 1.5568036e-38
0.026184073 0.033925653 0.435 1.3447537e-38
0.027680302 0.033925653 0.435 9.2100958e-39
0.029646037 0.034471583 0.442 1.0408624e-38
0.031166343 0.034471583 0.442 9.490696e-39
0.032686677 0.034471583 0.442 9.5828917e-39
0.034206983 0.034471583 0.442 9.9527532e-39
0.035727289 0.034471583 0.442 9.3073838e-39
0.037247594 0.034471583 0.442 9.3999297e-39
0.038855612 0.034549572 0.44299999 8.6623647e-39
0.040470511 0.034627561 0.44400001 4.7944586e-39
0.042092282 0.034705549 0.44499999 1.3645232e-38
0.043622937 0.034705549 0.44499999 1.4935677e-38
0.045255031 0.034783542 0.44600001 1.4751285e-38
0.046789095 0.034783542 0.44600001 1.4843468e-38
0.018616911 0.032268807 0.433 1.8334295e-38
0.020106262 0.032268807 0.433 1.4923057e-38
0.021645512 0.032343332 0.43399999 1.2897943e-38
0.023084989 0.032268807 0.433 1.1515009e-38
0.02446083 0.032119758 0.43099999 1.1883088e-38
0.0259433 0.032119758 0.43099999 7.6420891e-39
0.027553037 0.032268807 0.433 6.7212104e-39
0.029646037 0.032939523 0.442 8.4729161e-39
0.031166343 0.032939523 0.442 8.7524261e-39
0.032760631 0.033014048 0.44299999 9.2134043e-39
0.034284376 0.033014048 0.44299999 9.1226366e-39
0.03580812 0.033014048 0.44299999 8.5694628e-39
0.037416138 0.033088572 0.44400001 8.5694502e-39
0.038943324 0.033088572 0.44400001 7.2787114e-39
0.040561657 0.033163093 0.44499999 8.9418649e-39
0.042092282 0.033163093 0.44499999 1.5856537e-38
0.043720964 0.033237621 0.44600001 1.4751641e-38
0.045255031 0.033237621 0.44600001 1.4751641e-38
0.0078509143 0.02948889 0.41499999 1.576219e-38
0.0092783514 0.02948889 0.41499999 1.9811572e-38
0.016732005 0.030057348 0.42300001 2.2484193e-38
0.01818696 0.030057348 0.42300001 2.0365861e-38
0.019688347 0.030128404 0.42399999 2.018147e-38
0.021396141 0.030483693 0.42899999 2.0268611e-38
0.022871731 0.030483693 0.42899999 1.7871524e-38
0.024404077 0.030554753 0.43000001 1.5109984e-38
0.0259433 0.030625809 0.43099999 1.2989485e-38
0.02742577 0.030625809 0.43099999 1.2525606e-38
0.029646037 0.031407442 0.442 9.3909544e-39
0.031166343 0.031407442 0.442 6.9974582e-39
0.032760631 0.031478498 0.44299999 8.288197e-39
0.034284376 0.031478498 0.44299999 8.4754721e-39
0.035888955 0.031549558 0.44400001 8.1066896e-39
0.037416138 0.031549558 0.44400001 7.1843605e-39
0.039031032 0.031620614 0.44499999 7.9219256e-39
0.040561657 0.031620614 0.44499999 1.3825006e-38
0.042186871 0.031691674 0.44600001 1.6129897e-38
0.043720964 0.031691674 0.44600001 1.5486322e-38
0.0078319972 0.027982807 0.414 2.1753843e-38
0.0092559941 0.027982807 0.414 2.2304483e-38
0.012250199 0.028320761 0.419 2.1842436e-38
0.013691394 0.028320761 0.419 2.1565849e-38
0.016732005 0.028591128 0.42300001 2.0089647e-38
0.01818696 0.028591128 0.42300001 1.8707056e-38
0.019688347 0.028658718 0.42399999 1.7416317e-38
0.021296391 0.028861491 0.42699999 1.7229402e-38
0.022818418 0.028929085 0.428 1.6768424e-38
0.024347322 0.028996674 0.42899999 1.4833767e-38
0.0259433 0.029131858 0.43099999 1.4188398e-38
0.02742577 0.029131858 0.43099999 1.4373858e-38
0.028975314 0.029199449 0.43200001 1.3636293e-38
0.030672759 0.029402224 0.435 1.1605824e-38
0.032686677 0.029875364 0.442 6.7194559e-39
0.034284376 0.029942954 0.44299999 7.3669539e-39
0.035888955 0.030010546 0.44400001 8.2889102e-39
0.037500408 0.030078137 0.44499999 7.2801561e-39
0.039118744 0.030145729 0.44600001 1.2719698e-38
0.040652808 0.030145729 0.44600001 1.6677307e-38
0.042186871 0.030145729 0.44600001 1.6031938e-38
0.043720964 0.030145729 0.44600001 1.6771308e-38
0.048502028 0.032308649 0.47799999 1.5941547e-38
0.050146159 0.032308649 0.47799999 1.39233e-38
0.0063615651 0.026355427 0.41100001 2.1566215e-38
0.0077752434 0.026355427 0.41100001 1.9998889e-38
0.0092112795 0.026419552 0.412 1.9164767e-38
0.010731585 0.026676051 0.41600001 1.8150615e-38
0.012220962 0.026804302 0.41800001 1.7688953e-38
0.013691394 0.026868425 0.419 1.7873345e-38
0.015168704 0.026932551 0.41999999 1.7597118e-38
0.016652895 0.026996676 0.421 1.6675162e-38
0.018143963 0.027060801 0.42199999 1.6027987e-38
0.019641913 0.027124926 0.42300001 1.5659205e-38
0.021246517 0.027317302 0.426 1.5017438e-38
0.022818418 0.027445553 0.428 1.455646e-38
0.024347322 0.027509676 0.42899999 1.4648653e-38
0.025883107 0.027573803 0.43000001 1.4648653e-38
0.02742577 0.027637927 0.43099999 1.400436e-38
0.028975314 0.027702054 0.43200001 1.3635577e-38
0.030602247 0.027830303 0.43399999 1.391253e-38
0.032464825 0.028150931 0.43900001 1.2713987e-38
0.034052201 0.028215054 0.44 6.8123284e-39
0.035646461 0.028279182 0.44100001 6.9967169e-39
0.048502028 0.030651808 0.47799999 2.073357e-38
0.050146159 0.030651808 0.47799999 1.7508875e-38
0.051790293 0.030651808 0.47799999 1.5480572e-38
0.053434424 0.030651808 0.47799999 1.4105903e-38
0.055193786 0.030715935 0.479 1.4566881e-38
0.0049478873 0.024930822 0.41100001 2.1750616e-38
0.0063615651 0.024930822 0.41100001 2.1012319e-38
0.0077752434 0.024930822 0.41100001 1.9168407e-38
0.0091889221 0.024930822 0.41100001 1.6312117e-38
0.010731585 0.025234114 0.41600001 1.4929183e-38
0.012220962 0.025355432 0.41800001 1.5108555e-38
0.013658717 0.025355432 0.41800001 1.5292946e-38
0.015132588 0.025416089 0.419 1.547769e-38
0.016652895 0.025537409 0.421 1.4924517e-38
0.018143963 0.025598066 0.42199999 1.4555015e-38
0.019641913 0.025658727 0.42300001 1.4186233e-38
0.021196645 0.025780044 0.42500001 1.4462479e-38
0.022765102 0.02590136 0.42699999 1.464687e-38
0.024290569 0.025962021 0.428 1.4096555e-38
0.025883107 0.026083339 0.43000001 1.4096555e-38
0.02742577 0.026143998 0.43099999 1.3450833e-38
0.028975314 0.026204659 0.43200001 1.308205e-38
0.030602247 0.026325975 0.43399999 1.326716e-38
0.032464825 0.026629271 0.43900001 1.4096921e-38
0.034052201 0.026689928 0.44 1.3543737e-38
0.03556563 0.026689928 0.44 7.6432171e-39
0.048502028 0.028994968 0.47799999 1.8523027e-38
0.050146159 0.028994968 0.47799999 1.9819186e-38
0.051790293 0.028994968 0.47799999 1.9634795e-38
0.053434424 0.028994968 0.47799999 1.7051131e-38
0.055078555 0.028994968 0.47799999 1.4746241e-38
0.0049478873 0.023506194 0.41100001 2.0641725e-38
0.0063615651 0.023506194 0.41100001 1.9720136e-38
0.0077752434 0.023506194 0.41100001 1.8890375e-38
0.0091889221 0.023506194 0.41100001 1.6864585e-38
0.010705788 0.023734964 0.41499999 1.4836281e-38
0.012162489 0.023792157 0.41600001 1.4740501e-38
0.013658717 0.023906542 0.41800001 1.4740501e-38
0.015132588 0.023963735 0.419 1.5107826e-38
0.016613338 0.024020925 0.41999999 1.4646848e-38
0.018143963 0.024135312 0.42199999 1.3909283e-38
0.019641913 0.024192505 0.42300001 1.4093674e-38
0.021196645 0.024306891 0.42500001 1.4095129e-38
0.022765102 0.024421275 0.42699999 1.4187324e-38
0.024290569 0.024478469 0.428 1.3911441e-38
0.025883107 0.024592854 0.43000001 1.3358267e-38
0.027489405 0.024707241 0.43200001 1.2988781e-38
0.028975314 0.024707241 0.43200001 1.2988781e-38
0.030602247 0.024821624 0.43399999 1.3172819e-38
0.032464825 0.025107589 0.43900001 1.3818189e-38
0.033974811 0.025107589 0.43900001 1.3912527e-38
0.03556563 0.025164781 0.44 1.3728136e-38
0.046857897 0.027338102 0.47799999 1.6123067e-38
0.048502028 0.027338102 0.47799999 1.5016719e-38
0.049936343 0.027223719 0.47600001 1.6400375e-38
0.051573597 0.027223719 0.47600001 1.9166244e-38
0.053210851 0.027223719 0.47600001 1.9907772e-38
0.054963324 0.02728091 0.477 1.9354598e-38
0.056722719 0.027338102 0.47799999 1.4656556e-38
0.05836685 0.027338102 0.47799999 1.4564361e-38
0.060764253 0.027681258 0.484 1.4290297e-38
0.0049478873 0.022081569 0.41100001 1.5936093e-38
0.0063460865 0.022027841 0.41 1.7783677e-38
0.0077563254 0.022027841 0.41 1.7046112e-38
0.0091665639 0.022027841 0.41 1.6770947e-38
0.010576802 0.022027841 0.41 1.56646e-38
0.012162489 0.022350198 0.41600001 1.446535e-38
0.013626041 0.022403926 0.417 1.4280959e-38
0.015132588 0.022511378 0.419 1.4463899e-38
0.016613338 0.022565102 0.41999999 1.3634138e-38
0.018143963 0.022672556 0.42199999 1.3541589e-38
0.019641913 0.022726284 0.42300001 1.3725981e-38
0.021196645 0.022833737 0.42500001 1.3819621e-38
0.022765102 0.022941189 0.42699999 1.3727425e-38
0.024290569 0.022994917 0.428 1.3266074e-38
0.025883107 0.023102369 0.43000001 1.2805096e-38
0.02742577 0.023156095 0.43099999 1.2437037e-38
0.028975314 0.023209823 0.43200001 1.2621428e-38
0.030602247 0.023317274 0.43399999 1.2805116e-38
0.032316923 0.023478454 0.43700001 1.335829e-38
0.033974811 0.023585908 0.43900001 1.3451198e-38
0.03556563 0.023639634 0.44 1.3266807e-38
0.037163328 0.023693362 0.44100001 1.4374962e-38
0.0387679 0.023747087 0.442 1.6587658e-38
0.040288206 0.023747087 0.442 1.5019591e-38
0.041997693 0.023854541 0.44400001 9.8566353e-39
0.04352491 0.023854541 0.44400001 1.5014552e-38
0.048096154 0.025466334 0.47400001 1.6674073e-38
0.049726527 0.025466334 0.47400001 1.6493644e-38
0.0513569 0.025466334 0.47400001 1.8521948e-38
0.053210851 0.025573786 0.47600001 1.8708147e-38
0.054848101 0.025573786 0.47600001 1.990669e-38
0.05660405 0.025627512 0.477 1.9908123e-38
0.05836685 0.025681239 0.47799999 1.5667124e-38
0.060136531 0.025734965 0.479 1.4290297e-38
-0.002089574 0.0203554 0.405 1.4557472e-38
-0.00069653353 0.0203554 0.405 2.008921e-38
0.00069650705 0.0203554 0.405 2.1103377e-38
0.002089574 0.0203554 0.405 2.1933138e-38
0.0034826146 0.0203554 0.405 1.4561816e-38
0.0048756553 0.0203554 0.405 7.5549479e-39
0.0063306089 0.020556441 0.40900001 1.649077e-38
0.0077374079 0.020556441 0.40900001 1.6121988e-38
0.0091665639 0.0206067 0.41 1.5848991e-38
0.010576802 0.0206067 0.41 1.56646e-38
0.012191725 0.020958522 0.417 1.4466069e-38
0.013626041 0.020958522 0.417 1.38207e-38
0.015132588 0.021059042 0.419 1.3911088e-38
0.016613338 0.021109302 0.41999999 1.3173523e-38
0.018143963 0.021209823 0.42199999 1.3633435e-38
0.019641913 0.021260083 0.42300001 1.3910021e-38
0.021196645 0.021360604 0.42500001 1.372742e-38
0.022765102 0.021461124 0.42699999 1.3358637e-38
0.024290569 0.021511385 0.428 1.2621078e-38
0.025822913 0.021561645 0.42899999 1.2528882e-38
0.02742577 0.021662164 0.43099999 1.243739e-38
0.028975314 0.021712426 0.43200001 1.2621781e-38
0.030813785 0.021963727 0.43700001 1.3356848e-38
0.032316923 0.021963727 0.43700001 1.372563e-38
0.034052201 0.022114508 0.44 1.3174258e-38
0.03556563 0.022114508 0.44 1.335865e-38
0.037163328 0.022164769 0.44100001 1.3728504e-38
0.0387679 0.022215029 0.442 1.4927047e-38
0.040288206 0.022215029 0.442 1.5111792e-38
0.041997693 0.022315551 0.44400001 1.0133228e-38
0.043720964 0.02241607 0.44600001 1.335538e-38
0.045356497 0.02246633 0.447 1.7596379e-38
0.049411803 0.023672575 0.47099999 1.6678033e-38
0.0511402 0.023722837 0.472 1.7231207e-38
0.052987274 0.023823356 0.47400001 1.6585111e-38
0.054848101 0.023923878 0.47600001 1.6216329e-38
0.05660405 0.023974137 0.477 1.8062778e-38
0.05836685 0.024024397 0.47799999 1.7970582e-38
0.060010981 0.024024397 0.47799999 1.4473247e-38
-0.0020844147 0.018904777 0.40400001 1.7972691e-38
-0.00069481367 0.018904777 0.40400001 1.8249278e-38
0.0006947873 0.018904777 0.40400001 1.723583e-38
0.0020844147 0.018904777 0.40400001 1.7696808e-38
0.0034740157 0.018904777 0.40400001 1.7971622e-38
0.0048756553 0.018951571 0.405 8.752059e-39
0.0062841736 0.018998364 0.40599999 1.3451902e-38
0.007699572 0.019045159 0.40700001 1.4558249e-38
0.0091218492 0.019091953 0.40799999 1.4651174e-38
0.010551006 0.019138748 0.40900001 1.4835565e-38
0.012191725 0.019513099 0.417 1.3729936e-38
0.013626041 0.019513099 0.417 1.3084567e-38
0.015132588 0.019606685 0.419 1.3265355e-38
0.016613338 0.019653479 0.41999999 1.3449747e-38
0.018143963 0.019747067 0.42199999 1.3909661e-38
0.019641913 0.019793862 0.42300001 1.4186248e-38
0.021246517 0.019934244 0.426 1.3818529e-38
0.022818418 0.020027833 0.428 1.3265355e-38
0.024290569 0.020027833 0.428 1.2712194e-38
0.025822913 0.020074626 0.42899999 1.2619999e-38
0.02742577 0.020168213 0.43099999 1.2621078e-38
0.028975314 0.020215008 0.43200001 1.2805469e-38
0.030954808 0.020542568 0.43900001 1.2990223e-38
0.032464825 0.020542568 0.43900001 1.326681e-38
0.034052201 0.020589361 0.44 1.3174258e-38
0.035646461 0.020636156 0.44100001 1.3082063e-38
0.037163328 0.020636156 0.44100001 1.3266807e-38
0.0387679 0.02068295 0.442 1.3727785e-38
0.040379357 0.020729743 0.44299999 1.4466783e-38
0.042092282 0.02082333 0.44499999 9.9491967e-39
0.043720964 0.020870125 0.44600001 1.2431985e-38
0.045356497 0.020916918 0.447 1.8332505e-38
0.049411803 0.022039974 0.47099999 1.7598187e-38
0.0511402 0.022086769 0.472 1.5569883e-38
0.052987274 0.022180358 0.47400001 1.3173503e-38
0.054848101 0.022273945 0.47600001 1.3265699e-38
0.05660405 0.022320738 0.477 1.4373142e-38
0.05836685 0.022367531 0.47799999 1.6770229e-38
0.060010981 0.022367531 0.47799999 1.4749834e-38
-0.0020844147 0.017504435 0.40400001 1.5391214e-38
-0.00069481367 0.017504435 0.40400001 1.4100475e-38
0.0006947873 0.017504435 0.40400001 1.3363603e-38
0.0020844147 0.017504435 0.40400001 1.3363603e-38
0.0034740157 0.017504435 0.40400001 1.419086e-38
0.0048756553 0.017547762 0.405 1.1056208e-38
0.0062686959 0.017547762 0.405 1.1974604e-38
0.007699572 0.017634418 0.40700001 1.4556082e-38
0.0091218492 0.017677745 0.40799999 1.3819984e-38
0.010551006 0.017721074 0.40900001 1.4188766e-38
0.012250199 0.018154349 0.419 1.3636659e-38
0.013658717 0.018111022 0.41800001 1.3360072e-38
0.015096473 0.018111022 0.41800001 1.3541942e-38
0.016573783 0.018154349 0.419 1.3726334e-38
0.018057974 0.018197678 0.41999999 1.418552e-38
0.019734783 0.018414319 0.42500001 1.4462106e-38
0.021346267 0.018544301 0.428 1.3541942e-38
0.022818418 0.018544301 0.428 1.2619986e-38
0.024290569 0.018544301 0.428 1.2711834e-38
0.026304461 0.018934252 0.43700001 1.2711834e-38
0.027807569 0.018934252 0.43700001 1.2621078e-38
0.029377747 0.018977579 0.43799999 1.2805469e-38
0.030954808 0.019020908 0.43900001 1.3174612e-38
0.032538775 0.019064235 0.44 1.3174612e-38
0.034052201 0.019064235 0.44 1.2989507e-38
0.035646461 0.019107563 0.44100001 1.3081703e-38
0.037163328 0.019107563 0.44100001 1.2807627e-38
0.0387679 0.01915089 0.442 1.2992018e-38
0.040470511 0.019237546 0.44400001 1.3361164e-38
0.042092282 0.019280873 0.44499999 9.8577297e-39
0.043720964 0.019324202 0.44600001 1.2340159e-38
0.045356497 0.019367529 0.447 1.5382615e-38
0.049411803 0.020407395 0.47099999 1.4832318e-38
0.0511402 0.020450724 0.472 1.2527428e-38
0.052875485 0.020494051 0.47299999 1.1605474e-38
0.054848101 0.020624036 0.47600001 1.252743e-38
0.05660405 0.020667363 0.477 1.3542293e-38
0.05836685 0.020710692 0.47799999 1.5109618e-38
0.060010981 0.020710692 0.47799999 1.5025695e-38
-0.00069481367 0.016104072 0.40400001 1.0228243e-38
0.0006947873 0.016104072 0.40400001 1.0412614e-38
0.0020844147 0.016104072 0.40400001 1.0965788e-38
0.0034740157 0.016104072 0.40400001 1.1426789e-38
0.0048756553 0.016143933 0.405 1.0043854e-38
0.0062686959 0.016143933 0.405 1.1701267e-38
0.007699572 0.016223656 0.40700001 1.3176397e-38
0.0091218492 0.016263517 0.40799999 1.3450838e-38
0.010551006 0.016303379 0.40900001 1.3727425e-38
0.012250199 0.016701994 0.419 1.3544466e-38
0.013626041 0.016622271 0.417 1.3360075e-38
0.015060357 0.016622271 0.417 1.3633785e-38
0.016534228 0.016662132 0.41800001 1.3818176e-38
0.018057974 0.016741855 0.41999999 1.4094753e-38
0.019827651 0.017020887 0.42699999 1.3910362e-38
0.021346267 0.017060749 0.428 1.2157213e-38
0.022818418 0.017060749 0.428 1.2894778e-38
0.024801353 0.017419502 0.43700001 1.2435247e-38
0.026304461 0.017419502 0.43700001 1.280403e-38
0.027807569 0.017419502 0.43700001 1.2437412e-38
0.029377747 0.017459365 0.43799999 1.289839e-38
0.030954808 0.017499227 0.43900001 1.3174251e-38
0.032464825 0.017499227 0.43900001 1.3082056e-38
0.034129597 0.01757895 0.44100001 1.2897665e-38
0.035646461 0.01757895 0.44100001 1.2897665e-38
0.037247594 0.017618811 0.442 1.2623586e-38
0.0387679 0.017618811 0.442 1.317676e-38
0.040470511 0.017698534 0.44400001 1.3546271e-38
0.042186871 0.017778257 0.44600001 1.0135033e-38
0.043720964 0.017778257 0.44600001 1.2247611e-38
0.045356497 0.017818119 0.447 1.2616393e-38
0.049411803 0.018774794 0.47099999 1.1605824e-38
0.0511402 0.018814657 0.472 1.169802e-38
0.052875485 0.018854519 0.47299999 1.215866e-38
0.054963324 0.019013966 0.477 1.2343052e-38
0.056722719 0.019053826 0.47799999 1.2253724e-38
0.05836685 0.019053826 0.47799999 1.2714703e-38
0.060010981 0.019053826 0.47799999 1.2165448e-38
-0.00069481367 0.014703709 0.40400001 9.951293e-39
0.0006947873 0.014703709 0.40400001 1.0043129e-38
0.0020844147 0.014703709 0.40400001 1.0411911e-38
0.0034740157 0.014703709 0.40400001 9.9513056e-39
0.0048756553 0.014740104 0.405 9.4903275e-39
0.0062686959 0.014740104 0.405 1.2989867e-38
0.007699572 0.014812895 0.40700001 1.335865e-38
0.0091218492 0.014849289 0.40799999 1.3084214e-38
0.010551006 0.014885685 0.40900001 1.2992018e-38
0.012250199 0.015249638 0.419 1.326716e-38
0.013626041 0.015176848 0.417 1.3174965e-38
0.015060357 0.015176848 0.417 1.372527e-38
0.016534228 0.015213243 0.41800001 1.4001857e-38
0.018401936 0.015577196 0.428 1.4001839e-38
0.019874087 0.015577196 0.428 1.2618904e-38
0.021346267 0.015577196 0.428 1.2527443e-38
0.02324493 0.015868358 0.43599999 1.2711834e-38
0.024744598 0.015868358 0.43599999 1.2620725e-38
0.026244266 0.015868358 0.43599999 1.2897311e-38
0.027807569 0.015904754 0.43700001 1.2806908e-38
0.029310677 0.015904754 0.43700001 1.2806908e-38
0.030884294 0.015941149 0.43799999 1.3082419e-38
0.032464825 0.015977545 0.43900001 1.2990223e-38
0.034129597 0.016050335 0.44100001 1.2622522e-38
0.035646461 0.016050335 0.44100001 1.2530327e-38
0.037247594 0.016086731 0.442 1.253139e-38
0.0387679 0.016086731 0.442 1.2900173e-38
0.040470511 0.016159521 0.44400001 1.3362959e-38
0.042186871 0.016232312 0.44600001 1.059709e-38
0.043720964 0.016232312 0.44600001 1.2155784e-38
0.045559436 0.016341498 0.449 1.2155784e-38
0.049411803 0.017142193 0.47099999 1.1697314e-38
0.0511402 0.017178589 0.472 1.1881705e-38
0.052987274 0.017251382 0.47400001 1.2065749e-38
0.054963324 0.017360566 0.477 1.1973553e-38
0.056722719 0.017396962 0.47799999 1.1790576e-38
0.058488958 0.017433358 0.479 1.0499837e-38
0.060136531 0.017433358 0.479 8.4801188e-39
0.0006947873 0.013303366 0.40400001 9.5839174e-39
0.0020844147 0.013303366 0.40400001 1.0044896e-38
0.0034740157 0.013303366 0.40400001 9.8576106e-39
0.0048756553 0.013336295 0.405 1.0042002e-38
0.0062686959 0.013336295 0.405 1.3637751e-38
0.0092112795 0.013566799 0.412 1.3174965e-38
0.010628397 0.013566799 0.412 1.3451552e-38
0.012045542 0.013566799 0.412 1.3359003e-38
0.013462659 0.013566799 0.412 1.3266807e-38
0.015457633 0.014093664 0.428 1.3723832e-38
0.016929785 0.014093664 0.428 1.418481e-38
0.018401936 0.014093664 0.428 1.316958e-38
0.019874087 0.014093664 0.428 1.252421e-38
0.021745261 0.014357097 0.43599999 1.2895507e-38
0.023191616 0.014324169 0.435 1.2803311e-38
0.024687845 0.014324169 0.435 1.2988781e-38
0.026244266 0.014357097 0.43599999 1.3265368e-38
0.027743934 0.014357097 0.43599999 1.2991299e-38
0.029310677 0.014390027 0.43700001 1.3083495e-38
0.030813785 0.014390027 0.43700001 1.2991299e-38
0.032464825 0.014455886 0.43900001 1.2806908e-38
0.034129597 0.014521744 0.44100001 1.2438844e-38
0.035646461 0.014521744 0.44100001 1.2346649e-38
0.037247594 0.014554673 0.442 1.253139e-38
0.038855612 0.014587602 0.44299999 1.2715782e-38
0.040470511 0.014620531 0.44400001 1.3546624e-38
0.042186871 0.01468639 0.44600001 1.1057342e-38
0.043818995 0.014719319 0.447 1.1879181e-38
0.045559436 0.014785177 0.449 1.169479e-38
0.049516708 0.015542546 0.472 1.178843e-38
0.0511402 0.015542546 0.472 1.2065017e-38
0.052987274 0.015608405 0.47400001 1.1883134e-38
0.054963324 0.015707191 0.477 1.1053374e-38
0.056722719 0.015740121 0.47799999 9.6732894e-39
0.058488958 0.01577305 0.479 9.02792e-39
0.060136531 0.01577305 0.479 5.163953e-39
0.012922644 0.013022615 0.442 1.3266441e-38
0.01444295 0.013022615 0.442 1.3450833e-38
0.015493749 0.012639595 0.42899999 1.4646858e-38
0.01696934 0.012639595 0.42899999 1.4646858e-38
0.018444931 0.012639595 0.42899999 1.3447967e-38
0.019920522 0.012639595 0.42899999 1.2618206e-38
0.021695387 0.012816374 0.435 1.2986989e-38
0.023191616 0.012816374 0.435 1.3447967e-38
0.024687845 0.012816374 0.435 1.3359003e-38
0.026184073 0.012816374 0.435 1.3174612e-38
0.027680302 0.012816374 0.435 1.3266807e-38
0.029243603 0.012845837 0.43599999 1.3174612e-38
0.030813785 0.0128753 0.43700001 1.2715431e-38
0.03239087 0.012904762 0.43799999 1.2623236e-38
0.034052201 0.012963688 0.44 1.253104e-38
0.035646461 0.012993152 0.44100001 1.2346649e-38
0.037247594 0.013022615 0.442 1.2346999e-38
0.038855612 0.013052077 0.44299999 1.253139e-38
0.040561657 0.013111003 0.44499999 1.3270388e-38
0.042186871 0.013140467 0.44600001 1.4653322e-38
0.043818995 0.013169929 0.447 1.4009392e-38
0.045356497 0.013169929 0.447 1.4009392e-38
0.049726527 0.013965428 0.47400001 1.4103751e-38
0.0513569 0.013965428 0.47400001 1.4564729e-38
0.052987274 0.013965428 0.47400001 1.3182142e-38
0.054963324 0.014053817 0.477 9.2177301e-39
0.056722719 0.014083279 0.47799999 8.4772321e-39
0.058488958 0.014112743 0.479 8.2006452e-39
0.012922644 0.011490534 0.442 1.5293309e-38
0.01444295 0.011490534 0.442 1.6676243e-38
0.015963256 0.011490534 0.442 1.5754297e-38
0.017206673 0.011308557 0.435 1.4647949e-38
0.018702902 0.011308557 0.435 1.4091899e-38
0.020199129 0.011308557 0.435 1.3538725e-38
0.021695387 0.011308557 0.435 1.3633435e-38
0.023138301 0.01128256 0.43399999 1.3817826e-38
0.02463109 0.01128256 0.43399999 1.3543757e-38
0.026184073 0.011308557 0.435 1.3820344e-38
0.027680302 0.011308557 0.435 1.3637388e-38
0.029243603 0.011334553 0.43599999 1.3084214e-38
0.030813785 0.011360551 0.43700001 1.2900541e-38
0.032316923 0.011360551 0.43700001 1.271615e-38
0.034052201 0.011438541 0.44 1.2254816e-38
0.035646461 0.011464538 0.44100001 1.2254816e-38
0.037247594 0.011490534 0.442 1.2071141e-38
0.038855612 0.011516531 0.44299999 1.2163337e-38
0.040561657 0.011568524 0.44499999 1.2533899e-38
0.042186871 0.011594522 0.44600001 1.4838789e-38
0.043818995 0.011620518 0.447 1.4291379e-38
0.045559436 0.011672512 0.449 1.4106988e-38
0.012922644 0.0099584544 0.442 1.5014577e-38
0.01444295 0.0099584544 0.442 1.5752142e-38
0.015927142 0.0099359248 0.44100001 1.5846493e-38
0.017206673 0.0098007414 0.435 1.5016732e-38
0.018702902 0.0098007414 0.435 1.4554315e-38
0.020199129 0.0098007414 0.435 1.381675e-38
0.021695387 0.0098007414 0.435 1.3727425e-38
0.023138301 0.00977821 0.43399999 1.3727425e-38
0.02463109 0.00977821 0.43399999 1.3727788e-38
0.026184073 0.0098007414 0.435 1.3912179e-38
0.027680302 0.0098007414 0.435 1.4004372e-38
0.029176531 0.0098007414 0.435 1.3912177e-38
0.030743271 0.0098232711 0.43599999 1.3176763e-38
0.032316923 0.0098458026 0.43700001 1.2992371e-38
0.034052201 0.0099133933 0.44 1.2441002e-38
0.035646461 0.0099359248 0.44100001 1.1980024e-38
0.037247594 0.0099584544 0.442 1.2255535e-38
0.038943324 0.010003516 0.44400001 1.2347731e-38
0.040561657 0.010026045 0.44499999 1.2257675e-38
0.042186871 0.010048577 0.44600001 1.4839152e-38
0.043917026 0.010093637 0.44800001 1.4198465e-38
0.045559436 0.010116167 0.449 1.4106269e-38
0.012922644 0.0084263962 0.442 1.5106416e-38
0.014410274 0.008407332 0.44100001 1.5198612e-38
0.015927142 0.008407332 0.44100001 1.5846495e-38
0.017206673 0.008292946 0.435 1.5201126e-38
0.018702902 0.008292946 0.435 1.4831625e-38
0.020199129 0.008292946 0.435 1.4278451e-38
0.021695387 0.008292946 0.435 1.3910737e-38
0.023138301 0.0082738819 0.43399999 1.3910737e-38
0.02463109 0.0082738819 0.43399999 1.3727425e-38
0.026184073 0.008292946 0.435 1.3727425e-38
0.027680302 0.008292946 0.435 1.3636309e-38
0.029176531 0.008292946 0.435 1.38207e-38
0.030743271 0.0083120102 0.43599999 1.3546258e-38
0.032316923 0.0083310753 0.43700001 1.3177476e-38
0.034052201 0.0083882678 0.44 1.2625744e-38
0.03556563 0.0083882678 0.44 1.2349157e-38
0.037247594 0.0084263962 0.442 1.2164416e-38
0.038943324 0.0084645245 0.44400001 1.2256611e-38
0.040561657 0.0084835887 0.44499999 1.1888908e-38
0.042186871 0.0085026538 0.44600001 1.4746972e-38
0.043917026 0.0085407812 0.44800001 1.4289581e-38
0.045660902 0.0085789105 0.44999999 1.4197386e-38
0.011402309 0.0068943165 0.442 1.4006548e-38
0.012922644 0.0068943165 0.442 1.4922754e-38
0.014410274 0.0068787187 0.44100001 1.5107145e-38
0.015891025 0.00686312 0.44 1.5754303e-38
0.017246228 0.0068007279 0.43599999 1.5016738e-38
0.018702902 0.0067851301 0.435 1.4277012e-38
0.020199129 0.0067851301 0.435 1.409262e-38
0.021695387 0.0067851301 0.435 1.3725981e-38
0.023191616 0.0067851301 0.435 1.3910372e-38
0.024687845 0.0067851301 0.435 1.3634874e-38
0.026184073 0.0067851301 0.435 1.3634874e-38
0.027680302 0.0067851301 0.435 1.3543034e-38
0.029243603 0.0068007279 0.43599999 1.3543034e-38
0.030743271 0.0068007279 0.43599999 1.3451552e-38
0.032316923 0.0068163262 0.43700001 1.3359356e-38
0.034052201 0.00686312 0.44 1.2532469e-38
0.03556563 0.00686312 0.44 1.2348078e-38
0.037247594 0.0068943165 0.442 1.2347368e-38
0.038943324 0.0069255126 0.44400001 1.2531759e-38
0.040561657 0.0069411104 0.44499999 1.2164778e-38
0.042186871 0.0069567086 0.44600001 1.4285278e-38
0.044211112 0.007034698 0.45100001 1.4014429e-38
0.045762375 0.007034698 0.45100001 1.4014429e-38
0.011402309 0.0053622583 0.442 1.4466079e-38
0.012893408 0.0053501264 0.44100001 1.4647246e-38
0.014410274 0.0053501264 0.44100001 1.5016028e-38
0.015891025 0.0053379945 0.44 1.5939783e-38
0.017285785 0.0053015989 0.43700001 1.5571e-38
0.018702902 0.0052773356 0.435 1.4646873e-38
0.020199129 0.0052773356 0.435 1.4093699e-38
0.021695387 0.0052773356 0.435 1.3725986e-38
0.023191616 0.0052773356 0.435 1.3818182e-38
0.024687845 0.0052773356 0.435 1.3542681e-38
0.026184073 0.0052773356 0.435 1.3450485e-38
0.027680302 0.0052773356 0.435 1.3266454e-38
0.029243603 0.0052894671 0.43599999 1.3082063e-38
0.030743271 0.0052894671 0.43599999 1.2899104e-38
0.032316923 0.0053015989 0.43700001 1.2714712e-38
0.034052201 0.0053379945 0.44 1.2346649e-38
0.035646461 0.0053501264 0.44100001 1.2254453e-38
0.037247594 0.0053622583 0.442 1.216262e-38
0.038943324 0.005386522 0.44400001 1.2623599e-38
0.040561657 0.0053986534 0.44499999 1.2625757e-38
0.042186871 0.0054107853 0.44600001 1.4561865e-38
0.044211112 0.0054714442 0.45100001 1.4106622e-38
0.045762375 0.0054714442 0.45100001 1.3922231e-38
0.011402309 0.0038301782 0.442 1.4375328e-38
0.012893408 0.0038215127 0.44100001 1.5200423e-38
0.014410274 0.0038215127 0.44100001 1.5569205e-38
0.015891025 0.003812847 0.44 1.6401111e-38
0.017285785 0.0037868503 0.43700001 1.5663546e-38
0.018702902 0.0037695193 0.435 1.4555028e-38
0.020199129 0.0037695193 0.435 1.3909658e-38
0.021695387 0.0037695193 0.435 1.3725996e-38
0.023191616 0.0037695193 0.435 1.3725996e-38
0.024687845 0.0037695193 0.435 1.3727072e-38
0.026184073 0.0037695193 0.435 1.335829e-38
0.027680302 0.0037695193 0.435 1.3266454e-38
0.029243603 0.0037781845 0.43599999 1.3082063e-38
0.030743271 0.0037781845 0.43599999 1.2715782e-38
0.032316923 0.0037868503 0.43700001 1.2254803e-38
0.034052201 0.003812847 0.44 1.2162258e-38
0.035646461 0.0038215127 0.44100001 1.2070062e-38
0.037247594 0.0038301782 0.442 1.1977866e-38
0.038943324 0.0038475094 0.44400001 1.2162258e-38
0.040652808 0.0038648406 0.44600001 1.2255522e-38
0.042186871 0.0038648406 0.44600001 1.4744804e-38
0.044897314 0.003968827 0.458 1.4014429e-38
0.011402309 0.0022980981 0.442 1.4283861e-38
0.012893408 0.0022928989 0.44100001 1.5478439e-38
0.014377597 0.0022876994 0.44 1.5478439e-38
0.015854908 0.0022825003 0.43900001 1.6213843e-38
0.017246228 0.0022669022 0.43599999 1.584506e-38
0.018702902 0.0022617029 0.435 1.4831249e-38
0.020199129 0.0022617029 0.435 1.4278075e-38
0.021695387 0.0022617029 0.435 1.3910024e-38
0.023191616 0.0022617029 0.435 1.400222e-38
0.024687845 0.0022617029 0.435 1.3727072e-38
0.026184073 0.0022617029 0.435 1.3542681e-38
0.027680302 0.0022617029 0.435 1.3359006e-38
0.029243603 0.0022669022 0.43599999 1.3174614e-38
0.030743271 0.0022669022 0.43599999 1.2623236e-38
0.032316923 0.0022721016 0.43700001 1.2438844e-38
0.034052201 0.0022876994 0.44 1.2162976e-38
0.035646461 0.0022928989 0.44100001 1.1978585e-38
0.037247594 0.0022980981 0.442 1.1702714e-38
0.038943324 0.0023084967 0.44400001 1.1610519e-38
0.040652808 0.0023188954 0.44600001 1.216368e-38
0.042186871 0.0023188954 0.44600001 1.511394e-38
0.044015054 0.0023344934 0.449 1.4014429e-38
0.045660902 0.0023396926 0.44999999 1.3922234e-38
0.011402309 0.00076604 0.442 1.5111461e-38
0.012893408 0.00076430693 0.44100001 1.5571711e-38
0.014344921 0.00076084066 0.43900001 1.4926341e-38
0.015818791 0.00075910747 0.43799999 1.6307123e-38
0.017246228 0.0007556412 0.43599999 1.5292971e-38
0.018702902 0.00075390813 0.435 1.4646154e-38
0.020199129 0.00075390813 0.435 1.4277372e-38
0.021695387 0.00075390813 0.435 1.3819265e-38
0.023191616 0.00075390813 0.435 1.3727069e-38
0.024687845 0.00075390813 0.435 1.3727432e-38
0.026184073 0.00075390813 0.435 1.3635237e-38
0.027680302 0.00075390813 0.435 1.2900188e-38
0.029243603 0.0007556412 0.43599999 1.2807993e-38
0.030813785 0.00075737439 0.43700001 1.271615e-38
0.032316923 0.00075737439 0.43700001 1.2439563e-38
0.034052201 0.00076257373 0.44 1.188675e-38
0.035646461 0.00076430693 0.44100001 1.1702358e-38
0.037331868 0.00076777308 0.44299999 1.1610869e-38
0.038943324 0.00076950627 0.44400001 1.1426478e-38
0.040652808 0.00077297253 0.44600001 1.1426478e-38
0.04228146 0.00077470561 0.447 1.4929912e-38
0.044015054 0.00077817187 0.449 1.4013713e-38
0.045660902 0.00077990495 0.44999999 1.4013713e-38
0.047208726 0.00077990495 0.44999999 1.3921868e-38
0.011402309 -0.00076604 0.442 1.5758263e-38
0.012864171 -0.00076257373 0.44 1.5848653e-38
0.014344921 -0.00076084066 0.43900001 1.4926697e-38
0.015782677 -0.00075737439 0.43700001 1.6860294e-38
0.017246228 -0.0007556412 0.43599999 1.5016382e-38
0.018702902 -0.00075390813 0.435 1.4370652e-38
0.020199129 -0.00075390813 0.435 1.4186261e-38
0.021695387 -0.00075390813 0.435 1.391074e-38
0.023191616 -0.00075390813 0.435 1.391074e-38
0.024687845 -0.00075390813 0.435 1.3727069e-38
0.026184073 -0.00075390813 0.435 1.3727069e-38
0.027680302 -0.00075390813 0.435 1.3176412e-38
0.029243603 -0.0007556412 0.43599999 1.2715434e-38
0.030813785 -0.00075737439 0.43700001 1.253104e-38
0.03239087 -0.00075910747 0.43799999 1.2346649e-38
0.034052201 -0.00076257373 0.44 1.1979296e-38
0.035646461 -0.00076430693 0.44100001 1.1702709e-38
0.037416138 -0.00076950627 0.44400001 1.1335002e-38
0.039031032 -0.00077123934 0.44499999 1.0874024e-38
0.040652808 -0.00077297253 0.44600001 1.0322301e-38
0.042376053 -0.00077643868 0.44800001 1.4378909e-38
0.044015054 -0.00077817187 0.449 1.4014073e-38
0.012864171 -0.0022876994 0.44 1.6494023e-38
0.014344921 -0.0022825003 0.43900001 1.6033045e-38
0.01574656 -0.0022669022 0.43599999 1.7045058e-38
0.017206673 -0.0022617029 0.435 1.4647972e-38
0.018659905 -0.0022565036 0.43399999 1.4462842e-38
0.020152694 -0.0022565036 0.43399999 1.4186255e-38
0.021645512 -0.0022565036 0.43399999 1.3911461e-38
0.023138301 -0.0022565036 0.43399999 1.3911461e-38
0.02463109 -0.0022565036 0.43399999 1.3727785e-38
0.026184073 -0.0022617029 0.435 1.363559e-38
0.027680302 -0.0022617029 0.435 1.3359006e-38
0.029243603 -0.0022669022 0.43599999 1.326681e-38
0.030743271 -0.0022669022 0.43599999 1.2807627e-38
0.03239087 -0.0022773009 0.43799999 1.2254453e-38
0.034052201 -0.0022876994 0.44 1.1978935e-38
0.035727289 -0.0022980981 0.442 1.1794544e-38
0.037416138 -0.0023084967 0.44400001 1.1517955e-38
0.039031032 -0.0023136961 0.44499999 1.0411607e-38
0.040652808 -0.0023188954 0.44600001 1.0785444e-38
0.042565227 -0.0023396926 0.44999999 1.4381074e-38
0.044211112 -0.0023448919 0.45100001 1.3830035e-38
0.012864171 -0.003812847 0.44 5.7121886e-39
0.014344921 -0.0038041815 0.43900001 8.4780575e-39
0.01574656 -0.0037781845 0.43599999 1.6307493e-38
0.017206673 -0.0037695193 0.435 1.4832363e-38
0.018659905 -0.0037608533 0.43399999 1.4923457e-38
0.020152694 -0.0037608533 0.43399999 1.4462479e-38
0.021645512 -0.0037608533 0.43399999 1.4003656e-38
0.023138301 -0.0037608533 0.43399999 1.4003656e-38
0.02463109 -0.0037608533 0.43399999 1.4004012e-38
0.026184073 -0.0037695193 0.435 1.4188403e-38
0.027680302 -0.0037695193 0.435 1.3453349e-38
0.029176531 -0.0037695193 0.435 1.3268958e-38
0.030743271 -0.0037781845 0.43599999 1.3084201e-38
0.03239087 -0.0037955157 0.43799999 1.2715419e-38
0.034052201 -0.003812847 0.44 1.2070412e-38
0.035727289 -0.0038301782 0.442 1.1793825e-38
0.037416138 -0.0038475094 0.44400001 1.1610506e-38
0.039031032 -0.0038561746 0.44499999 1.068855e-38
0.040835109 -0.0038821714 0.44800001 1.2813745e-38
0.042470641 -0.0038908371 0.449 1.4104484e-38
0.044211112 -0.0039081681 0.45100001 1.373784e-38
0.018702902 -0.0052773138 0.435 1.2717246e-38
0.020199129 -0.0052773138 0.435 1.3731398e-38
0.021695387 -0.0052773138 0.435 1.4743022e-38
0.023191616 -0.0052773138 0.435 1.4282044e-38
0.024687845 -0.0052773138 0.435 1.446535e-38
0.026184073 -0.0052773138 0.435 1.4373155e-38
0.027680302 -0.0052773138 0.435 1.409764e-38
0.029176531 -0.0052773138 0.435 1.3913249e-38
0.030813785 -0.0053015775 0.43700001 1.336187e-38
0.03239087 -0.0053137089 0.43799999 1.2532109e-38
0.034052201 -0.0053379727 0.44 1.2255875e-38
0.03580812 -0.0053743678 0.44299999 1.1794897e-38
0.037416138 -0.0053864997 0.44400001 1.161015e-38
0.039031032 -0.0053986316 0.44499999 1.1149172e-38
0.040835109 -0.0054350267 0.44800001 1.4011199e-38
0.042470641 -0.0054471586 0.449 1.4287786e-38
0.044211112 -0.0054714219 0.45100001 1.3921512e-38
0.018745895 -0.0068007279 0.43599999 2.5829448e-39
0.020245565 -0.0068007279 0.43599999 4.1502705e-39
0.021745261 -0.0068007279 0.43599999 6.2657127e-39
0.02324493 -0.0068007279 0.43599999 9.0315816e-39
0.024687845 -0.0067851301 0.435 1.0504188e-38
0.026184073 -0.0067851301 0.435 1.151834e-38
0.027680302 -0.0067851301 0.435 1.207223e-38
0.029176531 -0.0067851301 0.435 1.2533208e-38
0.030813785 -0.0068163262 0.43700001 1.2624317e-38
0.032464825 -0.0068475222 0.43900001 1.2439926e-38
0.034206983 -0.0068943165 0.442 1.2255522e-38
0.035888955 -0.0069255126 0.44400001 1.2163327e-38
0.037416138 -0.0069255126 0.44400001 1.0782547e-38
0.039118744 -0.0069567086 0.44600001 1.2718656e-38
0.040652808 -0.0069567086 0.44600001 1.3922597e-38
0.018745895 -0.0083119888 0.43599999 4.7027184e-39
0.020245565 -0.0083119888 0.43599999 4.7027184e-39
0.021745261 -0.0083119888 0.43599999 4.5168824e-39
0.02324493 -0.0083119888 0.43599999 3.6871217e-39
0.024687845 -0.0082929246 0.435 2.7676864e-39
0.026184073 -0.0082929246 0.435 1.0159694e-39
0.027680302 -0.0082929246 0.435 4.6279563e-40
0.029176531 -0.0082929246 0.435 1.9379257e-39
0.030954808 -0.0083691822 0.43900001 3.7796677e-39
0.034361769 -0.0084645031 0.44400001 6.3586118e-39
0.035888955 -0.0084645031 0.44400001 6.0820249e-39
0.037500408 -0.0084835673 0.44499999 6.3621991e-39
0.039118744 -0.0085026314 0.44600001 1.4475415e-38
0.040652808 -0.0085026314 0.44600001 1.3829672e-38
0.018745895 -0.0098232711 0.43599999 4.978599e-39
0.020245565 -0.0098232711 0.43599999 5.1629903e-39
0.021745261 -0.0098232711 0.43599999 4.8871097e-39
0.02324493 -0.0098232711 0.43599999 4.794914e-39
0.024744598 -0.0098232711 0.43599999 4.8874628e-39
0.026244266 -0.0098232711 0.43599999 4.7030715e-39
0.027807569 -0.0098458026 0.43700001 4.0548253e-39
0.029310677 -0.0098458026 0.43700001 2.6718908e-39
0.030954808 -0.0098908637 0.43900001 3.0421055e-39
0.017246228 -0.011334532 0.43599999 6.1767793e-39
0.018702902 -0.011308536 0.435 5.3473816e-39
0.020199129 -0.011308536 0.435 5.2551859e-39
0.021745261 -0.011334532 0.43599999 4.7052295e-39
0.023191616 -0.011308536 0.435 4.5208383e-39
0.024687845 -0.011308536 0.435 4.9796584e-39
0.026244266 -0.011334532 0.43599999 5.0718541e-39
0.027807569 -0.01136053 0.43700001 5.2565956e-39
0.029310677 -0.01136053 0.43700001 4.426835e-39
0.030954808 -0.011412523 0.43900001 4.4246868e-39
0.032538775 -0.011438519 0.44 4.3324912e-39
0.038943324 -0.011542507 0.44400001 1.3185773e-38
0.040470511 -0.011542507 0.44400001 1.3645644e-38
0.041997693 -0.011542507 0.44400001 1.3553448e-38
0.017246228 -0.012845815 0.43599999 5.073303e-39
0.018702902 -0.012816352 0.435 5.4399331e-39
0.020199129 -0.012816352 0.435 5.3477375e-39
0.021745261 -0.012845815 0.43599999 5.0718541e-39
0.023191616 -0.012816352 0.435 4.8874628e-39
0.024687845 -0.012816352 0.435 5.0718541e-39
0.026244266 -0.012845815 0.43599999 5.1640497e-39
0.027743934 -0.012845815 0.43599999 5.5328322e-39
0.029310677 -0.012875278 0.43700001 6.086006e-39
0.030884294 -0.012904741 0.43799999 5.1644e-39
0.032464825 -0.012934204 0.43900001 4.426835e-39
0.034052201 -0.012963667 0.44 4.6108759e-39
0.035888955 -0.013081519 0.44400001 4.9796584e-39
0.037416138 -0.013081519 0.44400001 5.8104729e-39
0.038943324 -0.013081519 0.44400001 1.3093928e-38
0.040470511 -0.013081519 0.44400001 1.346125e-38
0.041997693 -0.013081519 0.44400001 1.3553446e-38
0.018745895 -0.014357097 0.43599999 5.4395772e-39
0.020199129 -0.014324169 0.435 5.4395772e-39
0.021695387 -0.014324169 0.435 5.0718541e-39
0.023191616 -0.014324169 0.435 4.7952672e-39
0.024687845 -0.014324169 0.435 5.1636966e-39
0.026184073 -0.014324169 0.435 5.1636966e-39
0.027743934 -0.014357097 0.43599999 5.1658546e-39
0.029310677 -0.014390027 0.43700001 6.0878109e-39
0.030884294 -0.014422956 0.43799999 5.7193787e-39
0.032464825 -0.014455886 0.43900001 5.1662049e-39
0.034052201 -0.014488814 0.44 4.8874628e-39
0.035888955 -0.014620531 0.44400001 4.7952672e-39
0.037416138 -0.014620531 0.44400001 5.2569488e-39
0.038943324 -0.014620531 0.44400001 1.3277969e-38
0.040470511 -0.014620531 0.44400001 1.3461606e-38
0.041997693 -0.014620531 0.44400001 1.336941e-38
0.018745895 -0.015868358 0.43599999 5.4395772e-39
0.020199129 -0.015831964 0.435 5.4395772e-39
0.021695387 -0.015831964 0.435 4.9800088e-39
0.023191616 -0.015831964 0.435 4.7034219e-39
0.024687845 -0.015831964 0.435 4.8871097e-39
0.026184073 -0.015831964 0.435 4.9793053e-39
0.027743934 -0.015868358 0.43599999 4.7027184e-39
0.029243603 -0.015868358 0.43599999 5.7168703e-39
0.030813785 -0.015904754 0.43700001 6.0856501e-39
0.032464825 -0.015977545 0.43900001 6.0856501e-39
0.034052201 -0.016013939 0.44 5.4406366e-39
0.03580812 -0.016123125 0.44299999 5.2562453e-39
0.037331868 -0.016123125 0.44299999 5.3512996e-39
0.038943324 -0.016159521 0.44400001 1.2634754e-38
0.040470511 -0.016159521 0.44400001 1.336941e-38
0.041997693 -0.016159521 0.44400001 1.336941e-38
0.015891025 -0.017539088 0.44 6.9157835e-39
0.01740445 -0.017539088 0.44 5.2562621e-39
0.018702902 -0.017339779 0.435 4.981113e-39
0.020152694 -0.017299917 0.43399999 4.5201348e-39
0.021645512 -0.017299917 0.43399999 4.7952672e-39
0.023138301 -0.017299917 0.43399999 4.7030715e-39
0.024687845 -0.017339779 0.435 4.7027184e-39
0.026184073 -0.017339779 0.435 4.7027184e-39
0.027680302 -0.017339779 0.435 3.5992645e-39
0.029243603 -0.01737964 0.43599999 5.2587859e-39
0.030813785 -0.017419502 0.43700001 5.9952495e-39
0.03239087 -0.017459365 0.43799999 5.9952495e-39
0.033974811 -0.017499227 0.43900001 5.5328322e-39
0.03580812 -0.017658671 0.44299999 5.0718541e-39
0.037331868 -0.017658671 0.44299999 6.4558423e-39
0.038943324 -0.017698534 0.44400001 1.2909536e-38
0.040470511 -0.017698534 0.44400001 1.3276499e-38
0.015891025 -0.019064212 0.44 6.1800191e-39
0.017206673 -0.018847574 0.435 5.7190409e-39
0.018659905 -0.018804245 0.43399999 5.6243244e-39
0.020152694 -0.018804245 0.43399999 5.2555419e-39
0.021645512 -0.018804245 0.43399999 4.9796584e-39
0.023138301 -0.018804245 0.43399999 5.0718541e-39
0.024687845 -0.018847574 0.435 4.7048764e-39
0.026184073 -0.018847574 0.435 4.8892677e-39
0.027680302 -0.018847574 0.435 4.8892677e-39
0.029243603 -0.018890901 0.43599999 5.2580502e-39
0.030813785 -0.018934229 0.43700001 6.5459149e-39
0.032316923 -0.018934229 0.43700001 6.1771324e-39
0.033897419 -0.018977556 0.43799999 5.9016147e-39
0.014279569 -0.020448979 0.43700001 7.6540576e-39
0.015782677 -0.020448979 0.43700001 6.1789401e-39
0.017206673 -0.02035539 0.435 5.7179619e-39
0.018659905 -0.020308595 0.43399999 5.3502458e-39
0.020152694 -0.020308595 0.43399999 5.2580502e-39
0.021645512 -0.020308595 0.43399999 5.8076212e-39
0.023138301 -0.020308595 0.43399999 5.62323e-39
0.02463109 -0.020308595 0.43399999 5.2580502e-39
0.026184073 -0.02035539 0.435 5.6268327e-39
0.027680302 -0.02035539 0.435 5.6250278e-39
0.029243603 -0.020402184 0.43599999 5.6250278e-39
0.030813785 -0.020448979 0.43700001 6.4537193e-39
0.032316923 -0.020448979 0.43700001 6.1771324e-39
0.033897419 -0.020495772 0.43799999 5.7190255e-39
0.014279569 -0.021963706 0.43700001 7.0093986e-39
0.01574656 -0.021913445 0.43599999 6.2689777e-39
0.017206673 -0.021863185 0.435 6.1767821e-39
0.018659905 -0.021812923 0.43399999 5.2580502e-39
0.020152694 -0.021812923 0.43399999 4.9814633e-39
0.021645512 -0.021812923 0.43399999 5.0740121e-39
0.023084989 -0.021762665 0.433 5.0740121e-39
0.024574338 -0.021762665 0.433 5.7168703e-39
0.026123879 -0.021812923 0.43399999 5.809066e-39
0.027680302 -0.021863185 0.435 5.5324791e-39
0.029176531 -0.021863185 0.435 5.4402834e-39
0.030743271 -0.021913445 0.43599999 5.7168703e-39
0.032316923 -0.021963706 0.43700001 6.1778485e-39
0.033897419 -0.022013966 0.43799999 5.9938104e-39
0.014246891 -0.023424728 0.43599999 6.4558745e-39
0.01574656 -0.023424728 0.43599999 6.4537193e-39
0.017206673 -0.023371002 0.435 5.7161543e-39
0.018659905 -0.023317274 0.43399999 5.0733086e-39
0.020152694 -0.023317274 0.43399999 4.5201348e-39
0.021645512 -0.023317274 0.43399999 4.8892677e-39
0.023084989 -0.023263548 0.433 5.3502458e-39
0.024574338 -0.023263548 0.433 5.7168703e-39
0.026063688 -0.023263548 0.433 5.7168703e-39
0.027616668 -0.023317274 0.43399999 4.6130339e-39
0.029176531 -0.023371002 0.435 4.7052295e-39
0.030743271 -0.023424728 0.43599999 5.1658546e-39
0.032316923 -0.023478454 0.43700001 6.548789e-39
0.033897419 -0.02353218 0.43799999 6.7324488e-39
0.011453903 -0.025393531 0.44400001 7.5607731e-39
0.012922644 -0.025279146 0.442 7.2849219e-39
0.014246891 -0.024935989 0.43599999 6.0863787e-39
0.01574656 -0.024935989 0.43599999 5.4395772e-39
0.017206673 -0.024878796 0.435 5.2551859e-39
0.018659905 -0.024821602 0.43399999 5.3480878e-39
0.020152694 -0.024821602 0.43399999 4.5183272e-39
0.021595638 -0.024764411 0.433 4.5215641e-39
0.023031674 -0.024707219 0.43200001 4.798151e-39
0.024517585 -0.024707219 0.43200001 5.3480878e-39
0.026003495 -0.024707219 0.43200001 5.4402834e-39
0.027553037 -0.024764411 0.433 5.4406366e-39
0.029109458 -0.024821602 0.43399999 5.6250278e-39
0.030743271 -0.024935989 0.43599999 5.5346343e-39
0.032316923 -0.024993181 0.43700001 6.1800037e-39
0.033820029 -0.024993181 0.43700001 6.364032e-39
0.0069497391 -0.027235838 0.449 7.2856254e-39
0.0084941229 -0.027235838 0.449 8.0231904e-39
0.0099714333 -0.027053861 0.44600001 7.285275e-39
0.011453903 -0.026932543 0.44400001 7.1930794e-39
0.012864171 -0.026689908 0.44 8.3898303e-39
0.014246891 -0.02644727 0.43599999 7.2834828e-39
0.01574656 -0.02644727 0.43599999 6.547717e-39
0.017206673 -0.026386613 0.435 6.547717e-39
0.018659905 -0.026325952 0.43399999 6.0885241e-39
0.020106262 -0.026265295 0.433 4.8899809e-39
0.021545764 -0.026204636 0.43200001 4.7974252e-39
0.023031674 -0.026204636 0.43200001 4.7052295e-39
0.024517585 -0.026204636 0.43200001 4.8892677e-39
0.026003495 -0.026204636 0.43200001 4.8892677e-39
0.027553037 -0.026265295 0.433 4.8892677e-39
0.029109458 -0.026325952 0.43399999 5.0736589e-39
0.030672759 -0.026386613 0.435 5.7190255e-39
0.032316923 -0.026507931 0.43700001 6.2721993e-39
