# .PCD v0.7 - Point Cloud Data file format
VERSION 0.7
FIELDS x y z rgb
SIZE 4 4 4 4
TYPE F F F F
COUNT 1 1 1 1
WIDTH 989
HEIGHT 1
VIEWPOINT 0 0 0 1 0 0 0
POINTS 989
DATA ascii
0.021805452 -0.0077972561 0.40900001 8.5727839e-39
0.02321225 -0.0077972561 0.40900001 1.2073289e-38
0.024799628 -0.0078544486 0.412 1.4562571e-38
0.026216745 -0.0078544486 0.412 1.6872507e-38
0.0078319972 -0.0093276026 0.414 6.7303034e-39
0.0092336368 -0.0093050711 0.41299999 6.5448359e-39
0.010654193 -0.0093050711 0.41299999 6.0838578e-39
0.012045542 -0.0092825415 0.412 5.5321288e-39
0.013462659 -0.0092825415 0.412 5.0711506e-39
0.014879777 -0.0092825415 0.412 6.3633314e-39
0.01625734 -0.0092600109 0.41100001 5.3491794e-39
0.017671017 -0.0092600109 0.41100001 5.3480878e-39
0.01903826 -0.0092374803 0.41 5.4402834e-39
0.020448525 -0.0092374803 0.41 5.1636966e-39
0.021858765 -0.0092374803 0.41 3.5041752e-39
0.023325758 -0.0092600109 0.41100001 1.1615918e-38
0.024799628 -0.0092825415 0.412 1.7424243e-38
0.026216745 -0.0092825415 0.412 1.7242002e-38
0.004984003 -0.010762607 0.414 7.0079847e-39
0.0064079999 -0.010762607 0.414 6.7317481e-39
0.0078319972 -0.010762607 0.414 6.7317481e-39
0.0092336368 -0.01073661 0.41299999 6.9154037e-39
0.010628397 -0.010710614 0.412 5.4402736e-39
0.012045542 -0.010710614 0.412 5.7161641e-39
0.013462659 -0.010710614 0.412 6.2693379e-39
0.014843661 -0.010684618 0.41100001 6.3644104e-39
0.01625734 -0.010684618 0.41100001 5.8112366e-39
0.017628022 -0.01065862 0.41 5.6257607e-39
0.01903826 -0.01065862 0.41 5.6257607e-39
0.020448525 -0.01065862 0.41 6.2714861e-39
0.021858765 -0.01065862 0.41 5.9027035e-39
0.023325758 -0.010684618 0.41100001 1.0140428e-38
0.024799628 -0.010710614 0.412 1.7792665e-38
0.026216745 -0.010710614 0.412 1.7056885e-38
0.004984003 -0.012197632 0.414 7.1927263e-39
0.0064079999 -0.012197632 0.414 7.1909312e-39
0.0078319972 -0.012197632 0.414 6.9143443e-39
0.0092336368 -0.012168169 0.41299999 6.3636817e-39
0.010628397 -0.012138707 0.412 5.9027035e-39
0.012045542 -0.012138707 0.412 5.8998421e-39
0.013462659 -0.012138707 0.412 6.913994e-39
0.014843661 -0.012109244 0.41100001 7.0068959e-39
0.01625734 -0.012109244 0.41100001 5.992744e-39
0.017628022 -0.01207978 0.41 6.1771352e-39
0.01903826 -0.01207978 0.41 5.992744e-39
0.020448525 -0.01207978 0.41 7.1008838e-39
0.021858765 -0.01207978 0.41 6.54771e-39
0.023325758 -0.012109244 0.41100001 7.745865e-39
0.024739435 -0.012109244 0.41100001 1.5305907e-38
0.026216745 -0.012138707 0.412 1.7148012e-38
0.027633864 -0.012138707 0.412 1.696362e-38
0.0035944022 -0.013764373 0.41800001 7.4696663e-39
0.0049960413 -0.013665586 0.41499999 6.7321013e-39
0.006423478 -0.013665586 0.41499999 6.9161394e-39
0.0078319972 -0.013632657 0.414 6.8239438e-39
0.0092336368 -0.013599727 0.41299999 7.0068959e-39
0.010654193 -0.013599727 0.41299999 6.2693309e-39
0.012045542 -0.013566799 0.412 6.4530131e-39
0.013462659 -0.013566799 0.412 7.0983825e-39
0.014843661 -0.013533871 0.41100001 6.5477226e-39
0.01625734 -0.013533871 0.41100001 5.4413751e-39
0.017542033 -0.013435082 0.40799999 5.719757e-39
0.01894539 -0.013435082 0.40799999 6.2729308e-39
0.020398652 -0.013468012 0.40900001 7.0086882e-39
0.021805452 -0.013468012 0.40900001 7.4696663e-39
0.023269003 -0.01350094 0.41 7.4689278e-39
0.024739435 -0.013533871 0.41100001 1.2631883e-38
0.026216745 -0.013566799 0.412 1.7700094e-38
0.027633864 -0.013566799 0.412 1.714692e-38
0.0035858031 -0.015176848 0.417 7.6540674e-39
0.0049960413 -0.015104057 0.41499999 5.8101548e-39
0.006423478 -0.015104057 0.41499999 6.8250228e-39
0.0078319972 -0.015067662 0.414 6.5484359e-39
0.0092336368 -0.015031266 0.41299999 7.0079791e-39
0.010654193 -0.015031266 0.41299999 7.0079791e-39
0.012045542 -0.014994871 0.412 7.008335e-39
0.013462659 -0.014994871 0.412 6.9161394e-39
0.014843661 -0.014958477 0.41100001 6.730309e-39
0.016178228 -0.014885685 0.40900001 6.1771352e-39
0.017542033 -0.014849289 0.40799999 5.9948992e-39
0.01894539 -0.014849289 0.40799999 6.1792904e-39
0.020348776 -0.014849289 0.40799999 7.5607731e-39
0.021752136 -0.014849289 0.40799999 8.3905338e-39
0.02321225 -0.014885685 0.40900001 7.655124e-39
0.024739435 -0.014958477 0.41100001 1.005221e-38
0.026153114 -0.014958477 0.41100001 1.7791573e-38
0.027633864 -0.014994871 0.412 1.72384e-38
0.029050982 -0.014994871 0.412 1.6780295e-38
0.0035858031 -0.016622271 0.417 6.9161394e-39
0.0050080805 -0.016582409 0.41600001 6.9161394e-39
0.006423478 -0.016542548 0.41499999 6.8242969e-39
0.0078319972 -0.016502688 0.414 7.1008838e-39
0.0092336368 -0.016462825 0.41299999 7.1923704e-39
0.010628397 -0.016422965 0.412 7.0079791e-39
0.012045542 -0.016422965 0.412 7.008698e-39
0.013462659 -0.016422965 0.412 7.008698e-39
0.01477143 -0.016303379 0.40900001 7.3756784e-39
0.016138673 -0.016263517 0.40799999 7.0068959e-39
0.017542033 -0.016263517 0.40799999 6.2693309e-39
0.01894539 -0.016263517 0.40799999 6.3615265e-39
0.020348776 -0.016263517 0.40799999 7.2856254e-39
0.021752136 -0.016263517 0.40799999 8.115386e-39
0.023155496 -0.016263517 0.40799999 7.5622221e-39
0.024679242 -0.01634324 0.41 8.6685696e-39
0.026153114 -0.016383102 0.41100001 1.6962529e-38
0.027633864 -0.016422965 0.412 1.7239116e-38
0.029050982 -0.016422965 0.412 1.66881e-38
0.0021618062 -0.018154329 0.419 9.8692834e-39
0.0035858031 -0.018067675 0.417 7.0112119e-39
0.0050201188 -0.018067675 0.417 6.3658425e-39
0.006423478 -0.017981019 0.41499999 5.9963439e-39
0.0078319972 -0.017937692 0.414 6.8261046e-39
0.0092336368 -0.017894363 0.41299999 7.284566e-39
0.010628397 -0.017851036 0.412 6.7313922e-39
0.012045542 -0.017851036 0.412 7.4689629e-39
0.013429984 -0.017807709 0.41100001 7.1001803e-39
0.01477143 -0.017721053 0.40900001 7.284566e-39
0.016138673 -0.017677724 0.40799999 6.3626097e-39
0.017542033 -0.017677724 0.40799999 6.2718364e-39
0.01894539 -0.017677724 0.40799999 6.364032e-39
0.020298902 -0.017634397 0.40700001 6.7317453e-39
0.021698823 -0.017634397 0.40700001 7.561506e-39
0.023155496 -0.017677724 0.40799999 7.8384488e-39
0.02461905 -0.017721053 0.40900001 6.7321013e-39
0.02608948 -0.01776438 0.41 1.4566872e-38
0.027633864 -0.017851036 0.412 1.6963958e-38
0.0021566467 -0.019559892 0.41800001 1.069652e-38
0.0035858031 -0.019513099 0.417 7.3803545e-39
0.0050080805 -0.019466303 0.41600001 6.9193764e-39
0.006423478 -0.01941951 0.41499999 7.2845716e-39
0.0078319972 -0.019372717 0.414 7.7455497e-39
0.0092336368 -0.019325923 0.41299999 7.5611529e-39
0.010628397 -0.01927913 0.412 7.284566e-39
0.012016305 -0.019232336 0.41100001 7.8373894e-39
0.013429984 -0.019232336 0.41100001 7.2842157e-39
0.01477143 -0.019138748 0.40900001 8.20473e-39
0.016138673 -0.019091953 0.40799999 6.4530131e-39
0.017542033 -0.019091953 0.40799999 5.8119526e-39
0.018898956 -0.019045159 0.40700001 6.2729308e-39
0.020298902 -0.019045159 0.40700001 6.6406315e-39
0.021698823 -0.019045159 0.40700001 7.3781965e-39
0.023098743 -0.019045159 0.40700001 7.8384558e-39
0.024558855 -0.019091953 0.40799999 7.1930864e-39
0.02608948 -0.019185541 0.41 1.2078328e-38
0.0021566467 -0.021008762 0.41800001 8.9437202e-39
0.0035858031 -0.020958502 0.417 7.0075993e-39
0.0049960413 -0.020857982 0.41499999 7.7451644e-39
0.0064079999 -0.020807723 0.414 7.4693258e-39
0.0078319972 -0.020807723 0.414 8.2990865e-39
0.0092336368 -0.020757461 0.41299999 7.3774805e-39
0.010628397 -0.020707201 0.412 5.6257635e-39
0.012016305 -0.020656941 0.41100001 6.2722147e-39
0.013429984 -0.020656941 0.41100001 6.9175841e-39
0.01477143 -0.020556422 0.40900001 7.4689629e-39
0.016138673 -0.02050616 0.40799999 7.0079847e-39
0.017542033 -0.02050616 0.40799999 6.4558773e-39
0.018898956 -0.020455901 0.40700001 6.4558773e-39
0.020298902 -0.020455901 0.40700001 6.6377574e-39
0.021698823 -0.020455901 0.40700001 8.2050832e-39
0.023098743 -0.020455901 0.40700001 8.1153958e-39
0.024498662 -0.020455901 0.40700001 8.2997871e-39
0.025962215 -0.02050616 0.40799999 1.106492e-38
0.0035686048 -0.022296473 0.41499999 6.9168527e-39
0.0049960413 -0.022296473 0.41499999 7.3778308e-39
0.0064079999 -0.022242747 0.414 7.8381083e-39
0.0078130793 -0.022189019 0.41299999 8.8522602e-39
0.0092112795 -0.022135293 0.412 7.929941e-39
0.0106026 -0.022081569 0.41100001 8.8518973e-39
0.012016305 -0.022081569 0.41100001 8.8508029e-39
0.013429984 -0.022081569 0.41100001 7.7444553e-39
0.014807545 -0.022027841 0.41 7.284566e-39
0.016138673 -0.021920387 0.40799999 7.0079791e-39
0.017499037 -0.021866662 0.40700001 6.2729154e-39
0.018898956 -0.021866662 0.40700001 6.0885241e-39
0.020298902 -0.021866662 0.40700001 6.5455618e-39
0.021698823 -0.021866662 0.40700001 7.2831269e-39
0.023098743 -0.021866662 0.40700001 8.024645e-39
0.024498662 -0.021866662 0.40700001 7.8402537e-39
0.025962215 -0.021920387 0.40799999 1.097128e-38
0.027432648 -0.021974115 0.40900001 1.6503018e-38
0.0035686048 -0.023734944 0.41499999 7.2852849e-39
0.004984003 -0.023677751 0.414 7.746263e-39
0.0064079999 -0.023677751 0.414 7.8381055e-39
0.0078130793 -0.023620559 0.41299999 7.9303011e-39
0.0092112795 -0.023563366 0.412 7.4693258e-39
0.0106026 -0.023506174 0.41100001 8.3912821e-39
0.012016305 -0.023506174 0.41100001 8.1146826e-39
0.013397306 -0.023448981 0.41 7.5615088e-39
0.014807545 -0.023448981 0.41 7.2849219e-39
0.016138673 -0.023334594 0.40799999 7.008335e-39
0.017499037 -0.023277404 0.40700001 5.0743876e-39
0.018898956 -0.023277404 0.40700001 5.8119526e-39
0.020298902 -0.023277404 0.40700001 6.1789373e-39
0.021645507 -0.023220209 0.40599999 6.1789373e-39
0.023041988 -0.023220209 0.40599999 7.7430232e-39
0.024498662 -0.023277404 0.40700001 8.7571751e-39
0.025898581 -0.023277404 0.40700001 8.8540147e-39
0.027365573 -0.023334594 0.40799999 1.5123317e-38
0.028768932 -0.023334594 0.40799999 1.6411513e-38
0.030246273 -0.023391789 0.40900001 1.6134926e-38
0.0021411683 -0.025173435 0.41499999 8.023203e-39
0.0035600059 -0.025112778 0.414 8.0203388e-39
0.004984003 -0.025112778 0.414 8.3891213e-39
0.0064079999 -0.025112778 0.414 8.2065223e-39
0.0078130793 -0.025052117 0.41299999 8.3909135e-39
0.0091889221 -0.024930801 0.41100001 7.2845814e-39
0.0106026 -0.024930801 0.41100001 8.2065377e-39
0.011987068 -0.02487014 0.41 7.3771175e-39
0.013397306 -0.02487014 0.41 7.4693132e-39
0.014735313 -0.024748823 0.40799999 7.285275e-39
0.016099118 -0.024688164 0.40700001 6.9164925e-39
0.01745604 -0.024627505 0.40599999 5.4431673e-39
0.018852521 -0.024627505 0.40599999 5.6275586e-39
0.020249028 -0.024627505 0.40599999 5.9023476e-39
0.021645507 -0.024627505 0.40599999 5.4413695e-39
0.023041988 -0.024627505 0.40599999 5.626495e-39
0.024498662 -0.024688164 0.40700001 7.7469945e-39
0.025898581 -0.024688164 0.40700001 8.6674682e-39
0.027365573 -0.024748823 0.40799999 1.5121162e-38
0.028768932 -0.024748823 0.40799999 1.631933e-38
0.030246273 -0.024809483 0.40900001 1.5950547e-38
0.00071370468 -0.026611926 0.41499999 7.7480609e-39
0.0021411683 -0.026611926 0.41499999 7.6558652e-39
0.0035600059 -0.026547803 0.414 8.3916324e-39
0.004984003 -0.026547803 0.414 8.5760237e-39
0.0064079999 -0.026547803 0.414 8.5760209e-39
0.0077941613 -0.026419552 0.412 9.3135859e-39
0.0091889221 -0.026355427 0.41100001 8.0224968e-39
0.010576802 -0.026291301 0.41 7.6537142e-39
0.011987068 -0.026291301 0.41 7.1912872e-39
0.013331953 -0.026163051 0.40799999 7.1912872e-39
0.014735313 -0.026163051 0.40799999 6.9157835e-39
0.016099118 -0.026098926 0.40700001 6.6391966e-39
0.01745604 -0.0260348 0.40599999 4.7048764e-39
0.018852521 -0.0260348 0.40599999 5.7190283e-39
0.020249028 -0.0260348 0.40599999 5.6257663e-39
0.021645507 -0.0260348 0.40599999 5.8101576e-39
0.023041988 -0.0260348 0.40599999 5.899489e-39
0.024498662 -0.026098926 0.40700001 7.9277928e-39
0.025898581 -0.026098926 0.40700001 7.1937899e-39
0.027365573 -0.026163051 0.40799999 1.4108462e-38
0.028768932 -0.026163051 0.40799999 1.5950182e-38
0.030172318 -0.026163051 0.40799999 1.5950182e-38
0.00071370468 -0.028050397 0.41499999 8.483828e-39
0.0021411683 -0.028050397 0.41499999 8.483828e-39
0.0035686048 -0.028050397 0.41499999 8.2987235e-39
0.004984003 -0.027982807 0.414 8.5753104e-39
0.0063925218 -0.027915215 0.41299999 7.4693132e-39
0.0077941613 -0.027847623 0.412 8.3912695e-39
0.0091889221 -0.027780034 0.41100001 7.9306515e-39
0.010576802 -0.02771244 0.41 7.5618689e-39
0.011987068 -0.02771244 0.41 6.1803722e-39
0.013331953 -0.027577257 0.40799999 6.6413504e-39
0.014735313 -0.027577257 0.40799999 6.9157835e-39
0.016099118 -0.027509667 0.40700001 7.0079791e-39
0.01745604 -0.027442075 0.40599999 5.0740373e-39
0.018852521 -0.027442075 0.40599999 6.0881892e-39
0.020249028 -0.027442075 0.40599999 6.6406315e-39
0.021645507 -0.027442075 0.40599999 6.6406315e-39
0.023041988 -0.027442075 0.40599999 7.0079791e-39
0.024438467 -0.027442075 0.40599999 7.6533485e-39
0.025834948 -0.027442075 0.40599999 6.4569591e-39
0.027298501 -0.027509667 0.40700001 1.2541871e-38
0.028768932 -0.027577257 0.40799999 1.6318964e-38
0.030172318 -0.027577257 0.40799999 1.5950182e-38
-0.00071373186 -0.02948889 0.41499999 1.005003e-38
0.00071370468 -0.02948889 0.41499999 7.5633165e-39
0.0021411683 -0.02948889 0.41499999 7.7477077e-39
0.0035600059 -0.029417831 0.414 7.8377454e-39
0.004984003 -0.029417831 0.414 7.4689629e-39
0.0063925218 -0.029346773 0.41299999 7.5597137e-39
0.0077941613 -0.029275717 0.412 8.1128875e-39
0.0091889221 -0.029204659 0.41100001 7.4696663e-39
0.010576802 -0.029133601 0.41 7.0086882e-39
0.011987068 -0.029133601 0.41 7.0086882e-39
0.013331953 -0.028991485 0.40799999 7.0086882e-39
0.014735313 -0.028991485 0.40799999 7.1001803e-39
0.016059561 -0.028849369 0.40599999 7.1001803e-39
0.01745604 -0.028849369 0.40599999 6.1803722e-39
0.018806087 -0.028778313 0.405 6.2725679e-39
0.020199154 -0.028778313 0.405 7.0068903e-39
0.021645507 -0.028849369 0.40599999 7.1912816e-39
0.023041988 -0.028849369 0.40599999 7.2849219e-39
0.024438467 -0.028849369 0.40599999 7.9302913e-39
0.025834948 -0.028849369 0.40599999 7.1930864e-39
0.027231427 -0.028849369 0.40599999 1.3462389e-38
0.028698422 -0.028920429 0.40700001 1.6134929e-38
0.030172318 -0.028991485 0.40799999 1.5766146e-38
-0.00071373186 -0.03092736 0.41499999 1.0050746e-38
0.00071370468 -0.03092736 0.41499999 7.3792784e-39
0.0021411683 -0.03092736 0.41499999 7.2870827e-39
0.0035600059 -0.030852837 0.414 7.3771274e-39
0.004984003 -0.030852837 0.414 7.2849317e-39
0.0063925218 -0.030778311 0.41299999 7.2849219e-39
0.0077941613 -0.030703789 0.412 7.2849219e-39
0.0091889221 -0.030629266 0.41100001 7.1012439e-39
0.0106026 -0.030629266 0.41100001 7.1012439e-39
0.011987068 -0.030554742 0.41 6.5484331e-39
0.013364631 -0.030480219 0.40900001 6.7328243e-39
0.014735313 -0.030405693 0.40799999 7.2845716e-39
0.016059561 -0.030256644 0.40599999 7.4689629e-39
0.01745604 -0.030256644 0.40599999 6.3633258e-39
0.018806087 -0.030182121 0.405 6.547717e-39
0.020199154 -0.030182121 0.405 6.4558773e-39
0.021592194 -0.030182121 0.405 6.7324642e-39
0.022985235 -0.030182121 0.405 7.1912872e-39
0.024378275 -0.030182121 0.405 8.0210478e-39
0.025771316 -0.030182121 0.405 7.9313549e-39
0.027231427 -0.030256644 0.40599999 1.3463093e-38
0.028627908 -0.030256644 0.40599999 1.6135645e-38
0.030098367 -0.03033117 0.40700001 1.5674667e-38
0.03157568 -0.030405693 0.40799999 1.5765778e-38
-0.00071373186 -0.032365851 0.41499999 1.0141504e-38
0.00071370468 -0.032365851 0.41499999 8.5760237e-39
0.0021411683 -0.032365851 0.41499999 8.1150455e-39
0.0035600059 -0.032287862 0.414 7.6533485e-39
0.0049719643 -0.032209869 0.41299999 7.1923704e-39
0.0063925218 -0.032209869 0.41299999 7.008335e-39
0.0077941613 -0.032131881 0.412 7.008335e-39
0.0091889221 -0.032053892 0.41100001 7.1930794e-39
0.0106026 -0.032053892 0.41100001 7.285275e-39
0.011987068 -0.031975903 0.41 7.1927263e-39
0.013364631 -0.031897914 0.40900001 7.2849219e-39
0.014735313 -0.031819921 0.40799999 7.4682538e-39
0.016059561 -0.031663939 0.40599999 7.6526451e-39
0.01745604 -0.031663939 0.40599999 6.2722147e-39
0.018806087 -0.03158595 0.405 6.7331929e-39
0.020199154 -0.03158595 0.405 6.7317481e-39
0.021538882 -0.031507961 0.40400001 6.6395525e-39
0.022928482 -0.031507961 0.40400001 6.8239438e-39
0.024318082 -0.031507961 0.40400001 7.2849219e-39
0.025707684 -0.031507961 0.40400001 7.2856254e-39
0.027164357 -0.03158595 0.405 1.2632972e-38
0.028627908 -0.031663939 0.40599999 1.6777412e-38
0.030098367 -0.031741932 0.40700001 1.6039847e-38
0.03157568 -0.031819921 0.40799999 1.5765425e-38
-0.00071545172 -0.033885777 0.41600001 8.4834077e-39
0.00071370468 -0.033804324 0.41499999 9.1259605e-39
0.0021411683 -0.033804324 0.41499999 8.2040042e-39
0.0035600059 -0.033722866 0.414 7.3774777e-39
0.0049719643 -0.033641409 0.41299999 6.9164995e-39
0.0063925218 -0.033641409 0.41299999 7.4678684e-39
0.0077941613 -0.033559956 0.412 7.0990859e-39
0.0091889221 -0.033478498 0.41100001 7.008335e-39
0.0106026 -0.033478498 0.41100001 7.1927263e-39
0.011987068 -0.033397041 0.41 7.1927263e-39
0.013364631 -0.033315588 0.40900001 7.1005307e-39
0.01477143 -0.033315588 0.40900001 8.3891241e-39
0.016059561 -0.033071216 0.40599999 8.0203416e-39
0.01745604 -0.033071216 0.40599999 6.2718644e-39
0.018806087 -0.032989759 0.405 6.6406469e-39
0.020199154 -0.032989759 0.405 6.8225046e-39
0.021538882 -0.032908306 0.40400001 6.3615265e-39
0.022928482 -0.032908306 0.40400001 6.0878235e-39
0.024318082 -0.032908306 0.40400001 6.6409972e-39
0.025707684 -0.032908306 0.40400001 7.4678684e-39
0.027097285 -0.032908306 0.40400001 8.7586073e-39
0.028627908 -0.033071216 0.40599999 1.6961803e-38
0.030098367 -0.033152673 0.40700001 1.6039847e-38
0.031498287 -0.033152673 0.40700001 1.5581752e-38
0.00071370468 -0.035242815 0.41499999 7.0998244e-39
0.0021411683 -0.035242815 0.41499999 7.7451938e-39
0.0035600059 -0.035157893 0.414 7.2852821e-39
0.0049719643 -0.035072967 0.41299999 6.547717e-39
0.0063925218 -0.035072967 0.41299999 7.1005307e-39
0.0077941613 -0.034988046 0.412 7.2849219e-39
0.0092112795 -0.034988046 0.412 7.469323e-39
0.0106026 -0.034903124 0.41100001 7.1927361e-39
0.011987068 -0.034818202 0.41 6.9168429e-39
0.013397306 -0.034818202 0.41 7.1934297e-39
0.01477143 -0.034733281 0.40900001 7.8381083e-39
0.016059561 -0.034478512 0.40599999 7.3771302e-39
0.01745604 -0.034478512 0.40599999 5.2584285e-39
0.018806087 -0.03439359 0.405 5.4428198e-39
0.020199154 -0.03439359 0.405 6.547717e-39
0.021538882 -0.034308668 0.40400001 6.547717e-39
0.022928482 -0.034308668 0.40400001 6.9157835e-39
0.024318082 -0.034308668 0.40400001 8.2065223e-39
0.025707684 -0.034308668 0.40400001 7.2859855e-39
0.027097285 -0.034308668 0.40400001 7.9313549e-39
0.028627908 -0.034478512 0.40599999 1.5581415e-38
0.030098367 -0.034563433 0.40700001 1.5489219e-38
0.031498287 -0.034563433 0.40700001 1.5305168e-38
0.00071542454 -0.036769673 0.41600001 7.8373894e-39
0.0021411683 -0.036681283 0.41499999 7.9295851e-39
0.0035600059 -0.036592897 0.414 7.8366566e-39
0.0049719643 -0.036504507 0.41299999 6.730309e-39
0.0063925218 -0.036504507 0.41299999 6.5484359e-39
0.0077941613 -0.036416117 0.412 7.009414e-39
0.0092112795 -0.036416117 0.412 7.5611529e-39
0.0106026 -0.036327731 0.41100001 7.1923704e-39
0.011987068 -0.036239341 0.41 6.7331803e-39
0.013397306 -0.036239341 0.41 7.1941584e-39
0.01477143 -0.036150955 0.40900001 8.2994368e-39
0.016059561 -0.035885785 0.40599999 7.3774805e-39
0.01745604 -0.035885785 0.40599999 4.7074198e-39
0.018806087 -0.035797399 0.405 5.9981586e-39
0.020199154 -0.035797399 0.405 7.5615088e-39
0.021538882 -0.035709012 0.40400001 7.1005307e-39
0.022928482 -0.035709012 0.40400001 6.9164925e-39
0.024257889 -0.035620619 0.403 7.285275e-39
0.025644049 -0.035620619 0.403 7.1927263e-39
0.027097285 -0.035709012 0.40400001 7.6537044e-39
0.028557397 -0.035797399 0.405 1.9542587e-38
0.030098367 -0.035974175 0.40700001 1.7975261e-38
0.031498287 -0.035974175 0.40700001 1.4935654e-38
0.032979038 -0.036062565 0.40799999 1.5212241e-38
-0.00071545172 -0.038211629 0.41600001 8.0192219e-39
0.00071370468 -0.038119774 0.41499999 7.3767672e-39
0.0021411683 -0.038119774 0.41499999 7.4689629e-39
0.0035600059 -0.038027924 0.414 6.7317481e-39
0.0049719643 -0.037936065 0.41299999 6.9161394e-39
0.0063925218 -0.037936065 0.41299999 6.8250228e-39
0.0077941613 -0.037844211 0.412 7.009414e-39
0.0092112795 -0.037844211 0.412 7.1930794e-39
0.0106026 -0.037752356 0.41100001 7.0086882e-39
0.011987068 -0.037660502 0.41 7.1001747e-39
0.013397306 -0.037660502 0.41 7.3767616e-39
0.014735313 -0.037476789 0.40799999 7.5618689e-39
0.016059561 -0.03729308 0.40599999 7.2852821e-39
0.01745604 -0.03729308 0.40599999 6.6402784e-39
0.018806087 -0.037201226 0.405 6.5480828e-39
0.020199154 -0.037201226 0.405 6.8250228e-39
0.021485565 -0.037017517 0.403 6.9172184e-39
0.022871727 -0.037017517 0.403 7.0086882e-39
0.024257889 -0.037017517 0.403 7.1930794e-39
0.025644049 -0.037017517 0.403 7.1927263e-39
0.027097285 -0.037109375 0.40400001 6.5473569e-39
0.028486885 -0.037109375 0.40400001 1.6504427e-38
0.030024415 -0.03729308 0.40599999 2.2497143e-38
0.031498287 -0.037384938 0.40700001 1.9176669e-38
0.032979038 -0.037476789 0.40799999 1.5027865e-38
-0.00071373186 -0.039558265 0.41499999 7.1012439e-39
0.00071370468 -0.039558265 0.41499999 7.3767616e-39
0.0021411683 -0.039558265 0.41499999 7.1001747e-39
0.0035600059 -0.039462946 0.414 6.9161394e-39
0.0049719643 -0.039367624 0.41299999 7.008335e-39
0.0063925218 -0.039367624 0.41299999 6.732474e-39
0.0077941613 -0.039272305 0.412 6.9168653e-39
0.0092112795 -0.039272305 0.412 6.5484359e-39
0.0106026 -0.039176986 0.41100001 6.6406315e-39
0.011987068 -0.039081663 0.41 6.7324768e-39
0.013364631 -0.03898634 0.40900001 7.3778462e-39
0.014735313 -0.038891017 0.40799999 7.4696733e-39
0.016059561 -0.038700376 0.40599999 7.2852821e-39
0.01745604 -0.038700376 0.40599999 6.8250256e-39
0.018806087 -0.038605057 0.405 6.4562431e-39
0.020199154 -0.038605057 0.405 6.5480729e-39
0.021485565 -0.038414411 0.403 6.8246598e-39
0.022871727 -0.038414411 0.403 7.1923704e-39
0.024257889 -0.038414411 0.403 7.284566e-39
0.025644049 -0.038414411 0.403 7.1012341e-39
0.027030211 -0.038414411 0.403 5.2573215e-39
0.028486885 -0.038509738 0.40400001 1.4751629e-38
0.030024415 -0.038700376 0.40599999 2.2403866e-38
0.031498287 -0.038795698 0.40700001 2.1758156e-38
0.032898206 -0.038795698 0.40700001 2.1297178e-38
-0.000712012 -0.040897951 0.414 7.195613e-39
0.00071198493 -0.040897951 0.414 7.6533541e-39
0.002136009 -0.040897951 0.414 8.2065279e-39
0.003551407 -0.040799163 0.41299999 7.1008936e-39
0.0049719643 -0.040799163 0.41299999 6.4555242e-39
0.0063925218 -0.040799163 0.41299999 5.8108806e-39
0.0077941613 -0.040700376 0.412 6.8250326e-39
0.0092112795 -0.040700376 0.412 7.1930892e-39
0.0106026 -0.040601593 0.41100001 6.2711329e-39
0.011987068 -0.040502802 0.41 7.2849317e-39
0.013364631 -0.040404014 0.40900001 7.9303011e-39
0.01477143 -0.040404014 0.40900001 7.1923704e-39
0.016099118 -0.04020644 0.40700001 7.8377398e-39
0.01745604 -0.040107649 0.40599999 7.3771274e-39
0.018806087 -0.040008865 0.405 5.3488235e-39
0.020199154 -0.040008865 0.405 5.1647854e-39
0.021485565 -0.039811291 0.403 7.008698e-39
0.022871727 -0.039811291 0.403 7.2849219e-39
0.024197696 -0.039712504 0.40200001 7.008335e-39
0.025580417 -0.039712504 0.40200001 6.9168429e-39
0.027030211 -0.039811291 0.403 6.2714734e-39
0.028486885 -0.039910078 0.40400001 1.1527303e-38
0.030024415 -0.040107649 0.40599999 2.1853213e-38
0.031498287 -0.04020644 0.40700001 2.1297541e-38
0.032898206 -0.04020644 0.40700001 2.1389736e-38
-0.000712012 -0.042332977 0.414 7.2885317e-39
0.00071198493 -0.042332977 0.414 7.7455497e-39
0.002136009 -0.042332977 0.414 7.929941e-39
0.003551407 -0.042230722 0.41299999 7.2849219e-39
0.0049719643 -0.042230722 0.41299999 6.6395525e-39
0.0063925218 -0.042230722 0.41299999 7.192376e-39
0.0077941613 -0.04212847 0.412 7.3767672e-39
0.0092112795 -0.04212847 0.412 7.3774805e-39
0.0106026 -0.042026218 0.41100001 7.2852849e-39
0.011987068 -0.041923963 0.41 7.469323e-39
0.013331953 -0.041719455 0.40799999 8.206888e-39
0.014735313 -0.041719455 0.40799999 8.4831092e-39
0.016099118 -0.0416172 0.40700001 8.4831092e-39
0.01745604 -0.041514944 0.40599999 8.206172e-39
0.018852521 -0.041514944 0.40599999 7.19202e-39
0.020199154 -0.041412693 0.405 6.8250228e-39
0.021485565 -0.041208185 0.403 6.9172184e-39
0.022814974 -0.041105933 0.40200001 7.3756784e-39
0.024197696 -0.041105933 0.40200001 7.1912872e-39
0.025580417 -0.041105933 0.40200001 6.8250228e-39
0.026963139 -0.041105933 0.40200001 6.3640446e-39
0.028486885 -0.041310441 0.40400001 1.0142226e-38
0.029950464 -0.041412693 0.405 2.1666679e-38
0.031420894 -0.041514944 0.40599999 2.1297541e-38
0.032898206 -0.0416172 0.40700001 2.111315e-38
-0.000712012 -0.043767981 0.414 7.2896135e-39
0.00071198493 -0.043767981 0.414 7.835572e-39
0.002136009 -0.043767981 0.414 7.7433763e-39
0.003551407 -0.043662261 0.41299999 7.1927361e-39
0.0049719643 -0.043662261 0.41299999 7.0083448e-39
0.0063925218 -0.043662261 0.41299999 7.1001803e-39
0.0077941613 -0.043556541 0.412 7.6533541e-39
0.0091889221 -0.043450825 0.41100001 7.4696761e-39
0.0106026 -0.043450825 0.41100001 7.4696761e-39
0.011987068 -0.043345101 0.41 7.6537142e-39
0.013331953 -0.043133661 0.40799999 7.9303011e-39
0.014699197 -0.043027941 0.40700001 8.2072412e-39
0.016059561 -0.042922221 0.40599999 7.1930892e-39
0.01745604 -0.042922221 0.40599999 6.4562557e-39
0.018806087 -0.042816501 0.405 6.6406469e-39
0.020149279 -0.042710785 0.40400001 6.9168527e-39
0.021485565 -0.042605061 0.403 7.1012439e-39
0.022814974 -0.042499345 0.40200001 7.2849219e-39
0.024137503 -0.042393621 0.40099999 7.2849219e-39
0.025516784 -0.042393621 0.40099999 7.4693132e-39
0.026963139 -0.042499345 0.40200001 7.4693132e-39
0.028416373 -0.042605061 0.403 8.2068782e-39
0.029876513 -0.042710785 0.40400001 2.0468897e-38
0.031420894 -0.042922221 0.40599999 2.1481932e-38
0.032817375 -0.042922221 0.40599999 2.1297541e-38
-0.000712012 -0.045203008 0.414 7.6515562e-39
0.00071198493 -0.045203008 0.414 6.9161394e-39
0.0021308495 -0.045093819 0.41299999 7.1927263e-39
0.003551407 -0.045093819 0.41299999 7.1930892e-39
0.0049719643 -0.045093819 0.41299999 8.0228499e-39
0.0063770437 -0.044984635 0.412 7.932099e-39
0.0077941613 -0.044984635 0.412 7.4711209e-39
0.0091889221 -0.04487545 0.41100001 7.3774777e-39
0.010576802 -0.044766262 0.41 7.3774777e-39
0.011957832 -0.044657078 0.40900001 7.3774805e-39
0.013331953 -0.044547889 0.40799999 7.4696761e-39
0.014699197 -0.044438705 0.40700001 7.6540646e-39
0.016059561 -0.044329517 0.40599999 7.1930864e-39
0.01745604 -0.044329517 0.40599999 7.4689629e-39
0.018806087 -0.044220332 0.405 7.192376e-39
0.020099405 -0.044001959 0.403 7.1008838e-39
0.021432253 -0.043892775 0.40200001 7.285275e-39
0.022814974 -0.043892775 0.40200001 7.3774777e-39
0.024137503 -0.043783586 0.40099999 7.5618689e-39
0.025516784 -0.043783586 0.40099999 7.3774777e-39
0.026963139 -0.043892775 0.40200001 7.4696733e-39
0.028416373 -0.044001959 0.403 8.0228471e-39
0.029876513 -0.044111148 0.40400001 2.0008279e-38
0.031420894 -0.044329517 0.40599999 2.1481932e-38
0.032817375 -0.044329517 0.40599999 2.111315e-38
-0.0007102922 -0.046525355 0.41299999 7.9288522e-39
0.00071026519 -0.046525355 0.41299999 7.5597137e-39
0.0021308495 -0.046525355 0.41299999 8.0206919e-39
0.003551407 -0.046525355 0.41299999 7.6537044e-39
0.0049719643 -0.046525355 0.41299999 7.7459001e-39
0.0063770437 -0.046412706 0.412 8.0221366e-39
0.0077941613 -0.046412706 0.412 7.7455497e-39
0.0091889221 -0.046300057 0.41100001 7.1008908e-39
0.010576802 -0.046187401 0.41 7.5618689e-39
0.011957832 -0.046074752 0.40900001 7.4693132e-39
0.013331953 -0.045962095 0.40799999 7.4693132e-39
0.014699197 -0.045849446 0.40700001 7.1008908e-39
0.016059561 -0.04573679 0.40599999 6.9164995e-39
0.01745604 -0.04573679 0.40599999 7.1005405e-39
0.018759653 -0.045511492 0.40400001 7.1927361e-39
0.020099405 -0.045398835 0.403 7.1008936e-39
0.021432253 -0.045286186 0.40200001 7.1930892e-39
0.022758221 -0.04517353 0.40099999 7.5600641e-39
0.024137503 -0.04517353 0.40099999 7.7444553e-39
0.025516784 -0.04517353 0.40099999 7.1934297e-39
0.026896067 -0.04517353 0.40099999 7.7466035e-39
0.028345861 -0.045286186 0.40200001 8.3919729e-39
0.029802561 -0.045398835 0.403 1.9455449e-38
0.031266116 -0.045511492 0.40400001 2.1481932e-38
0.032736547 -0.045624141 0.405 2.1297541e-38
-0.0007102922 -0.047956917 0.41299999 8.0235505e-39
0.00071026519 -0.047956917 0.41299999 7.9306543e-39
0.0021256902 -0.0478408 0.412 7.5618717e-39
0.0035428079 -0.0478408 0.412 7.4689572e-39
0.0049599255 -0.0478408 0.412 7.4689572e-39
0.0063770437 -0.0478408 0.412 7.7455441e-39
0.0077752434 -0.047724683 0.41100001 7.284566e-39
0.0091665639 -0.047608562 0.41 6.9164925e-39
0.010576802 -0.047608562 0.41 7.6540576e-39
0.011957832 -0.047492445 0.40900001 6.91684e-39
0.013331953 -0.047376323 0.40799999 7.2856226e-39
0.014699197 -0.047260206 0.40700001 6.4558871e-39
0.016099118 -0.047260206 0.40700001 7.1012565e-39
0.01745604 -0.047144085 0.40599999 7.1927361e-39
0.018713217 -0.046795733 0.403 7.2849317e-39
0.020049531 -0.046679616 0.40200001 7.3774805e-39
0.021378938 -0.046563495 0.40099999 7.1930892e-39
0.022758221 -0.046563495 0.40099999 7.2834772e-39
0.024137503 -0.046563495 0.40099999 8.4820204e-39
0.025516784 -0.046563495 0.40099999 7.1912816e-39
0.026896067 -0.046563495 0.40099999 7.9288466e-39
0.028275348 -0.046563495 0.40099999 7.1015942e-39
0.029728608 -0.046679616 0.40200001 1.7888483e-38
0.031266116 -0.046911854 0.40400001 2.1850715e-38
0.032736547 -0.047027968 0.405 2.0928758e-38
-0.000712012 -0.049508043 0.414 7.838809e-39
0.00071026519 -0.049388453 0.41299999 7.9306543e-39
0.0021256902 -0.049268872 0.412 7.3774805e-39
0.0035428079 -0.049268872 0.412 7.3771274e-39
0.0049599255 -0.049268872 0.412 7.3771274e-39
0.0063615651 -0.04914929 0.41100001 7.2852821e-39
0.0077752434 -0.04914929 0.41100001 7.1008908e-39
0.0091665639 -0.0490297 0.41 6.5484331e-39
0.010576802 -0.0490297 0.41 7.0094112e-39
0.011957832 -0.048910119 0.40900001 6.0885241e-39
0.013331953 -0.048790533 0.40799999 6.365111e-39
0.014699197 -0.048670948 0.40700001 7.5615186e-39
0.016099118 -0.048670948 0.40700001 8.0224968e-39
0.01745604 -0.048551362 0.40599999 8.0228499e-39
0.018713217 -0.048192609 0.403 7.3774805e-39
0.020049531 -0.048073024 0.40200001 7.7444609e-39
0.021378938 -0.047953438 0.40099999 7.5600697e-39
0.022758221 -0.047953438 0.40099999 7.1008838e-39
0.024077309 -0.047833856 0.40000001 7.285275e-39
0.025453152 -0.047833856 0.40000001 7.3756784e-39
0.026896067 -0.047953438 0.40099999 8.0210478e-39
0.028275348 -0.047953438 0.40099999 6.2718364e-39
0.029654657 -0.047953438 0.40099999 1.7243116e-38
0.031188721 -0.048192609 0.403 2.1481932e-38
0.032655716 -0.048312195 0.40400001 2.0928758e-38
0.00071026519 -0.050820012 0.41299999 7.7459099e-39
0.0021256902 -0.050696965 0.412 8.3912793e-39
0.0035428079 -0.050696965 0.412 7.5615186e-39
0.0049478873 -0.050573915 0.41100001 7.469323e-39
0.0063615651 -0.050573915 0.41100001 7.285275e-39
0.0077752434 -0.050573915 0.41100001 7.1008838e-39
0.0091665639 -0.050450861 0.41 6.9168527e-39
0.010576802 -0.050450861 0.41 7.1012439e-39
0.011987068 -0.050450861 0.41 7.5618619e-39
0.013331953 -0.050204758 0.40799999 7.6540576e-39
0.014699197 -0.050081711 0.40700001 7.9303039e-39
0.016099118 -0.050081711 0.40700001 9.4976296e-39
0.01745604 -0.049958657 0.40599999 7.9306515e-39
0.018666781 -0.049466457 0.40200001 7.1008908e-39
0.020049531 -0.049466457 0.40200001 6.7317481e-39
0.021378938 -0.049343403 0.40099999 7.1927263e-39
0.022758221 -0.049343403 0.40099999 5.9030567e-39
0.024077309 -0.049220353 0.40000001 6.7328173e-39
0.025453152 -0.049220353 0.40000001 6.7331803e-39
0.026828995 -0.049220353 0.40000001 7.0097672e-39
0.028275348 -0.049343403 0.40099999 6.3654641e-39
0.029654657 -0.049343403 0.40099999 1.6414788e-38
0.031188721 -0.049589504 0.403 2.139009e-38
0.032655716 -0.049712557 0.40400001 2.074472e-38
-0.00071545172 -0.052631121 0.41600001 8.7604121e-39
0.00071026519 -0.052251574 0.41299999 8.206888e-39
0.0021256902 -0.052125055 0.412 8.4834749e-39
0.0035428079 -0.052125055 0.412 7.7459099e-39
0.0049478873 -0.051998541 0.41100001 7.3771274e-39
0.0063615651 -0.051998541 0.41100001 7.1930794e-39
0.0077752434 -0.051998541 0.41100001 7.1008838e-39
0.0091665639 -0.051872022 0.41 6.2729154e-39
0.010576802 -0.051872022 0.41 6.4573066e-39
0.011987068 -0.051872022 0.41 7.5611529e-39
0.013331953 -0.051618986 0.40799999 7.7455441e-39
0.014699197 -0.051492471 0.40700001 8.3916324e-39
0.016099118 -0.051492471 0.40700001 7.746263e-39
0.017370053 -0.05111292 0.40400001 7.6540576e-39
0.018666781 -0.050859887 0.40200001 5.7179493e-39
0.020049531 -0.050859887 0.40200001 6.4530131e-39
0.021378938 -0.050733365 0.40099999 7.0061868e-39
0.022701466 -0.050606851 0.40000001 5.9041427e-39
0.024077309 -0.050606851 0.40000001 6.9182946e-39
0.025453152 -0.050606851 0.40000001 7.4678684e-39
0.026828995 -0.050606851 0.40000001 7.6522597e-39
0.028275348 -0.050733365 0.40099999 6.8249975e-39
0.029654657 -0.050733365 0.40099999 1.5491387e-38
0.03111133 -0.050859887 0.40200001 2.1573762e-38
0.032574881 -0.050986402 0.403 2.0836197e-38
-0.0021514874 -0.054203045 0.417 9.1291975e-39
-0.00071545172 -0.054073058 0.41600001 8.8526106e-39
0.00071026519 -0.05368311 0.41299999 8.5760237e-39
0.0021256902 -0.05355313 0.412 7.4696761e-39
0.0035428079 -0.05355313 0.412 7.7459001e-39
0.0049478873 -0.053423148 0.41100001 7.5615088e-39
0.0063460865 -0.053293161 0.41 7.1930864e-39
0.0077563254 -0.053293161 0.41 6.8243039e-39
0.0091665639 -0.053293161 0.41 7.5618689e-39
0.010551006 -0.053163182 0.40900001 7.6540646e-39
0.011957832 -0.053163182 0.40900001 7.5611585e-39
0.013331953 -0.053033195 0.40799999 7.7455497e-39
0.014699197 -0.052903213 0.40700001 8.7600646e-39
0.016059561 -0.052773226 0.40599999 8.4834777e-39
0.017370053 -0.052513264 0.40400001 7.1948843e-39
0.018666781 -0.052253295 0.40200001 5.0743848e-39
0.019999657 -0.052123308 0.40099999 5.9956278e-39
0.021378938 -0.052123308 0.40099999 7.0097798e-39
0.022701466 -0.051993329 0.40000001 6.5484205e-39
0.024077309 -0.051993329 0.40000001 6.5484205e-39
0.025389519 -0.051863343 0.39899999 7.2856254e-39
0.026761921 -0.051863343 0.39899999 7.4700166e-39
0.028134324 -0.051863343 0.39899999 8.2990388e-39
0.029654657 -0.052123308 0.40099999 1.4107363e-38
0.031033939 -0.052123308 0.40099999 2.1574118e-38
0.032494053 -0.052253295 0.40200001 2.0744357e-38
-0.0035858031 -0.055648468 0.417 7.8376977e-39
-0.0021514874 -0.055648468 0.417 9.497617e-39
-0.0007102922 -0.055114668 0.41299999 9.4054214e-39
0.00071026519 -0.055114668 0.41299999 8.0224968e-39
0.0021308495 -0.055114668 0.41299999 7.469323e-39
0.0035428079 -0.054981221 0.412 7.4696733e-39
0.0049478873 -0.054847773 0.41100001 7.3774777e-39
0.0063460865 -0.054714322 0.41 6.8250228e-39
0.0077374079 -0.054580875 0.40900001 6.6406315e-39
0.0091442065 -0.054580875 0.40900001 7.1927263e-39
0.010551006 -0.054580875 0.40900001 7.5615088e-39
0.011928595 -0.05444742 0.40799999 8.5756705e-39
0.013299277 -0.054313973 0.40700001 8.9444531e-39
0.014663081 -0.054180522 0.40599999 8.944809e-39
0.016020006 -0.054047074 0.405 8.5760265e-39
0.017370053 -0.053913627 0.40400001 7.3774805e-39
0.018666781 -0.053646725 0.40200001 6.8243067e-39
0.019999657 -0.053513274 0.40099999 6.732474e-39
0.021378938 -0.053513274 0.40099999 7.7466259e-39
0.022701466 -0.053379826 0.40000001 7.3763819e-39
0.024077309 -0.053379826 0.40000001 7.4685775e-39
0.025389519 -0.053246375 0.39899999 7.7451616e-39
0.026761921 -0.053246375 0.39899999 7.2841834e-39
0.028134324 -0.053246375 0.39899999 7.010458e-39
0.029654657 -0.053513274 0.40099999 1.2910978e-38
0.031033939 -0.053513274 0.40099999 2.1389727e-38
0.032494053 -0.053646725 0.40200001 2.0652162e-38
-0.0050080805 -0.056956954 0.41600001 1.8534549e-38
-0.0035772042 -0.056956954 0.41600001 6.8257038e-39
-0.0021463279 -0.056956954 0.41600001 9.2224342e-39
-0.0007102922 -0.056546208 0.41299999 8.3926736e-39
0.00071026519 -0.056546208 0.41299999 8.1121588e-39
0.0021308495 -0.056546208 0.41299999 7.6511807e-39
0.0035428079 -0.056409296 0.412 7.4700166e-39
0.0049478873 -0.05627238 0.41100001 7.0090385e-39
0.0063460865 -0.056135461 0.41 6.9164925e-39
0.0077374079 -0.055998549 0.40900001 6.9164925e-39
0.0091442065 -0.055998549 0.40900001 7.3774707e-39
0.010551006 -0.055998549 0.40900001 7.5618619e-39
0.011928595 -0.05586163 0.40799999 7.5618717e-39
0.013299277 -0.055724714 0.40700001 8.3916324e-39
0.014663081 -0.055587798 0.40599999 8.1150427e-39
0.01598045 -0.055313971 0.40400001 7.3774777e-39
0.017327055 -0.055177052 0.403 7.5600641e-39
0.018666781 -0.055040136 0.40200001 6.7303034e-39
0.019999657 -0.054903217 0.40099999 6.3647635e-39
0.021378938 -0.054903217 0.40099999 6.3647635e-39
0.022701466 -0.054766305 0.40000001 6.3643823e-39
0.024017114 -0.054629385 0.39899999 6.9175561e-39
0.025389519 -0.054629385 0.39899999 6.915754e-39
0.026761921 -0.054629385 0.39899999 7.4689278e-39
0.028134324 -0.054629385 0.39899999 6.914647e-39
0.029654657 -0.054903217 0.40099999 1.3276145e-38
0.031033939 -0.054903217 0.40099999 2.1573762e-38
0.032494053 -0.055040136 0.40200001 2.0651806e-38
-0.0050080805 -0.058398914 0.41600001 2.1574128e-38
-0.0035772042 -0.058398914 0.41600001 1.6411172e-38
-0.0021463279 -0.058398914 0.41600001 1.3545121e-38
-0.0007102922 -0.057977766 0.41299999 9.5807084e-39
0.00070854544 -0.057837386 0.412 5.6288912e-39
0.0021256902 -0.057837386 0.412 4.6147393e-39
0.003534209 -0.057697006 0.41100001 5.3483779e-39
0.0049358481 -0.057556622 0.41 6.1781386e-39
0.0063460865 -0.057556622 0.41 7.0068679e-39
0.0077184895 -0.057275858 0.40799999 7.467846e-39
0.0091218492 -0.057275858 0.40799999 8.0203037e-39
0.010525208 -0.057275858 0.40799999 8.0203037e-39
0.011899358 -0.057135478 0.40700001 7.5607731e-39
0.013299277 -0.057135478 0.40700001 7.6529688e-39
0.014663081 -0.05699509 0.40599999 7.8366313e-39
0.01598045 -0.056714334 0.40400001 7.7444357e-39
0.017327055 -0.056573946 0.403 7.4678488e-39
0.018666781 -0.056433566 0.40200001 6.3615013e-39
0.019999657 -0.056293182 0.40099999 6.4551416e-39
0.021378938 -0.056293182 0.40099999 5.8097722e-39
0.022701466 -0.056152802 0.40000001 4.977485e-39
0.024017114 -0.056012418 0.39899999 4.1477243e-39
0.025389519 -0.056012418 0.39899999 3.9633331e-39
0.026761921 -0.056012418 0.39899999 4.23992e-39
0.028134324 -0.056012418 0.39899999 1.4916093e-39
0.029580707 -0.056152802 0.40000001 8.3140804e-39
0.03111133 -0.056433566 0.40200001 2.1112784e-38
0.032494053 -0.056433566 0.40200001 2.055961e-38
-0.0007102922 -0.059409305 0.41299999 2.0929111e-38
0.00070854544 -0.059265461 0.412 1.9639808e-38
0.0021256902 -0.059265461 0.412 1.9178829e-38
0.003534209 -0.059121612 0.41100001 1.6965794e-38
0.0049358481 -0.05897776 0.41 9.8667303e-39
0.0063460865 -0.05897776 0.41 1.0692134e-38
0.0077184895 -0.058690064 0.40799999 9.8623736e-39
0.0091218492 -0.058690064 0.40799999 8.1139189e-39
0.010525208 -0.058690064 0.40799999 7.6529407e-39
0.011899358 -0.058546219 0.40700001 8.1139189e-39
0.013299277 -0.058546219 0.40700001 8.4827014e-39
0.014663081 -0.058402367 0.40599999 8.3905086e-39
0.01598045 -0.058114674 0.40400001 7.4685523e-39
0.017327055 -0.057970822 0.403 7.1915968e-39
0.018666781 -0.057826977 0.40200001 8.0213575e-39
0.019999657 -0.057683125 0.40099999 7.1944807e-39
0.021378938 -0.057683125 0.40099999 8.6696108e-39
0.022701466 -0.057539281 0.40000001 1.1898291e-38
0.024017114 -0.057395428 0.39899999 1.5217333e-38
0.025389519 -0.057395428 0.39899999 1.6508769e-38
0.026761921 -0.057395428 0.39899999 1.8260486e-38
0.028134324 -0.057395428 0.39899999 1.9455416e-38
0.029580707 -0.057539281 0.40000001 1.9178829e-38
0.0035944022 -0.061577436 0.41800001 1.9912779e-38
0.0050321575 -0.061577436 0.41800001 1.2260542e-38
0.0064699128 -0.061577436 0.41800001 1.290409e-38
0.0079076681 -0.061577436 0.41800001 1.2535307e-38
0.0093454234 -0.061577436 0.41800001 1.0228974e-38
0.01078318 -0.061577436 0.41800001 1.0597757e-38
0.012220962 -0.061577436 0.41800001 9.4013815e-39
0.013691394 -0.061724748 0.419 6.3589257e-39
0.015132588 -0.061724748 0.419 5.5295546e-39
0.015940893 -0.05936772 0.403 7.0046846e-39
0.017327055 -0.05936772 0.403 9.7687122e-39
0.018620348 -0.059073091 0.40099999 1.3364342e-38
0.019949783 -0.058925778 0.40000001 1.5760722e-38
0.021325624 -0.058925778 0.40000001 1.7051461e-38
0.022701466 -0.058925778 0.40000001 1.7421702e-38
0.023956923 -0.058631148 0.398 2.1386114e-38
0.025325885 -0.058631148 0.398 2.1388655e-38
0.026694849 -0.058631148 0.398 2.0927677e-38
0.028134324 -0.058778461 0.39899999 2.0468849e-38
0.0036201994 -0.063478649 0.421 1.4561671e-38
0.0050321575 -0.063026309 0.41800001 1.4653867e-38
0.0064699128 -0.063026309 0.41800001 1.2996996e-38
0.0079076681 -0.063026309 0.41800001 1.1890648e-38
0.0093454234 -0.063026309 0.41800001 1.0045652e-38
0.01078318 -0.063026309 0.41800001 1.0230044e-38
0.012220962 -0.063026309 0.41800001 9.3077341e-39
0.013691394 -0.063177086 0.419 6.4496696e-39
0.015132588 -0.063177086 0.419 6.2631413e-39
0.016573783 -0.063177086 0.419 6.4475326e-39
0.018014979 -0.063177086 0.419 8.5708921e-39
0.018620348 -0.060463034 0.40099999 1.1521152e-38
0.019949783 -0.060312256 0.40000001 1.4563618e-38
0.021325624 -0.060312256 0.40000001 1.6960704e-38
0.022701466 -0.060312256 0.40000001 1.5854324e-38
0.023896731 -0.059859917 0.39700001 1.4563586e-38
0.025262255 -0.059859917 0.39700001 2.0279413e-38
0.026694849 -0.060010694 0.398 2.0463805e-38
0.0021721253 -0.064937934 0.421 1.4472168e-38
0.0036201994 -0.064937934 0.421 1.1240527e-38
0.0050682737 -0.064937934 0.421 1.4098591e-38
0.0064853914 -0.064629443 0.419 1.3640213e-38
0.0079076681 -0.064475194 0.41800001 1.2718256e-38
0.0093454234 -0.064475194 0.41800001 1.0597754e-38
0.01078318 -0.064475194 0.41800001 1.0136776e-38
0.012220962 -0.064475194 0.41800001 8.1113489e-39
0.013691394 -0.064629443 0.419 5.34548e-39
0.015132588 -0.064629443 0.419 5.4384155e-39
0.016573783 -0.064629443 0.419 5.5306111e-39
0.018057974 -0.064783685 0.41999999 5.2533236e-39
0.019502608 -0.064783685 0.41999999 4.6079542e-39
0.020997146 -0.064937934 0.421 8.481223e-39
0.022445221 -0.064937934 0.421 1.3459787e-38
0.022531208 -0.061236013 0.39700001 1.511534e-38
0.023896731 -0.061236013 0.39700001 1.3732405e-38
0.025262255 -0.061236013 0.39700001 1.604016e-38
0.0021669655 -0.066239506 0.41999999 8.9400025e-39
0.0036116003 -0.066239506 0.41999999 8.0219867e-39
0.005056235 -0.066239506 0.41999999 8.1141823e-39
0.0064699128 -0.065924086 0.41800001 9.9549056e-39
0.0079076681 -0.065924086 0.41800001 1.0692471e-38
0.0093454234 -0.065924086 0.41800001 9.491775e-39
0.01078318 -0.065924086 0.41800001 8.6620144e-39
0.012220962 -0.065924086 0.41800001 7.1858025e-39
0.013658717 -0.065924086 0.41800001 7.1858025e-39
0.015096473 -0.065924086 0.41800001 7.0943355e-39
0.016534228 -0.065924086 0.41800001 6.9099443e-39
0.018014979 -0.0660818 0.419 6.7251873e-39
0.019456174 -0.0660818 0.419 5.9876222e-39
0.020897396 -0.0660818 0.419 4.8859354e-39
0.022338592 -0.0660818 0.419 8.0205854e-39
0.023666279 -0.065766372 0.417 1.2535657e-38
0.025220981 -0.0660818 0.419 1.2535657e-38
0.0021669655 -0.067695312 0.41999999 1.1897074e-38
0.0036030011 -0.067534134 0.419 1.2073953e-38
0.0050441963 -0.067534134 0.419 1.1244193e-38
0.0064544347 -0.067211777 0.417 9.861233e-39
0.0078887502 -0.067211777 0.417 9.1236679e-39
0.0093454234 -0.067372955 0.41800001 8.5698033e-39
0.01078318 -0.067372955 0.41800001 8.2932164e-39
0.012220962 -0.067372955 0.41800001 7.9258758e-39
0.013658717 -0.067372955 0.41800001 8.2024627e-39
0.015096473 -0.067372955 0.41800001 7.8343963e-39
0.016534228 -0.067372955 0.41800001 7.7422006e-39
0.017928988 -0.067211777 0.417 7.8340558e-39
0.019363305 -0.067211777 0.417 7.280882e-39
0.020797648 -0.067211777 0.417 7.1912003e-39
0.022231963 -0.067211777 0.417 9.3116998e-39
0.023666279 -0.067211777 0.417 1.3088475e-38
0.025220981 -0.067534134 0.419 1.3088475e-38
0.0036030011 -0.06898649 0.419 1.4562532e-38
0.0050201188 -0.068657205 0.417 1.3732771e-38
0.0064544347 -0.068657205 0.417 1.2626767e-38
0.0078887502 -0.068657205 0.417 1.1889202e-38
0.0093230661 -0.068657205 0.417 1.1152e-38
0.01078318 -0.068821847 0.41800001 1.0691022e-38
0.012191725 -0.068657205 0.417 1.0137848e-38
0.013626041 -0.068657205 0.417 9.4002828e-39
0.015060357 -0.068657205 0.417 8.6659646e-39
0.016455118 -0.068492554 0.41600001 8.2971821e-39
0.017885994 -0.068492554 0.41600001 8.3865009e-39
0.019363305 -0.068657205 0.417 8.3865009e-39
0.020797648 -0.068657205 0.417 8.5730697e-39
0.022231963 -0.068657205 0.417 1.0232591e-38
0.023666279 -0.068657205 0.417 1.2904099e-38
0.025160788 -0.068821847 0.41800001 1.4563621e-38
0.026598543 -0.068821847 0.41800001 1.3275033e-38
0.0021566467 -0.070270717 0.41800001 1.6223139e-38
0.0035944022 -0.070270717 0.41800001 1.5117864e-38
0.0050201188 -0.070102602 0.417 1.4195907e-38
0.0064544347 -0.070102602 0.417 1.3548754e-38
0.0078887502 -0.070102602 0.417 1.3364363e-38
0.0093007088 -0.069934487 0.41600001 1.3273588e-38
0.010731585 -0.069934487 0.41600001 1.2720414e-38
0.012162489 -0.069934487 0.41600001 1.2351293e-38
0.013593365 -0.069934487 0.41600001 1.1244945e-38
0.015024241 -0.069934487 0.41600001 1.1427527e-38
0.016455118 -0.069934487 0.41600001 1.0505571e-38
0.017885994 -0.069934487 0.41600001 9.9531035e-39
0.019316871 -0.069934487 0.41600001 9.584321e-39
0.020747773 -0.069934487 0.41600001 1.0322622e-38
0.02217865 -0.069934487 0.41600001 1.1705556e-38
0.023609526 -0.069934487 0.41600001 1.2720424e-38
0.025040401 -0.069934487 0.41600001 1.4564337e-38
0.026534911 -0.070102602 0.417 1.5302279e-38
0.027969226 -0.070102602 0.417 1.6316431e-38
0.029474054 -0.070270717 0.41800001 1.5857973e-38
0.030985788 -0.070438825 0.419 1.6042365e-38
0.00072058378 -0.071891181 0.419 1.7421685e-38
0.0021566467 -0.071719602 0.41800001 1.6868511e-38
0.0035858031 -0.07154803 0.417 1.5486999e-38
0.0050201188 -0.07154803 0.417 1.4565043e-38
0.0064389566 -0.07137645 0.41600001 1.3550175e-38
0.0078509143 -0.071204871 0.41499999 1.3365784e-38
0.0092783514 -0.071204871 0.41499999 1.2997714e-38
0.010679991 -0.071033299 0.414 1.2444541e-38
0.012104015 -0.071033299 0.414 1.2536036e-38
0.013593365 -0.07137645 0.41600001 1.2167253e-38
0.015024241 -0.07137645 0.41600001 1.1707351e-38
0.016415561 -0.071204871 0.41499999 1.1430764e-38
0.017842997 -0.071204871 0.41499999 1.1154177e-38
0.019270435 -0.071204871 0.41499999 1.0601004e-38
0.020747773 -0.07137645 0.41600001 1.115418e-38
0.02217865 -0.07137645 0.41600001 1.1338571e-38
0.023609526 -0.07137645 0.41600001 1.2812254e-38
0.025040401 -0.07137645 0.41600001 1.3826406e-38
0.026471278 -0.07137645 0.41600001 1.5302995e-38
0.027969226 -0.07154803 0.417 1.604056e-38
0.029403543 -0.07154803 0.417 1.576543e-38
0.030911837 -0.071719602 0.41800001 1.576543e-38
0.00072058378 -0.073343515 0.419 1.0512353e-38
0.0021566467 -0.073168471 0.41800001 1.1895288e-38
0.0035858031 -0.072993435 0.417 1.271932e-38
0.0050201188 -0.072993435 0.417 1.2811516e-38
0.0064389566 -0.072818384 0.41600001 1.2257268e-38
0.0078509143 -0.07264334 0.41499999 1.244166e-38
0.0092783514 -0.07264334 0.41499999 1.2258734e-38
0.010679991 -0.072468303 0.414 1.1889952e-38
0.012104015 -0.072468303 0.414 1.2166546e-38
0.013593365 -0.072818384 0.41600001 1.207435e-38
0.015024241 -0.072818384 0.41600001 1.189104e-38
0.016415561 -0.07264334 0.41499999 1.1430062e-38
0.017842997 -0.07264334 0.41499999 1.1337141e-38
0.019270435 -0.07264334 0.41499999 1.1244945e-38
0.020747773 -0.072818384 0.41600001 1.1060554e-38
0.02217865 -0.072818384 0.41600001 1.115275e-38
0.023609526 -0.072818384 0.41600001 1.1982876e-38
0.025040401 -0.072818384 0.41600001 1.253605e-38
0.026471278 -0.072818384 0.41600001 1.4934931e-38
0.027969226 -0.072993435 0.417 1.5949083e-38
0.029403543 -0.072993435 0.417 1.5305531e-38
0.030911837 -0.073168471 0.41800001 1.5674314e-38
0.00072058378 -0.074795872 0.419 1.7146907e-38
0.0021566467 -0.074617364 0.41800001 1.5302995e-38
0.0035944022 -0.074617364 0.41800001 1.3640919e-38
0.0050201188 -0.074438855 0.417 1.2073593e-38
0.0064389566 -0.074260339 0.41600001 1.078395e-38
