# .PCD v0.7 - Point Cloud Data file format
VERSION 0.7
FIELDS x y z rgb
SIZE 4 4 4 4
TYPE F F F F
COUNT 1 1 1 1
WIDTH 921
HEIGHT 1
VIEWPOINT 0 0 0 1 0 0 0
POINTS 921
DATA ascii
0.0014274094 0.081993476 0.82999998 1.9269212e-38
0.0042823367 0.081993476 0.82999998 1.9177016e-38
-0.015455923 0.07787735 0.81699997 1.8992993e-38
-0.012645765 0.07787735 0.81699997 1.9822754e-38
-0.0098476196 0.07797268 0.81800002 2.1110945e-38
-0.0070340219 0.07797268 0.81800002 2.0834358e-38
-0.0042410614 0.078353971 0.82200003 2.0280065e-38
-0.0014171447 0.078544609 0.824 2.0556652e-38
0.0014170909 0.078544609 0.824 2.0464128e-38
0.0042823367 0.079116531 0.82999998 1.9357781e-38
0.0071372096 0.079116531 0.82999998 1.8897894e-38
-0.023886424 0.075045474 0.81699997 1.9176313e-38
-0.021076266 0.075045474 0.81699997 1.9085186e-38
-0.018266082 0.075045474 0.81699997 2.0836903e-38
-0.015455923 0.075045474 0.81699997 2.3231767e-38
-0.012645765 0.075045474 0.81699997 2.2217615e-38
-0.0098355804 0.075045474 0.81699997 2.2763871e-38
-0.0070254221 0.075045474 0.81699997 2.3501436e-38
-0.0042204238 0.075137332 0.81800002 2.285611e-38
-0.0014137051 0.075504757 0.82200003 2.2118545e-38
0.0014136513 0.075504757 0.82200003 2.0002762e-38
0.0042410614 0.075504757 0.82200003 1.9818371e-38
0.0070340219 0.075137332 0.81800002 1.9175953e-38
0.0098476196 0.075137332 0.81800002 1.9175953e-38
-0.018266082 0.072213553 0.81699997 2.1573693e-38
-0.015418088 0.072036773 0.815 2.2669514e-38
-0.012614809 0.072036773 0.815 2.2853906e-38
-0.0098115029 0.072036773 0.815 2.0366015e-38
-0.0070082243 0.072036773 0.815 1.9075276e-38
-0.0042152638 0.072213553 0.81699997 2.0919236e-38
-0.0014068257 0.072301947 0.81800002 1.852215e-38
0.0014102117 0.072478719 0.81999999 2.1011798e-38
0.0042410614 0.072655506 0.82200003 2.0274233e-38
0.0070340219 0.072301947 0.81800002 1.9083754e-38
0.0098476196 0.072301947 0.81800002 1.9083754e-38
0.012661218 0.072301947 0.81800002 1.8808612e-38
-0.023886424 0.069381632 0.81699997 2.2034011e-38
-0.020973079 0.069041945 0.81300002 2.2858585e-38
-0.018176652 0.069041945 0.81300002 1.8248803e-38
-0.015342416 0.068872094 0.81099999 2.2762446e-38
-0.012552896 0.068872094 0.81099999 2.0734142e-38
-0.0097633488 0.068872094 0.81099999 2.2855757e-38
-0.0069910265 0.069041945 0.81300002 2.1011844e-38
-0.0041946266 0.069041945 0.81300002 1.9630196e-38
-0.0014051058 0.069381632 0.81699997 2.1750663e-38
0.0014067723 0.069466561 0.81800002 1.7506528e-38
0.0042307423 0.069636405 0.81999999 2.0733375e-38
0.0070512192 0.069636405 0.81999999 2.0095712e-38
0.0098716961 0.069636405 0.81999999 1.9634733e-38
0.012692173 0.069636405 0.81999999 1.8900089e-38
0.015588323 0.069976091 0.824 1.8623502e-38
-0.023886424 0.066549748 0.81699997 2.0373024e-38
-0.021076266 0.066549748 0.81699997 2.1103884e-38
-0.018176652 0.066223927 0.81300002 2.0919493e-38
-0.015342416 0.066061012 0.81099999 2.2208896e-38
-0.012521939 0.065898106 0.80900002 1.9996201e-38
-0.0097392714 0.065898106 0.80900002 2.0736326e-38
-0.0069566299 0.065898106 0.80900002 2.0367544e-38
-0.0041843075 0.066061012 0.81099999 1.3823753e-38
-0.0014016661 0.066386841 0.815 2.1844748e-38
0.0014067723 0.066631213 0.81800002 2.0547256e-38
0.0042307423 0.06679412 0.81999999 1.6306257e-38
0.007068418 0.066957042 0.82200003 2.0459755e-38
0.0099198511 0.067119949 0.824 2.1381711e-38
0.012754087 0.067119949 0.824 1.8531662e-38
-0.023827951 0.063561849 0.815 2.1109498e-38
-0.021024672 0.063561849 0.815 1.8705025e-38
-0.018176652 0.063405871 0.81300002 2.1747446e-38
-0.015342416 0.063249886 0.81099999 2.1747583e-38
-0.012521939 0.063093908 0.80900002 1.8151954e-38
-0.0097392714 0.063093908 0.80900002 2.1102941e-38
-0.0069566299 0.063093908 0.80900002 1.6861942e-38
-0.0041843075 0.063249886 0.81099999 1.5387852e-38
-0.0014016661 0.063561849 0.815 1.5572243e-38
0.0014050524 0.063717827 0.81699997 1.8338892e-38
0.0042307423 0.063951805 0.81999999 1.3636915e-38
0.007068418 0.064107783 0.82200003 1.7325014e-38
0.0098957745 0.064107783 0.82200003 2.2119187e-38
0.012754087 0.064263761 0.824 1.8715337e-38
0.015588323 0.064263761 0.824 1.8807533e-38
0.018377844 0.064107783 0.82200003 1.8347268e-38
-0.023827951 0.060736902 0.815 2.0373002e-38
-0.021024672 0.060736902 0.815 1.75065e-38
-0.018131938 0.060438804 0.81099999 2.1747468e-38
-0.015342416 0.060438804 0.81099999 2.119693e-38
-0.012521939 0.060289759 0.80900002 2.0735952e-38
-0.0097392714 0.060289759 0.80900002 2.0826357e-38
-0.0069566299 0.060289759 0.80900002 1.6861945e-38
-0.0041843075 0.060438804 0.81099999 1.5662653e-38
-0.0013982266 0.060587857 0.81300002 1.3818741e-38
0.0014016129 0.060736902 0.815 1.7139604e-38
0.0042204238 0.060960475 0.81800002 1.4742517e-38
0.0070512192 0.06110952 0.81999999 1.6310845e-38
0.0098957745 0.061258573 0.82200003 2.1105002e-38
0.012754087 0.061407618 0.824 1.9082286e-38
0.015550487 0.061258573 0.82200003 1.9266677e-38
0.018377844 0.061258573 0.82200003 1.8531312e-38
-0.029506767 0.058054026 0.81699997 2.0559976e-38
-0.023827951 0.05791191 0.815 2.1474976e-38
-0.020973079 0.057769798 0.81300002 1.7787029e-38
-0.018131938 0.057627682 0.81099999 2.0829478e-38
-0.015304581 0.057485566 0.80900002 2.0642299e-38
-0.012521939 0.057485566 0.80900002 2.1287669e-38
-0.0097392714 0.057485566 0.80900002 1.9903971e-38
-0.0069566299 0.057485566 0.80900002 1.8060058e-38
-0.0041739885 0.057485566 0.80900002 1.5847032e-38
-0.0013982266 0.057769798 0.81300002 1.2896789e-38
0.0014016129 0.05791191 0.815 1.6675717e-38
0.0042152638 0.058054026 0.81699997 1.6583521e-38
0.0070512192 0.058267202 0.81999999 1.5572959e-38
0.0098957745 0.058409318 0.82200003 1.935298e-38
0.01272313 0.058409318 0.82200003 1.806558e-38
0.015550487 0.058409318 0.82200003 1.9817297e-38
0.018377844 0.058409318 0.82200003 1.8531309e-38
-0.032316927 0.055222102 0.81699997 1.9177392e-38
-0.029506767 0.055222102 0.81699997 2.0929109e-38
-0.02663123 0.055086922 0.815 2.1472447e-38
-0.023827951 0.055086922 0.815 2.0642686e-38
-0.020921484 0.054816555 0.81099999 1.8797305e-38
-0.018087223 0.054681376 0.80900002 2.1102196e-38
-0.015304581 0.054681376 0.80900002 2.18398e-38
-0.012490982 0.054546189 0.80699998 2.0272474e-38
-0.0097151939 0.054546189 0.80699998 1.8147196e-38
-0.0069394317 0.054546189 0.80699998 2.0452053e-38
-0.0041739885 0.054681376 0.80900002 1.2163898e-38
-0.0013947869 0.054816555 0.81099999 1.2901452e-38
0.0014016129 0.055086922 0.815 1.4006348e-38
0.0042152638 0.055222102 0.81699997 1.6864389e-38
0.0070340219 0.055289701 0.81800002 1.5574792e-38
0.0098716961 0.05542488 0.81999999 1.815627e-38
0.012692173 0.05542488 0.81999999 2.0002061e-38
0.015512651 0.05542488 0.81999999 1.9725475e-38
0.018333128 0.05542488 0.81999999 1.8440183e-38
-0.037844401 0.052261975 0.815 1.8900101e-38
-0.035041094 0.052261975 0.815 1.8531319e-38
-0.032237817 0.052261975 0.815 2.1293938e-38
-0.029434536 0.052261975 0.815 2.2123699e-38
-0.02656588 0.052133724 0.81300002 2.267068e-38
-0.023711005 0.052005474 0.81099999 2.1287746e-38
-0.02086989 0.051877223 0.80900002 1.8427093e-38
-0.018087223 0.051877223 0.80900002 1.9072462e-38
-0.015304581 0.051877223 0.80900002 2.2759626e-38
-0.012490982 0.051748972 0.80699998 1.888741e-38
-0.0097151939 0.051748972 0.80699998 1.6312639e-38
-0.0069394317 0.051748972 0.80699998 2.0000433e-38
-0.0041739885 0.051877223 0.80900002 1.2808182e-38
-0.0013913471 0.051877223 0.80900002 1.2347211e-38
0.0013981734 0.052133724 0.81300002 1.3450313e-38
0.0042152638 0.052390222 0.81699997 1.7599092e-38
0.0070340219 0.052454352 0.81800002 1.5388185e-38
0.0098716961 0.052582603 0.81999999 1.8522828e-38
0.012692173 0.052582603 0.81999999 1.8986795e-38
0.015512651 0.052582603 0.81999999 1.9539969e-38
0.018377844 0.052710854 0.82200003 1.9357817e-38
0.021463171 0.053352103 0.83200002 1.908123e-38
0.024324978 0.053352103 0.83200002 1.7978125e-38
0.027252082 0.053480353 0.83399999 1.7609343e-38
0.030120714 0.053480353 0.83399999 1.7885214e-38
0.032989345 0.053480353 0.83399999 1.8161801e-38
0.038633741 0.053352103 0.83200002 1.8255441e-38
-0.040448181 0.049194388 0.81099999 1.9269606e-38
-0.037844401 0.049437024 0.815 2.2585055e-38
-0.035041094 0.049437024 0.815 2.3508451e-38
-0.032158706 0.04931571 0.81300002 2.341769e-38
-0.029362306 0.04931571 0.81300002 2.2495734e-38
-0.02656588 0.04931571 0.81300002 2.2947277e-38
-0.023711005 0.049194388 0.81099999 1.9812625e-38
-0.02086989 0.049073074 0.80900002 1.8884474e-38
-0.018087223 0.049073074 0.80900002 1.8146909e-38
-0.015304581 0.049073074 0.80900002 2.2852898e-38
-0.012490982 0.048951752 0.80699998 1.9257268e-38
-0.0097151939 0.048951752 0.80699998 1.7689454e-38
-0.0069394317 0.048951752 0.80699998 2.0178703e-38
-0.0041739885 0.049073074 0.80900002 1.6309504e-38
-0.0013913471 0.049073074 0.80900002 1.1238744e-38
0.0013947338 0.049194388 0.81099999 1.3542866e-38
0.0041946266 0.04931571 0.81300002 1.6677502e-38
0.0070254221 0.049558342 0.81699997 1.3911643e-38
0.0098476196 0.049619004 0.81800002 1.9074573e-38
0.012692173 0.049740322 0.81999999 1.9445979e-38
0.015512651 0.049740322 0.81999999 1.8708413e-38
0.018377844 0.049861643 0.82200003 2.1566552e-38
0.021411575 0.050346911 0.82999998 2.3505542e-38
0.024324978 0.050468229 0.83200002 2.332261e-38
0.027186731 0.050468229 0.83200002 2.2677241e-38
0.030120714 0.050589547 0.83399999 2.221555e-38
0.032989345 0.050589547 0.83399999 2.074042e-38
0.035771988 0.050468229 0.83200002 1.8250756e-38
0.038633741 0.050468229 0.83200002 1.8066365e-38
0.041495547 0.050468229 0.83200002 1.7977769e-38
-0.045913715 0.04626888 0.80900002 2.120643e-38
-0.043237701 0.046383265 0.81099999 2.341769e-38
-0.040448181 0.046383265 0.81099999 2.341769e-38
-0.037658662 0.046383265 0.81099999 2.1936446e-38
-0.034955107 0.046497654 0.81300002 2.1659859e-38
-0.032158706 0.046497654 0.81300002 2.1003665e-38
-0.029362306 0.046497654 0.81300002 2.2294404e-38
-0.02663123 0.046612035 0.815 2.2852936e-38
-0.023769479 0.046497654 0.81300002 2.2668545e-38
-0.020921484 0.046383265 0.81099999 2.2299396e-38
-0.018087223 0.04626888 0.80900002 1.9994506e-38
-0.015304581 0.04626888 0.80900002 2.2855059e-38
-0.012521939 0.04626888 0.80900002 1.9351625e-38
-0.0097151939 0.046154492 0.80699998 1.9720009e-38
-0.0069394317 0.046154492 0.80699998 1.8337075e-38
-0.0041739885 0.04626888 0.80900002 1.7692426e-38
-0.0013913471 0.04626888 0.80900002 1.5664122e-38
0.0013912943 0.04626888 0.80900002 1.4646006e-38
0.0041739885 0.04626888 0.80900002 1.4277223e-38
0.0069738282 0.046383265 0.81099999 1.5939916e-38
0.0098115029 0.046612035 0.815 1.9074557e-38
0.012645738 0.046726421 0.81699997 2.0640206e-38
0.015455897 0.046726421 0.81699997 1.9257271e-38
0.018333128 0.046898 0.81999999 1.5099486e-38
0.021308387 0.047241159 0.82599998 1.5929246e-38
0.024266502 0.047469929 0.82999998 1.6947808e-38
0.027186731 0.047584314 0.83200002 1.9621481e-38
0.030120714 0.047698699 0.83399999 2.1292887e-38
0.032989345 0.047698699 0.83399999 2.3506657e-38
0.035771988 0.047584314 0.83200002 2.3325131e-38
0.038633741 0.047584314 0.83200002 2.2034393e-38
0.041495547 0.047584314 0.83200002 1.8805365e-38
0.0443573 0.047584314 0.83200002 1.8805365e-38
0.047559571 0.047927469 0.838 1.7702264e-38
-0.048696384 0.04346469 0.80900002 1.9545464e-38
-0.045913715 0.04346469 0.80900002 2.3509876e-38
-0.043131076 0.04346469 0.80900002 2.341769e-38
-0.040448181 0.043572139 0.81099999 2.341769e-38
-0.037658662 0.043572139 0.81099999 2.1660578e-38
-0.034869112 0.043572139 0.81099999 1.90791e-38
-0.032158706 0.043679595 0.81300002 1.8053381e-38
-0.029434536 0.043787047 0.815 1.9067533e-38
-0.02663123 0.043787047 0.815 1.9253366e-38
-0.023769479 0.043679595 0.81300002 2.2203626e-38
-0.020973079 0.043679595 0.81300002 2.1283877e-38
-0.018131938 0.043572139 0.81099999 2.1376072e-38
-0.015304581 0.04346469 0.80900002 2.1651856e-38
-0.012521939 0.04346469 0.80900002 2.0176726e-38
-0.0097151939 0.043357234 0.80699998 1.9349049e-38
-0.0069394317 0.043357234 0.80699998 1.8611484e-38
-0.0041636694 0.043357234 0.80699998 1.8243348e-38
-0.0013879074 0.043357234 0.80699998 1.8058957e-38
0.0013878547 0.043357234 0.80699998 1.8525728e-38
0.0041739885 0.04346469 0.80900002 1.8249141e-38
0.0069566299 0.04346469 0.80900002 1.464812e-38
0.0097874263 0.043679595 0.81300002 1.7321767e-38
0.012614782 0.043787047 0.815 1.8152e-38
0.015418061 0.043787047 0.815 1.7137848e-38
0.018266054 0.0438945 0.81699997 1.6582895e-38
0.021153605 0.044055682 0.81999999 1.4831178e-38
0.024091084 0.044270586 0.824 1.5379015e-38
0.027252082 0.044807851 0.83399999 1.5471211e-38
0.030120714 0.044807851 0.83399999 1.6304597e-38
0.032989345 0.044807851 0.83399999 1.7595336e-38
0.035857975 0.044807851 0.83399999 1.6397496e-38
0.038633741 0.044700395 0.83200002 1.7319452e-38
0.041495547 0.044700395 0.83200002 1.9172353e-38
0.044570554 0.044915304 0.83600003 1.880357e-38
0.047559571 0.045022756 0.838 1.7977769e-38
0.050441962 0.045022756 0.838 1.8162161e-38
-0.054261666 0.040660538 0.80900002 1.9362489e-38
-0.051479027 0.040660538 0.80900002 2.2312749e-38
-0.04881677 0.040761057 0.81099999 2.3326185e-38
-0.045913715 0.040660538 0.80900002 2.1851055e-38
-0.043131076 0.040660538 0.80900002 2.2674011e-38
-0.040448181 0.040761057 0.81099999 2.1475468e-38
-0.03756579 0.040660538 0.80900002 2.2856963e-38
-0.034783125 0.040660538 0.80900002 2.1842811e-38
-0.032079592 0.040761057 0.81099999 1.9711506e-38
-0.029362306 0.040861581 0.81300002 1.7406616e-38
-0.02663123 0.0409621 0.815 1.7498799e-38
-0.023827951 0.0409621 0.815 2.0541254e-38
-0.021024672 0.0409621 0.815 2.2945225e-38
-0.018176652 0.040861581 0.81300002 2.3037421e-38
-0.015304581 0.040660538 0.80900002 2.1378195e-38
-0.012521939 0.040660538 0.80900002 2.0548435e-38
-0.0097151939 0.040560015 0.80699998 1.8242381e-38
-0.0069394317 0.040560015 0.80699998 2.0178489e-38
-0.0041636694 0.040560015 0.80699998 1.6955533e-38
-0.0013879074 0.040560015 0.80699998 2.2026293e-38
0.0013878547 0.040560015 0.80699998 1.437082e-38
0.0041739885 0.040660538 0.80900002 2.3129378e-38
0.0069566299 0.040660538 0.80900002 1.9349865e-38
0.0097633488 0.040761057 0.81099999 1.2527388e-38
0.01255287 0.040761057 0.81099999 1.9905852e-38
0.015380226 0.040861581 0.81300002 1.8983896e-38
0.018221339 0.0409621 0.815 1.5850702e-38
0.021076214 0.041062616 0.81699997 1.3914594e-38
0.023915663 0.041112881 0.81800002 1.4922e-38
0.027186731 0.041816521 0.83200002 1.4922e-38
0.030120714 0.041917045 0.83399999 1.4462822e-38
0.032989345 0.041917045 0.83399999 1.4278431e-38
0.035857975 0.041917045 0.83399999 1.418587e-38
0.038726609 0.041917045 0.83399999 1.2987327e-38
0.041595295 0.041917045 0.83399999 1.9538609e-38
0.044570554 0.042017564 0.83600003 1.9815195e-38
0.047559571 0.042118084 0.838 1.8438387e-38
0.050441962 0.042118084 0.838 1.7977409e-38
-0.059531171 0.037669171 0.80500001 2.2862346e-38
-0.057044335 0.037856348 0.80900002 2.2401367e-38
-0.054261666 0.037856348 0.80900002 2.3138167e-38
-0.051479027 0.037856348 0.80900002 2.1755233e-38
-0.04881677 0.037949935 0.81099999 1.9629651e-38
-0.046027225 0.037949935 0.81099999 1.5296456e-38
-0.043237701 0.037949935 0.81099999 1.9720138e-38
-0.040348433 0.037856348 0.80900002 1.9812334e-38
-0.03756579 0.037856348 0.80900002 1.906685e-38
-0.034783125 0.037856348 0.80900002 1.9804415e-38
-0.032079592 0.037949935 0.81099999 2.0728908e-38
-0.029362306 0.038043521 0.81300002 1.9806952e-38
-0.02656588 0.038043521 0.81300002 1.8511524e-38
-0.023827951 0.038137108 0.815 1.7866155e-38
-0.021076266 0.038230695 0.81699997 2.3041001e-38
-0.018221367 0.038137108 0.815 2.350342e-38
-0.015380253 0.038043521 0.81300002 2.1472208e-38
-0.012552896 0.037949935 0.81099999 1.8890731e-38
-0.0097151939 0.037762757 0.80699998 2.0638796e-38
-0.0069394317 0.037762757 0.80699998 2.0177818e-38
-0.0041636694 0.037762757 0.80699998 2.0824597e-38
-0.0013879074 0.037762757 0.80699998 1.9994836e-38
0.0013878547 0.037762757 0.80699998 1.7507372e-38
0.0041739885 0.037856348 0.80900002 1.4280525e-38
0.0069566299 0.037856348 0.80900002 2.28522e-38
0.0097633488 0.037949935 0.81099999 1.7412658e-38
0.01255287 0.037949935 0.81099999 1.5759115e-38
0.015380226 0.038043521 0.81300002 2.0922039e-38
0.018221339 0.038137108 0.815 1.6678315e-38
0.021024618 0.038137108 0.815 1.4004641e-38
0.023915663 0.038277496 0.81800002 1.5106028e-38
0.027186731 0.038932607 0.83200002 1.5198224e-38
0.030120714 0.039026197 0.83399999 1.4555018e-38
0.032989345 0.039026197 0.83399999 1.4555018e-38
0.035857975 0.039026197 0.83399999 1.427916e-38
0.038819477 0.039119784 0.83600003 1.1882074e-38
0.041695043 0.039119784 0.83600003 9.5853621e-39
0.044570554 0.039119784 0.83600003 1.1613666e-38
0.047559571 0.039213371 0.838 1.8160724e-38
0.050441962 0.039213371 0.838 1.825292e-38
-0.059531171 0.034878884 0.80500001 2.2306989e-38
-0.056762289 0.034878884 0.80500001 1.7881598e-38
-0.053993378 0.034878884 0.80500001 1.5571856e-38
-0.051479027 0.035052195 0.80900002 1.4188943e-38
-0.048696384 0.035052195 0.80900002 1.5483381e-38
-0.045913715 0.035052195 0.80900002 1.3731664e-38
-0.043024443 0.034965537 0.80699998 1.6679102e-38
-0.040248681 0.034965537 0.80699998 1.8246428e-38
-0.03756579 0.035052195 0.80900002 1.8148481e-38
-0.034783125 0.035052195 0.80900002 1.8517264e-38
-0.032079592 0.035138849 0.81099999 1.8792777e-38
-0.029362306 0.035225507 0.81300002 1.8792777e-38
-0.02656588 0.035225507 0.81300002 1.9252323e-38
-0.023827951 0.035312161 0.815 1.6855237e-38
-0.021076266 0.035398815 0.81699997 2.1654807e-38
-0.018266082 0.035398815 0.81699997 2.3501961e-38
-0.015418088 0.035312161 0.815 1.9812687e-38
-0.012583853 0.035225507 0.81300002 1.8614144e-38
-0.0097633488 0.035138849 0.81099999 2.0180368e-38
-0.0069566299 0.035052195 0.80900002 2.0272564e-38
-0.0041739885 0.035052195 0.80900002 2.1006159e-38
-0.0013913471 0.035052195 0.80900002 2.1743724e-38
0.0013912943 0.035052195 0.80900002 2.1932074e-38
0.0041739885 0.035052195 0.80900002 1.335788e-38
0.0069566299 0.035052195 0.80900002 2.1561812e-38
0.0097874263 0.035225507 0.81300002 2.3129137e-38
0.012583827 0.035225507 0.81300002 1.6032886e-38
0.015380226 0.035225507 0.81300002 1.9812907e-38
0.018221339 0.035312161 0.815 2.063808e-38
0.021024618 0.035312161 0.815 1.4829755e-38
0.024266502 0.035962079 0.82999998 1.4831239e-38
0.027252082 0.03613539 0.83399999 1.4831239e-38
0.030120714 0.03613539 0.83399999 1.436811e-38
0.032989345 0.03613539 0.83399999 1.436811e-38
0.035857975 0.03613539 0.83399999 1.4094034e-38
0.038819477 0.036222044 0.83600003 9.4842529e-39
0.041695043 0.036222044 0.83600003 5.2615282e-39
0.044570554 0.036222044 0.83600003 1.3559122e-38
0.04767308 0.036395356 0.83999997 1.8805365e-38
-0.056762289 0.032088555 0.80500001 1.4842366e-38
-0.053993378 0.032088555 0.80500001 1.2999386e-38
-0.051479027 0.032248002 0.80900002 1.668721e-38
-0.048696384 0.032248002 0.80900002 1.6777759e-38
-0.045913715 0.032248002 0.80900002 1.8345085e-38
-0.043024443 0.032168277 0.80699998 1.9359635e-38
-0.040248681 0.032168277 0.80699998 1.8068896e-38
-0.03756579 0.032248002 0.80900002 1.8156403e-38
-0.034783125 0.032248002 0.80900002 1.8525185e-38
-0.032316927 0.032566894 0.81699997 1.8892526e-38
-0.029506767 0.032566894 0.81699997 1.9261308e-38
-0.026696583 0.032566894 0.81699997 1.8519064e-38
-0.023915663 0.032606758 0.81800002 1.6675152e-38
-0.021102065 0.032606758 0.81800002 2.0733237e-38
-0.018266082 0.032566894 0.81699997 2.2392758e-38
-0.015455923 0.032566894 0.81699997 1.8611638e-38
-0.012645765 0.032566894 0.81699997 2.0363355e-38
-0.0098115029 0.032487173 0.815 2.1380025e-38
-0.0069910265 0.032407451 0.81300002 2.1564417e-38
-0.0041946266 0.032407451 0.81300002 1.9626857e-38
-0.0013982266 0.032407451 0.81300002 1.7137575e-38
0.0013981734 0.032407451 0.81300002 1.7228649e-38
0.0041946266 0.032407451 0.81300002 1.7781823e-38
0.0069910265 0.032407451 0.81300002 1.5013395e-38
0.0098115029 0.032487173 0.815 1.5658765e-38
0.012614782 0.032487173 0.815 1.5848576e-38
0.015418061 0.032487173 0.815 1.5387598e-38
0.018266054 0.032566894 0.81699997 1.3361067e-38
0.021102011 0.032606758 0.81800002 1.2807893e-38
0.02438345 0.033244543 0.83399999 1.299126e-38
0.027252082 0.033244543 0.83399999 1.3821021e-38
0.030120714 0.033244543 0.83399999 1.4006148e-38
0.032910235 0.033164818 0.83200002 1.2715409e-38
0.035771988 0.033164818 0.83200002 1.1890677e-38
0.038819477 0.033324264 0.83600003 1.7975589e-38
0.041695043 0.033324264 0.83600003 1.7978841e-38
0.044570554 0.033324264 0.83600003 1.8624211e-38
-0.026729262 0.029771371 0.81800002 1.9544382e-38
-0.023915663 0.029771371 0.81800002 1.7147296e-38
-0.021102065 0.029771371 0.81800002 2.2209083e-38
-0.018288441 0.029771371 0.81800002 2.0457366e-38
-0.015455923 0.029734973 0.81699997 2.147152e-38
-0.012645765 0.029734973 0.81699997 2.2946651e-38
-0.0098115029 0.029662183 0.815 2.202577e-38
-0.0070082243 0.029662183 0.815 2.1841379e-38
-0.0041946266 0.029589394 0.81300002 1.9810182e-38
-0.0013982266 0.029589394 0.81300002 1.9349203e-38
0.0014016129 0.029662183 0.815 1.6399266e-38
0.0042049452 0.029662183 0.815 1.5385114e-38
0.0070082243 0.029662183 0.815 1.4923785e-38
0.0098355804 0.029734973 0.81699997 1.2526699e-38
0.012645738 0.029734973 0.81699997 1.4834827e-38
0.015474816 0.029771371 0.81800002 2.045876e-38
0.018333128 0.029844161 0.81999999 1.8899713e-38
0.021153605 0.029844161 0.81999999 1.8807518e-38
0.024441924 0.030426485 0.83600003 1.8439104e-38
0.027252082 0.030353695 0.83399999 1.8623495e-38
0.030120714 0.030353695 0.83399999 1.8622773e-38
0.032910235 0.030280903 0.83200002 1.8714969e-38
0.035771988 0.030280903 0.83200002 1.8162517e-38
0.038633741 0.030280903 0.83200002 1.8439104e-38
-0.023974136 0.02700188 0.81999999 1.9268874e-38
-0.021153659 0.02700188 0.81999999 2.2117969e-38
-0.018266082 0.026903091 0.81699997 2.1472599e-38
-0.015455923 0.026903091 0.81699997 2.28595e-38
-0.012645765 0.026903091 0.81699997 2.2675108e-38
-0.0098115029 0.026837233 0.815 2.2117966e-38
-0.0070082243 0.026837233 0.815 2.0735032e-38
-0.0042049452 0.026837233 0.815 2.1377154e-38
-0.0014016661 0.026837233 0.815 1.9809828e-38
0.0014016129 0.026837233 0.815 1.5939029e-38
0.0042049452 0.026837233 0.815 1.5478051e-38
0.0070082243 0.026837233 0.815 1.5478053e-38
0.0098355804 0.026903091 0.81699997 1.3080967e-38
0.012645738 0.026903091 0.81699997 1.4281665e-38
0.015474816 0.026936024 0.81800002 1.9905599e-38
0.018377844 0.027067741 0.82200003 1.8070671e-38
0.021256793 0.027133597 0.824 1.8162867e-38
0.029759554 0.027133597 0.824 1.7977769e-38
-0.023974136 0.024159601 0.81999999 2.0375219e-38
-0.021153659 0.024159601 0.81999999 2.2579676e-38
-0.018266082 0.024071211 0.81699997 2.2210893e-38
-0.015455923 0.024071211 0.81699997 2.2953485e-38
-0.012614809 0.024012286 0.815 2.2308115e-38
-0.0097874263 0.02395336 0.81300002 2.1748823e-38
-0.0069910265 0.02395336 0.81300002 2.1103454e-38
-0.0041946266 0.02395336 0.81300002 1.9904182e-38
-0.0014016661 0.024012286 0.815 1.7783683e-38
0.0014016129 0.024012286 0.815 1.556917e-38
0.0042049452 0.024012286 0.815 1.5753561e-38
0.0070082243 0.024012286 0.815 1.5753934e-38
0.0098115029 0.024012286 0.815 1.3541239e-38
0.012645738 0.024071211 0.81699997 1.409764e-38
0.015512651 0.024159601 0.81999999 1.9721573e-38
0.018377844 0.024218528 0.82200003 1.8162148e-38
0.021256793 0.024277452 0.824 1.8254344e-38
-0.023915663 0.021265289 0.81800002 2.0928395e-38
-0.021102065 0.021265289 0.81800002 2.2582197e-38
-0.018266082 0.02123929 0.81699997 2.2121218e-38
-0.015455923 0.02123929 0.81699997 2.2954564e-38
-0.012614809 0.021187296 0.815 2.1571629e-38
-0.0097874263 0.021135304 0.81300002 2.1380404e-38
-0.0069910265 0.021135304 0.81300002 2.0089665e-38
-0.0041946266 0.021135304 0.81300002 1.9074421e-38
-0.0014016661 0.021187296 0.815 1.7322704e-38
0.0014016129 0.021187296 0.815 1.658406e-38
0.0042049452 0.021187296 0.815 1.6676256e-38
0.0070082243 0.021187296 0.815 1.474195e-38
0.0098115029 0.021187296 0.815 1.4004385e-38
0.012645738 0.02123929 0.81699997 1.4743369e-38
0.015512651 0.021317281 0.81999999 1.8984368e-38
0.018377844 0.021369275 0.82200003 1.7978488e-38
0.0212052 0.021369275 0.82200003 1.8070684e-38
-0.023886424 0.018407367 0.81699997 2.1389011e-38
-0.021076266 0.018407367 0.81699997 2.3229714e-38
-0.018266082 0.018407367 0.81699997 2.332191e-38
-0.015455923 0.018407367 0.81699997 2.3323343e-38
-0.012614809 0.018362308 0.815 2.2309191e-38
-0.0097874263 0.018317247 0.81300002 2.2668619e-38
-0.0069910265 0.018317247 0.81300002 2.1562271e-38
-0.0041946266 0.018317247 0.81300002 2.0547031e-38
-0.0014016661 0.018362308 0.815 1.8887509e-38
0.0014016129 0.018362308 0.815 1.6769891e-38
0.0042049452 0.018362308 0.815 1.594013e-38
0.0070082243 0.018362308 0.815 1.5293675e-38
0.0098115029 0.018362308 0.815 1.5293675e-38
0.012645738 0.018407367 0.81699997 1.4651524e-38
0.015512651 0.018474961 0.81999999 1.8431545e-38
0.018333128 0.018474961 0.81999999 1.7885937e-38
0.0212052 0.018520022 0.82200003 1.7885937e-38
-0.021076266 0.015575487 0.81699997 2.0362246e-38
-0.018266082 0.015575487 0.81699997 1.7504181e-38
-0.015455923 0.015575487 0.81699997 1.6677007e-38
-0.012614809 0.015537359 0.815 1.5017486e-38
-0.0097874263 0.01549923 0.81300002 1.381711e-38
-0.0069910265 0.01549923 0.81300002 1.2065393e-38
-0.0041946266 0.01549923 0.81300002 1.1147392e-38
-0.0014016661 0.015537359 0.815 1.1516175e-38
0.0014050524 0.015575487 0.81699997 1.0781128e-38
0.0042152638 0.015575487 0.81699997 1.0688932e-38
0.0070254221 0.015575487 0.81699997 1.0412345e-38
0.0098355804 0.015575487 0.81699997 7.9230634e-39
0.012645738 0.015575487 0.81699997 1.2354943e-38
0.015512651 0.015632682 0.81999999 1.770229e-38
0.018266054 0.015575487 0.81699997 1.8069599e-38
0.021076214 0.015575487 0.81699997 1.8069599e-38
-0.021102065 0.012759165 0.81800002 1.3277212e-38
-0.018288441 0.012759165 0.81800002 9.2206042e-39
-0.015455923 0.012743565 0.81699997 8.2987333e-39
-0.012614809 0.01271237 0.815 7.6533639e-39
-0.0097874263 0.012681174 0.81300002 5.4398925e-39
-0.0069910265 0.012681174 0.81300002 4.1491537e-39
-0.0042049452 0.01271237 0.815 4.4243337e-39
-0.0014016661 0.01271237 0.815 4.7931162e-39
0.0014050524 0.012743565 0.81699997 3.2261464e-39
0.0042152638 0.012743565 0.81699997 2.9495595e-39
0.0070340219 0.012759165 0.81800002 2.5793673e-39
0.0098476196 0.012759165 0.81800002 1.4730197e-39
0.012661218 0.012759165 0.81800002 1.6039166e-38
0.015512651 0.01279036 0.81999999 1.9173817e-38
0.018266054 0.012743565 0.81699997 1.7794813e-38
0.021076214 0.012743565 0.81699997 1.7702618e-38
-0.018266082 0.0099116843 0.81699997 1.1248598e-38
-0.015455923 0.0099116843 0.81699997 1.032812e-38
-0.012614809 0.0098874215 0.815 7.931034e-39
-0.0098115029 0.0098874215 0.815 5.4413751e-39
-0.0070082243 0.0098874215 0.815 5.8101576e-39
-0.0042049452 0.0098874215 0.815 5.43958e-39
-0.0014051058 0.0099116843 0.81699997 6.0849494e-39
0.0014050524 0.0099116843 0.81699997 6.6377602e-39
0.0042152638 0.0099116843 0.81699997 7.7441078e-39
0.0070340219 0.0099238176 0.81800002 7.5611529e-39
0.0098476196 0.0099238176 0.81800002 6.8235878e-39
0.012692173 0.0099480804 0.81999999 9.7726751e-39
0.015550487 0.0099723451 0.82200003 1.9361021e-38
0.018377844 0.0099723451 0.82200003 1.7610775e-38
0.0212052 0.0099723451 0.82200003 1.7702971e-38
-0.018221367 0.0070624324 0.815 1.106529e-38
-0.015418088 0.0070624324 0.815 1.0144081e-38
-0.012614809 0.0070624324 0.815 7.0094294e-39
-0.0098115029 0.0070624324 0.815 5.2573607e-39
-0.0070082243 0.0070624324 0.815 5.1651651e-39
-0.0042152638 0.0070797629 0.81699997 6.8243193e-39
-0.0014051058 0.0070797629 0.81699997 7.9306669e-39
0.0014050524 0.0070797629 0.81699997 7.3782232e-39
0.0042152638 0.0070797629 0.81699997 8.1157882e-39
0.0070254221 0.0070797629 0.81699997 7.0097545e-39
0.0098355804 0.0070797629 0.81699997 7.1019502e-39
0.012692173 0.0071057603 0.81999999 3.0438445e-39
0.015550487 0.0071230917 0.82200003 1.8163919e-38
0.018422559 0.0071404227 0.824 1.788629e-38
0.021256793 0.0071404227 0.824 1.7794094e-38
-0.018221367 0.0042374432 0.815 9.8671254e-39
-0.015380253 0.0042270445 0.81300002 9.405434e-39
-0.012583853 0.0042270445 0.81300002 7.1927389e-39
-0.0098115029 0.0042374432 0.815 5.9913329e-39
-0.0070082243 0.0042374432 0.815 7.2820717e-39
-0.0042152638 0.0042478419 0.81699997 8.2072412e-39
-0.0014051058 0.0042478419 0.81699997 8.0228499e-39
0.0014050524 0.0042478419 0.81699997 9.0366515e-39
0.0042152638 0.0042478419 0.81699997 8.2068908e-39
0.0070254221 0.0042478419 0.81699997 6.0885241e-39
0.0098355804 0.0042478419 0.81699997 7.4714586e-39
0.012692173 0.0042634401 0.81999999 2.3070586e-39
0.015550487 0.0042738388 0.82200003 1.429249e-38
0.018422559 0.0042842375 0.824 1.8439104e-38
0.021256793 0.0042842375 0.824 1.7793734e-38
-0.021024672 0.0014124945 0.815 1.1711407e-38
-0.018221367 0.0014124945 0.815 9.2221246e-39
-0.015380253 0.0014090283 0.81300002 9.3132384e-39
-0.012583853 0.0014090283 0.81300002 8.2990865e-39
-0.0098115029 0.0014124945 0.815 8.1143323e-39
-0.0070082243 0.0014124945 0.815 8.4831148e-39
-0.0042049452 0.0014124945 0.815 8.39308e-39
-0.0014051058 0.0014159607 0.81699997 8.8540581e-39
0.0014050524 0.0014159607 0.81699997 9.0380934e-39
0.0042152638 0.0014159607 0.81699997 7.1019852e-39
0.0070254221 0.0014159607 0.81699997 7.7444609e-39
0.0098355804 0.0014159607 0.81699997 8.8508085e-39
0.012661218 0.0014176939 0.81800002 5.9963439e-39
0.015550487 0.0014246264 0.82200003 1.0237343e-38
0.018422559 0.0014280927 0.824 1.8713167e-38
-0.021024672 -0.0014124945 0.815 1.1157165e-38
-0.018221367 -0.0014124945 0.815 1.0788382e-38
-0.015380253 -0.0014090283 0.81300002 9.683816e-39
-0.012583853 -0.0014090283 0.81300002 7.932099e-39
-0.0098115029 -0.0014124945 0.815 8.2983676e-39
-0.0070082243 -0.0014124945 0.815 7.9295851e-39
-0.0042049452 -0.0014124945 0.815 7.8391985e-39
-0.0014051058 -0.0014159607 0.81699997 8.6689592e-39
0.0014050524 -0.0014159607 0.81699997 9.4972737e-39
0.0042152638 -0.0014159607 0.81699997 6.178231e-39
0.0070254221 -0.0014159607 0.81699997 7.1930794e-39
0.0098355804 -0.0014159607 0.81699997 7.6540576e-39
0.012661218 -0.0014176939 0.81800002 8.0232002e-39
0.015512651 -0.0014211602 0.81999999 6.5480701e-39
0.018422559 -0.0014280927 0.824 1.9357091e-38
-0.018221367 -0.0042374432 0.815 8.7622394e-39
-0.015418088 -0.0042374432 0.815 8.8518973e-39
-0.012614809 -0.0042374432 0.815 7.7455497e-39
-0.0098115029 -0.0042374432 0.815 8.2983676e-39
-0.0070082243 -0.0042374432 0.815 7.7451938e-39
-0.0042049452 -0.0042374432 0.815 8.8519113e-39
-0.0014016661 -0.0042374432 0.815 9.0363026e-39
0.0014016129 -0.0042374432 0.815 8.6689648e-39
0.0042049452 -0.0042374432 0.815 5.5343134e-39
0.0070082243 -0.0042374432 0.815 7.0086882e-39
0.0098115029 -0.0042374432 0.815 7.4696663e-39
0.012645738 -0.0042478419 0.81699997 9.2217462e-39
0.015512651 -0.0042634401 0.81999999 3.5978128e-39
0.018422559 -0.0042842375 0.824 1.7239472e-38
0.021359982 -0.0043050349 0.82800001 1.7792645e-38
0.024266502 -0.0043154331 0.82999998 1.7426031e-38
-0.018176652 -0.0070451014 0.81300002 8.4842078e-39
-0.015380253 -0.0070451014 0.81300002 7.7455638e-39
-0.012614809 -0.0070624324 0.815 7.5611725e-39
-0.0098115029 -0.0070624324 0.815 8.7597087e-39
-0.0070082243 -0.0070624324 0.815 8.7597087e-39
-0.0042049452 -0.0070624324 0.815 9.0377473e-39
-0.0014016661 -0.0070624324 0.815 1.0328486e-38
0.0014016129 -0.0070624324 0.815 8.7611548e-39
0.0042049452 -0.0070624324 0.815 6.5484597e-39
0.0070082243 -0.0070624324 0.815 6.3633258e-39
0.0098115029 -0.0070624324 0.815 7.3774777e-39
0.012645738 -0.0070797629 0.81699997 8.2068782e-39
0.015512651 -0.0071057603 0.81999999 4.8878355e-39
0.018422559 -0.0071404227 0.824 1.3737108e-38
0.021359982 -0.0071750851 0.82800001 1.8070303e-38
0.024266502 -0.0071924161 0.82999998 1.7425315e-38
-0.018176652 -0.0098631177 0.81300002 7.9332018e-39
-0.015380253 -0.0098631177 0.81300002 8.1157882e-39
-0.012614809 -0.0098873805 0.815 8.8533533e-39
-0.0098115029 -0.0098873805 0.815 8.5771153e-39
-0.0070082243 -0.0098873805 0.815 9.5912672e-39
-0.0041946266 -0.0098631177 0.81300002 9.4990884e-39
-0.0013982266 -0.0098631177 0.81300002 1.0421045e-38
0.0013981734 -0.0098631177 0.81300002 8.4849225e-39
0.0041946266 -0.0098631177 0.81300002 6.8254011e-39
0.0070082243 -0.0098873805 0.815 7.6519094e-39
0.0098115029 -0.0098873805 0.815 8.1128875e-39
0.012645738 -0.0099116443 0.81699997 8.0232002e-39
0.015474816 -0.0099237766 0.81800002 6.6402658e-39
0.018422559 -0.0099965669 0.824 9.9563643e-39
0.021359982 -0.010045094 0.82800001 1.8714949e-38
0.024266502 -0.010069357 0.82999998 1.7240567e-38
0.027121376 -0.010069357 0.82999998 1.7148372e-38
-0.021076266 -0.012743565 0.81699997 9.8678709e-39
-0.018221367 -0.01271237 0.815 8.5771321e-39
-0.015418088 -0.01271237 0.815 9.4961905e-39
-0.012614809 -0.01271237 0.815 9.5883861e-39
-0.0098115029 -0.01271237 0.815 8.9458978e-39
-0.0070082243 -0.01271237 0.815 9.4990716e-39
-0.0041946266 -0.012681174 0.81300002 1.0971692e-38
-0.0013982266 -0.012681174 0.81300002 1.1156083e-38
0.0013981734 -0.012681174 0.81300002 8.3012346e-39
0.0041946266 -0.012681174 0.81300002 6.2729308e-39
0.0070082243 -0.01271237 0.815 7.4689727e-39
0.0098115029 -0.01271237 0.815 7.4689727e-39
0.012645738 -0.012743565 0.81699997 8.0228471e-39
0.015474816 -0.012759165 0.81800002 7.7462602e-39
0.018377844 -0.012821557 0.82200003 6.3621991e-39
0.021359982 -0.012915145 0.82800001 1.751787e-38
0.02420803 -0.012915145 0.82800001 1.7241286e-38
0.027121376 -0.01294634 0.82999998 1.7149091e-38
-0.021076266 -0.015575446 0.81699997 9.7760284e-39
-0.018221367 -0.015537319 0.815 9.0384634e-39
-0.015418088 -0.015537319 0.815 1.0142996e-38
-0.012614809 -0.015537319 0.815 9.22104e-39
-0.0097874263 -0.01549919 0.81300002 9.2206868e-39
-0.0069910265 -0.01549919 0.81300002 9.3128825e-39
-0.0041946266 -0.01549919 0.81300002 1.0513214e-38
-0.0013982266 -0.01549919 0.81300002 9.4068661e-39
0.0013981734 -0.01549919 0.81300002 7.285275e-39
0.0042049452 -0.015537319 0.815 7.1930794e-39
0.0070082243 -0.015537319 0.815 8.2987305e-39
0.0098115029 -0.015537319 0.815 7.8377524e-39
0.012614782 -0.015537319 0.815 8.2068782e-39
0.015455897 -0.015575446 0.81699997 7.9302913e-39
0.018333128 -0.015632641 0.81999999 5.9952495e-39
0.021308387 -0.015747026 0.82599998 1.3739682e-38
0.02420803 -0.015785154 0.82800001 1.8161801e-38
0.027121376 -0.015823282 0.82999998 1.733204e-38
-0.021076266 -0.018407367 0.81699997 1.0513214e-38
-0.018266082 -0.018407367 0.81699997 1.0052236e-38
-0.015418088 -0.018362308 0.815 1.0142643e-38
-0.012614809 -0.018362308 0.815 1.0050447e-38
-0.0097874263 -0.018317247 0.81300002 9.4972765e-39
-0.0069910265 -0.018317247 0.81300002 9.7738634e-39
-0.0041946266 -0.018317247 0.81300002 1.0419936e-38
-0.0013982266 -0.018317247 0.81300002 9.8667625e-39
0.0013981734 -0.018317247 0.81300002 7.3778308e-39
0.0041946266 -0.018317247 0.81300002 7.2856352e-39
0.0069910265 -0.018317247 0.81300002 8.206172e-39
0.0098115029 -0.018362308 0.815 7.7451938e-39
0.012614782 -0.018362308 0.815 9.0351941e-39
0.015455897 -0.018407367 0.81699997 8.8508029e-39
0.018333128 -0.018474961 0.81999999 7.4693132e-39
0.021256793 -0.018565083 0.824 1.0327378e-38
0.024149556 -0.018610142 0.82599998 1.8435504e-38
0.027056023 -0.018655205 0.82800001 1.7697939e-38
-0.021076266 -0.021239249 0.81699997 9.6802258e-39
-0.018266082 -0.021239249 0.81699997 9.403639e-39
-0.015418088 -0.021187257 0.815 1.0143373e-38
-0.012614809 -0.021187257 0.815 1.0051178e-38
-0.0097874263 -0.021135263 0.81300002 9.7742165e-39
-0.0069910265 -0.021135263 0.81300002 1.0050803e-38
-0.0041946266 -0.021135263 0.81300002 9.9589581e-39
-0.0013982266 -0.021135263 0.81300002 8.1150455e-39
0.0013981734 -0.021135263 0.81300002 7.3753225e-39
0.0041946266 -0.021135263 0.81300002 8.3894744e-39
0.0069910265 -0.021135263 0.81300002 9.0366487e-39
0.0097874263 -0.021135263 0.81300002 7.469323e-39
0.012614782 -0.021187257 0.815 8.4827294e-39
0.015455897 -0.021239249 0.81699997 9.4968814e-39
0.018288413 -0.021265248 0.81800002 8.3898247e-39
0.021153605 -0.02131724 0.81999999 4.7019995e-39
0.024091084 -0.021421228 0.824 1.8068516e-38
0.027056023 -0.021525213 0.82800001 1.7607538e-38
-0.021076266 -0.02407117 0.81699997 8.3019843e-39
-0.018266082 -0.02407117 0.81699997 9.131745e-39
-0.015418088 -0.024012245 0.815 1.115573e-38
-0.012614809 -0.024012245 0.815 1.0233774e-38
-0.0097874263 -0.02395332 0.81300002 9.5894693e-39
-0.0069910265 -0.02395332 0.81300002 9.681665e-39
-0.0041946266 -0.02395332 0.81300002 8.48527e-39
-0.0013982266 -0.02395332 0.81300002 7.1023355e-39
0.0013981734 -0.02395332 0.81300002 7.8377594e-39
0.0041843075 -0.023894394 0.81099999 9.1284982e-39
0.0069738282 -0.023894394 0.81099999 8.7618625e-39
0.0097874263 -0.02395332 0.81300002 6.3647761e-39
0.012614782 -0.024012245 0.815 8.2054139e-39
0.015418061 -0.024012245 0.815 9.2195658e-39
0.018288413 -0.024100635 0.81800002 7.838809e-39
0.021153605 -0.02415956 0.81999999 4.5197663e-39
0.02403261 -0.024218488 0.82200003 1.4290282e-38
0.026990671 -0.024336338 0.82599998 1.7424933e-38
-0.021076266 -0.026903091 0.81699997 1.1339384e-38
-0.018266082 -0.026903091 0.81699997 1.0878406e-38
-0.015455923 -0.026903091 0.81699997 1.1525945e-38
-0.012614809 -0.026837233 0.815 1.0603988e-38
-0.0098115029 -0.026837233 0.815 9.4068788e-39
-0.0069910265 -0.026771378 0.81300002 9.9600525e-39
-0.0041946266 -0.026771378 0.81300002 8.3916324e-39
-0.0013982266 -0.026771378 0.81300002 8.0228499e-39
0.0013981734 -0.026771378 0.81300002 8.3905772e-39
0.0041843075 -0.026705517 0.81099999 9.8657073e-39
0.0069738282 -0.026705517 0.81099999 9.3150433e-39
0.0097874263 -0.026771378 0.81300002 6.5491744e-39
0.012583827 -0.026771378 0.81300002 6.7324516e-39
0.015418061 -0.026837233 0.815 7.377821e-39
0.018266054 -0.026903091 0.81699997 8.2990738e-39
0.021102011 -0.026936024 0.81800002 6.6395525e-39
0.023915663 -0.026936024 0.81800002 1.1249637e-38
0.026990671 -0.027199455 0.82599998 1.7426744e-38
-0.021076266 -0.029734973 0.81699997 1.0235195e-38
-0.018266082 -0.029734973 0.81699997 9.6820209e-39
-0.015455923 -0.029734973 0.81699997 1.0329199e-38
-0.012614809 -0.029662183 0.815 1.0421395e-38
-0.0098115029 -0.029662183 0.815 1.0512863e-38
-0.0069910265 -0.029589394 0.81300002 9.4987114e-39
-0.0041946266 -0.029589394 0.81300002 7.1937899e-39
-0.0013982266 -0.029589394 0.81300002 8.0235505e-39
0.0013981734 -0.029589394 0.81300002 9.4068788e-39
0.0041843075 -0.029516602 0.81099999 1.0144444e-38
0.0069738282 -0.029516602 0.81099999 8.5771181e-39
0.0097874263 -0.029589394 0.81300002 6.6410099e-39
0.012583827 -0.029589394 0.81300002 7.285275e-39
0.015418061 -0.029662183 0.815 7.1930794e-39
0.018266054 -0.029734973 0.81699997 9.0351998e-39
0.021102011 -0.029771371 0.81800002 7.467874e-39
0.023915663 -0.029771371 0.81800002 9.9578217e-39
0.026990671 -0.030062532 0.82599998 1.7425668e-38
0.029976249 -0.030208115 0.82999998 1.6963973e-38
-0.021076266 -0.032566894 0.81699997 1.189435e-38
-0.018266082 -0.032566894 0.81699997 1.1156785e-38
-0.015455923 -0.032566894 0.81699997 1.0605067e-38
-0.012614809 -0.032487173 0.815 1.0789459e-38
-0.0098115029 -0.032487173 0.815 1.0512512e-38
-0.0069910265 -0.032407451 0.81300002 7.8388384e-39
-0.0041946266 -0.032407451 0.81300002 7.1923704e-39
-0.0013982266 -0.032407451 0.81300002 9.5894567e-39
0.0013981734 -0.032407451 0.81300002 1.0971692e-38
0.0041843075 -0.032327726 0.81099999 1.0695105e-38
0.0069738282 -0.032327726 0.81099999 9.0384438e-39
0.0097874263 -0.032407451 0.81300002 6.8257486e-39
0.012583827 -0.032407451 0.81300002 7.7440826e-39
0.015418061 -0.032487173 0.815 7.1909088e-39
0.018266054 -0.032566894 0.81699997 7.470367e-39
0.021102011 -0.032606758 0.81800002 5.4420631e-39
0.023974136 -0.032686479 0.81999999 6.1853889e-39
0.026990671 -0.03292565 0.82599998 1.5497147e-38
0.029976249 -0.033085097 0.82999998 1.6963608e-38
-0.021076266 -0.035398774 0.81699997 1.1155343e-38
-0.018266082 -0.035398774 0.81699997 9.5880176e-39
-0.015455923 -0.035398774 0.81699997 1.0420662e-38
-0.012614809 -0.03531212 0.815 1.1250423e-38
-0.0098115029 -0.03531212 0.815 1.069616e-38
-0.0069910265 -0.035225466 0.81300002 7.3771175e-39
-0.0041946266 -0.035225466 0.81300002 7.8391985e-39
-0.0013982266 -0.035225466 0.81300002 8.4845679e-39
0.0014016129 -0.03531212 0.815 1.0786924e-38
0.0041946266 -0.035225466 0.81300002 1.0602532e-38
0.0069910265 -0.035225466 0.81300002 7.3792405e-39
0.0098115029 -0.03531212 0.815 4.8899585e-39
0.012614782 -0.03531212 0.815 6.180354e-39
0.015455897 -0.035398774 0.81699997 6.2725496e-39
0.018266054 -0.035398774 0.81699997 9.6848319e-39
0.021102011 -0.035442106 0.81800002 1.2174114e-38
0.023974136 -0.03552876 0.81999999 1.5950194e-38
-0.021076266 -0.038230695 0.81699997 8.4838182e-39
-0.018266082 -0.038230695 0.81699997 8.0228401e-39
-0.015455923 -0.038230695 0.81699997 9.9592958e-39
-0.012645765 -0.038230695 0.81699997 9.9592958e-39
-0.0098115029 -0.038137108 0.815 8.2976347e-39
-0.0070082243 -0.038137108 0.815 8.2054391e-39
-0.0042049452 -0.038137108 0.815 1.078797e-38
-0.0014016661 -0.038137108 0.815 1.2539687e-38
0.0014016129 -0.038137108 0.815 1.0601386e-38
0.0042049452 -0.038137108 0.815 1.1431147e-38
0.0070082243 -0.038137108 0.815 9.0343309e-39
0.0098115029 -0.038137108 0.815 1.5856808e-38
0.012645738 -0.038230695 0.81699997 1.7517889e-38
0.015455897 -0.038230695 0.81699997 1.7241302e-38
0.018221339 -0.038137108 0.815 1.7333472e-38
0.020973027 -0.038043521 0.81300002 1.7333472e-38
0.023769479 -0.038043521 0.81300002 1.6781012e-38
-0.021076266 -0.041062579 0.81699997 1.4843474e-38
-0.018266082 -0.041062579 0.81699997 1.4382496e-38
-0.015455923 -0.041062579 0.81699997 1.2905561e-38
-0.012661245 -0.041112844 0.81800002 8.9411488e-39
-0.0098355804 -0.041062579 0.81699997 1.7697961e-38
-0.0070082243 -0.040962059 0.815 1.834333e-38
-0.0042049452 -0.040962059 0.815 1.760935e-38
-0.0014016661 -0.040962059 0.815 1.7424959e-38
0.0014050524 -0.041062579 0.81699997 1.2904437e-38
0.0042152638 -0.041062579 0.81699997 1.4563958e-38
0.0070254221 -0.041062579 0.81699997 1.0874981e-38
0.0098476196 -0.041112844 0.81800002 1.659111e-38
0.012661218 -0.041112844 0.81800002 1.7332047e-38
0.015418061 -0.040962059 0.815 1.6778873e-38
0.018221339 -0.040962059 0.815 1.6595554e-38
0.020973027 -0.04086154 0.81300002 1.6503358e-38
0.023769479 -0.04086154 0.81300002 1.6503706e-38
-0.021076266 -0.0438945 0.81699997 1.9079042e-38
-0.018266082 -0.0438945 0.81699997 1.9816607e-38
-0.015474843 -0.043948229 0.81800002 1.456074e-38
-0.012661245 -0.043948229 0.81800002 8.6602193e-39
-0.0098476196 -0.043948229 0.81800002 1.64079e-38
-0.0070254221 -0.0438945 0.81699997 1.8804987e-38
-0.0042152638 -0.0438945 0.81699997 1.7238348e-38
-0.0014068257 -0.043948229 0.81800002 1.1245632e-38
0.0014067723 -0.043948229 0.81800002 9.8644602e-39
0.0042204238 -0.043948229 0.81800002 1.0141047e-38
0.0070512192 -0.044055682 0.81999999 7.4623515e-39
0.0098957745 -0.044163138 0.82200003 1.3639443e-38
0.01272313 -0.044163138 0.82200003 1.751569e-38
0.015418061 -0.043787047 0.815 1.6962516e-38
0.018221339 -0.043787047 0.815 1.6318964e-38
0.021024618 -0.043787047 0.815 1.6226769e-38
0.023827951 -0.043787047 0.815 1.6411516e-38
-0.021102065 -0.046783578 0.81800002 2.0738557e-38
-0.018266082 -0.04672638 0.81699997 1.8433667e-38
-0.015455923 -0.04672638 0.81699997 1.5389053e-38
-0.012645765 -0.04672638 0.81699997 1.1332445e-38
-0.0098355804 -0.04672638 0.81699997 6.8148395e-39
-0.0070340219 -0.046783578 0.81800002 2.0275389e-38
-0.0042204238 -0.046783578 0.81800002 1.1709452e-38
-0.0014137051 -0.047012348 0.82200003 1.6227038e-38
0.0014136513 -0.047012348 0.82200003 1.8246791e-38
0.0042410614 -0.047012348 0.82200003 1.7878008e-38
0.007068418 -0.047012348 0.82200003 1.4101188e-38
0.0098957745 -0.047012348 0.82200003 8.5694502e-39
0.01272313 -0.047012348 0.82200003 1.6776303e-38
0.015474816 -0.046783578 0.81800002 2.0095346e-38
0.018288413 -0.046783578 0.81800002 1.8991189e-38
0.021102011 -0.046783578 0.81800002 1.8714602e-38
-0.018266082 -0.049558301 0.81699997 2.0362199e-38
-0.015455923 -0.049558301 0.81699997 1.5759245e-38
-0.012645765 -0.049558301 0.81699997 1.1610442e-38
-0.0098355804 -0.049558301 0.81699997 4.8862941e-39
-0.0070254221 -0.049558301 0.81699997 1.3644869e-38
-0.0042204238 -0.049618967 0.81800002 1.1067014e-38
-0.0014051058 -0.049558301 0.81699997 1.493923e-38
0.0014050524 -0.049558301 0.81699997 1.8616991e-38
0.0042152638 -0.049558301 0.81699997 1.6035514e-38
0.0070254221 -0.049558301 0.81699997 1.3822835e-38
0.0098476196 -0.049618967 0.81800002 1.0964771e-38
0.012692173 -0.049740281 0.81999999 1.1527653e-38
0.015455897 -0.049558301 0.81699997 1.5031087e-38
0.018266054 -0.049558301 0.81699997 1.5584254e-38
0.021102011 -0.049618967 0.81800002 1.6782797e-38
-0.015455923 -0.052390222 0.81699997 1.2445187e-38
-0.012645765 -0.052390222 0.81699997 1.3090556e-38
-0.0098355804 -0.052390222 0.81699997 1.180387e-38
-0.0070254221 -0.052390222 0.81699997 1.5676086e-38
-0.0042204238 -0.052454352 0.81800002 1.6685576e-38
-0.0014051058 -0.052390222 0.81699997 1.5026055e-38
0.0014050524 -0.052390222 0.81699997 1.4749429e-38
0.0042152638 -0.052390222 0.81699997 1.4196255e-38
0.0070254221 -0.052390222 0.81699997 1.4749468e-38
0.0098476196 -0.052454352 0.81800002 1.5026055e-38
0.012692173 -0.052582603 0.81999999 1.7608634e-38
0.015455897 -0.052390222 0.81699997 1.9821329e-38
0.018266054 -0.052390222 0.81699997 1.9729486e-38
