# .PCD v0.7 - Point Cloud Data file format
VERSION 0.7
FIELDS x y z rgb
SIZE 4 4 4 4
TYPE F F F F
COUNT 1 1 1 1
WIDTH 998
HEIGHT 1
VIEWPOINT 0 0 0 1 0 0 0
POINTS 998
DATA ascii
0.050789379 0.025962021 0.428 1.2332943e-38
0.052383639 0.02602268 0.42899999 1.6481746e-38
0.05385923 0.02602268 0.42899999 1.1414179e-38
0.055463806 0.026083339 0.43000001 1.0584418e-38
0.057075258 0.026143998 0.43099999 1.1773302e-38
0.05855773 0.026143998 0.43099999 8.4542592e-39
0.060179509 0.026204659 0.43200001 1.1046549e-38
0.061808188 0.026265316 0.433 1.0585571e-38
0.063589908 0.026386634 0.435 2.082934e-38
0.065086134 0.026386634 0.435 1.999958e-38
0.066735424 0.026447292 0.43599999 1.9083732e-38
0.068391599 0.026507953 0.43700001 2.0558862e-38
0.070054643 0.02656861 0.43799999 2.0648556e-38
0.071724609 0.026629271 0.43900001 1.8067078e-38
0.073234595 0.026629271 0.43900001 1.7887009e-38
0.074744582 0.026629271 0.43900001 1.7610422e-38
-0.020298902 0.023277422 0.40700001 1.5010081e-38
-0.018852547 0.02322023 0.40599999 1.4988986e-38
-0.017456055 0.02322023 0.40599999 1.6648508e-38
-0.015980463 0.023105845 0.40400001 1.8232395e-38
-0.014590863 0.023105845 0.40400001 1.3991396e-38
-0.013201249 0.023105845 0.40400001 1.9892658e-38
-0.011840885 0.023163037 0.405 1.6850202e-38
-0.010447844 0.023163037 0.405 1.2601911e-38
-0.0090771466 0.02322023 0.40599999 1.3892643e-38
-0.0076806671 0.02322023 0.40599999 1.2504376e-38
-0.0062996657 0.023277422 0.40700001 1.0476072e-38
-0.004911771 0.023334615 0.40799999 7.2596677e-39
-0.0035084116 0.023334615 0.40799999 1.2514813e-38
-0.0021102119 0.023391809 0.40900001 6.2548582e-39
-0.00070341286 0.023391809 0.40900001 1.0956826e-38
0.00070510583 0.023449 0.41 7.9093405e-39
0.0021205307 0.023506194 0.41100001 1.1689361e-38
0.0035428079 0.023563387 0.412 1.3069806e-38
0.0049719643 0.023620579 0.41299999 1.0119546e-38
0.0064079999 0.023677772 0.414 8.7391082e-39
0.0078509143 0.023734964 0.41499999 1.482402e-38
0.0092783514 0.023734964 0.41499999 1.0667651e-38
0.010705788 0.023734964 0.41499999 1.4171085e-38
0.012162489 0.023792157 0.41600001 8.6479691e-39
0.013560688 0.023734964 0.41499999 1.3165555e-38
0.014915893 0.023620579 0.41299999 1.2421192e-38
0.01633645 0.023620579 0.41299999 8.0879977e-39
0.017714012 0.023563387 0.412 1.3170659e-38
0.01913113 0.023563387 0.412 1.0220398e-38
0.020598149 0.023620579 0.41299999 1.3257802e-38
0.022018706 0.023620579 0.41299999 1.3534389e-38
0.023439264 0.023620579 0.41299999 7.8135506e-39
0.024859821 0.023620579 0.41299999 1.1777951e-38
0.026280379 0.023620579 0.41299999 1.2608418e-38
0.027700936 0.023620579 0.41299999 1.0119136e-38
0.029192006 0.023677772 0.414 5.5122822e-39
0.031281594 0.024192505 0.42300001 7.9093671e-39
0.032426983 0.023963735 0.419 1.0867909e-38
0.033868179 0.023963735 0.419 8.9318007e-39
0.035309374 0.023963735 0.419 1.0500553e-38
0.036838278 0.024020925 0.41999999 1.0316162e-38
0.038465213 0.024135312 0.42199999 1.3075594e-38
0.040011317 0.024192505 0.42300001 1.0862899e-38
0.041564327 0.024249697 0.42399999 6.4349419e-39
0.043022718 0.024249697 0.42399999 7.9100664e-39
0.044690929 0.024364082 0.426 7.1699874e-39
0.046264548 0.024421275 0.42699999 5.3264588e-39
0.047845051 0.024478469 0.428 7.7307787e-39
0.0493172 0.024478469 0.428 8.9293218e-39
0.050789379 0.024478469 0.428 9.2829381e-39
0.052383639 0.02453566 0.42899999 1.4538089e-38
0.05385923 0.02453566 0.42899999 7.2614614e-39
0.055463806 0.024592854 0.43000001 1.1225862e-38
0.057075258 0.024650047 0.43099999 1.251843e-38
0.05855773 0.024650047 0.43099999 1.039793e-38
0.060179509 0.024707241 0.43200001 1.3168131e-38
0.061665446 0.024707241 0.43200001 1.2522761e-38
0.06344372 0.024821624 0.43399999 1.9257319e-38
0.065086134 0.024878819 0.435 2.303734e-38
0.066735424 0.024936009 0.43599999 2.1108424e-38
0.068391599 0.024993204 0.43700001 2.2030381e-38
0.069894709 0.024993204 0.43700001 2.2768695e-38
0.071561217 0.025050396 0.43799999 2.203113e-38
0.073067769 0.025050396 0.43799999 2.0554198e-38
0.074744582 0.025107589 0.43900001 1.9171264e-38
0.076254569 0.025107589 0.43900001 1.8161795e-38
-0.021592194 0.021759208 0.405 1.0133473e-38
-0.020199154 0.021759208 0.405 8.0130058e-39
-0.018806113 0.021759208 0.405 1.5827774e-38
-0.017413059 0.021759208 0.405 1.444484e-38
-0.015940908 0.021651756 0.403 1.8975364e-38
-0.014554746 0.021651756 0.403 1.8145603e-38
-0.013168572 0.021651756 0.403 1.5091589e-38
-0.011782411 0.021651756 0.403 1.7119893e-38
-0.010422047 0.021705482 0.40400001 1.001941e-38
-0.0090547903 0.021759208 0.405 1.1955518e-38
-0.0076806671 0.021812934 0.40599999 8.8226984e-39
-0.0062996657 0.021866662 0.40700001 9.5602635e-39
-0.0048997323 0.021866662 0.40700001 6.3395191e-39
-0.0035084116 0.021920387 0.40799999 1.3715162e-38
-0.0021050524 0.021920387 0.40799999 1.2062834e-38
-0.00070341286 0.021974115 0.40900001 1.3906747e-38
0.00070510583 0.022027841 0.41 9.1100095e-39
0.0021205307 0.022081569 0.41100001 1.1138305e-38
0.0035428079 0.022135293 0.412 1.1864389e-38
0.004984003 0.022242747 0.414 1.0942433e-38
0.0064079999 0.022242747 0.414 1.0305358e-38
0.0078319972 0.022242747 0.414 1.6666856e-38
0.0092783514 0.022296473 0.41499999 1.0129966e-38
0.010705788 0.022296473 0.41499999 1.0775335e-38
0.012162489 0.022350198 0.41600001 1.1047253e-38
0.013528012 0.022242747 0.414 1.2430187e-38
0.014915893 0.022189019 0.41299999 1.2331527e-38
0.01633645 0.022189019 0.41299999 1.0948593e-38
0.017714012 0.022135293 0.412 1.4185192e-38
0.01913113 0.022135293 0.412 1.2894453e-38
0.020548275 0.022135293 0.412 1.5749638e-38
0.022018706 0.022189019 0.41299999 1.5012073e-38
0.023439264 0.022189019 0.41299999 9.3873419e-39
0.024859821 0.022189019 0.41299999 1.3904928e-38
0.026280379 0.022189019 0.41299999 1.4360161e-38
0.027700936 0.022189019 0.41299999 1.4360161e-38
0.029121494 0.022189019 0.41299999 1.2704629e-38
0.030542077 0.022189019 0.41299999 1.6576845e-38
0.032040026 0.022242747 0.414 1.4457062e-38
0.033625688 0.022350198 0.41600001 1.5747801e-38
0.035140835 0.022403926 0.417 9.5681108e-39
0.036662858 0.022457652 0.41800001 8.7383627e-39
0.038647514 0.02278001 0.42399999 1.3537624e-38
0.040105905 0.02278001 0.42399999 9.204429e-39
0.041564327 0.02278001 0.42399999 1.040296e-38
0.043124191 0.022833737 0.42500001 1.2062481e-38
0.044690929 0.022887463 0.426 1.1413137e-38
0.046264548 0.022941189 0.42699999 7.6331166e-39
0.047845051 0.022994917 0.428 1.0500982e-38
0.049432427 0.023048641 0.42899999 5.3380265e-39
0.050908048 0.023048641 0.42899999 7.3608919e-39
0.052383639 0.023048641 0.42899999 7.8218701e-39
0.053984772 0.023102369 0.43000001 7.0749205e-39
0.055463806 0.023102369 0.43000001 9.748584e-39
0.057075258 0.023156095 0.43099999 1.0485097e-38
0.05855773 0.023156095 0.43099999 7.8114234e-39
0.060179509 0.023209823 0.43200001 1.1968859e-38
0.061665446 0.023209823 0.43200001 1.2614228e-38
0.06344372 0.023317274 0.43399999 1.3448966e-38
0.065086134 0.023371002 0.435 1.7505574e-38
0.066735424 0.023424728 0.43599999 1.7232217e-38
0.068391599 0.023478454 0.43700001 1.3636587e-38
0.069894709 0.023478454 0.43700001 1.3452193e-38
0.071561217 0.02353218 0.43799999 1.3913172e-38
0.073067769 0.02353218 0.43799999 1.6498277e-38
0.074744582 0.023585908 0.43900001 1.8895364e-38
0.076254569 0.023585908 0.43900001 1.8253993e-38
0.077764556 0.023585908 0.43900001 1.7977407e-38
-0.021538882 0.02030514 0.40400001 1.7786489e-38
-0.020149279 0.02030514 0.40400001 1.0687426e-38
-0.018759679 0.02030514 0.40400001 1.620122e-38
-0.017327068 0.020254878 0.403 1.2789982e-38
-0.015901351 0.020204619 0.40200001 1.1589607e-38
-0.014518631 0.020204619 0.40200001 1.8227692e-38
-0.013135895 0.020204619 0.40200001 1.085459e-38
-0.011782411 0.020254878 0.403 1.3436067e-38
-0.01039625 0.020254878 0.403 9.4832145e-39
-0.0090324329 0.02030514 0.40400001 5.8875849e-39
-0.0076617496 0.0203554 0.405 1.1963834e-38
-0.0062996657 0.020455921 0.40700001 1.3162377e-38
-0.0048997323 0.020455921 0.40700001 1.1132609e-38
-0.0034998127 0.020455921 0.40700001 1.5465803e-38
-0.0021050524 0.020506181 0.40799999 1.3724516e-38
-0.00070341286 0.020556441 0.40900001 1.1696212e-38
0.00070510583 0.0206067 0.41 7.7213563e-39
0.0021205307 0.020656962 0.41100001 1.2146737e-38
0.003551407 0.020757481 0.41299999 1.3164463e-38
0.004984003 0.020807743 0.414 1.3533246e-38
0.0064079999 0.020807743 0.414 1.0300337e-38
0.0078319972 0.020807743 0.414 9.9315543e-39
0.0092783514 0.020858003 0.41499999 6.5274991e-39
0.010705788 0.020858003 0.41499999 6.6196947e-39
0.012162489 0.020908261 0.41600001 7.8204407e-39
0.013495335 0.020757481 0.41299999 7.5438538e-39
0.014915893 0.020757481 0.41299999 6.5260922e-39
0.01633645 0.020757481 0.41299999 5.4197446e-39
0.017757008 0.020757481 0.41299999 1.0870812e-38
0.01913113 0.020707222 0.412 6.261031e-39
0.020548275 0.020707222 0.412 1.1508616e-38
0.022018706 0.020757481 0.41299999 9.8490949e-39
0.023439264 0.020757481 0.41299999 7.5373266e-39
0.024859821 0.020757481 0.41299999 1.1317339e-38
0.026280379 0.020757481 0.41299999 1.11326e-38
0.027700936 0.020757481 0.41299999 1.1593578e-38
0.029121494 0.020757481 0.41299999 9.4799523e-39
0.030542077 0.020757481 0.41299999 1.7316581e-38
0.032040026 0.020807743 0.414 1.5009514e-38
0.033625688 0.020908261 0.41600001 1.4732927e-38
0.035140835 0.020958522 0.417 6.8076719e-39
0.03657515 0.020958522 0.417 1.2155018e-38
0.038738664 0.021360604 0.42500001 1.0406889e-38
0.040200498 0.021360604 0.42500001 5.0595619e-39
0.041662358 0.021360604 0.42500001 1.0394307e-38
0.043124191 0.021360604 0.42500001 1.1131872e-38
0.044795837 0.021461124 0.42699999 1.0672289e-38
0.046372898 0.021511385 0.428 1.2147415e-38
0.047956835 0.021561645 0.42899999 1.2614651e-38
0.049432427 0.021561645 0.42899999 1.1047326e-38
0.051026713 0.021611905 0.43000001 1.2804715e-38
0.052505743 0.021611905 0.43000001 6.351021e-39
0.053984772 0.021611905 0.43000001 6.3416883e-39
0.05559279 0.021662164 0.43099999 6.8948621e-39
0.057075258 0.021662164 0.43099999 6.0672818e-39
0.058693599 0.021712426 0.43200001 4.4999561e-39
0.060179509 0.021712426 0.43200001 8.285009e-39
0.061665446 0.021712426 0.43200001 6.1645095e-39
0.06344372 0.021812946 0.43399999 1.2894716e-38
0.065086134 0.021863207 0.435 1.4277651e-38
0.066735424 0.021913467 0.43599999 1.2899748e-38
0.068391599 0.021963727 0.43700001 1.3176335e-38
0.069894709 0.021963727 0.43700001 1.363872e-38
0.071561217 0.022013986 0.43799999 1.2716764e-38
0.073067769 0.022013986 0.43799999 1.0317861e-38
0.074744582 0.022064248 0.43900001 1.4558839e-38
0.076254569 0.022064248 0.43900001 1.8806088e-38
0.077764556 0.022064248 0.43900001 1.8252914e-38
-0.029432802 0.018624011 0.398 2.3043804e-38
-0.028063837 0.018624011 0.398 2.1753065e-38
-0.026761934 0.018670805 0.39899999 2.2395548e-38
-0.025389532 0.018670805 0.39899999 2.1104809e-38
-0.024137516 0.018764393 0.40099999 1.6861925e-38
-0.022871727 0.018857982 0.403 1.7415099e-38
-0.021485565 0.018857982 0.403 1.5757803e-38
-0.020099405 0.018857982 0.403 1.2162173e-38
-0.018713243 0.018857982 0.403 1.1042149e-38
-0.017327068 0.018857982 0.403 1.2148497e-38
-0.015861796 0.018764393 0.40099999 1.0473551e-38
-0.014482515 0.018764393 0.40099999 1.5728699e-38
-0.013135895 0.018811189 0.40200001 1.409404e-38
-0.011753174 0.018811189 0.40200001 1.1789149e-38
-0.01039625 0.018857982 0.403 1.6766306e-38
-0.0090100747 0.018857982 0.403 1.0865786e-38
-0.0076617496 0.018951571 0.405 1.4731491e-38
-0.0062841866 0.018998364 0.40599999 1.3071969e-38
-0.0048876936 0.018998364 0.40599999 1.0486146e-38
-0.0034998127 0.019045159 0.40700001 1.1315907e-38
-0.0021050524 0.019091953 0.40799999 1.20632e-38
-0.00070341286 0.019138748 0.40900001 1.4275895e-38
0.00070510583 0.019185541 0.41 8.8345548e-39
0.0021256902 0.01927913 0.412 1.1784815e-38
0.003551407 0.019325923 0.41299999 1.1776512e-38
0.004984003 0.019372717 0.414 9.1950347e-39
0.0064079999 0.019372717 0.414 9.3866524e-39
0.0078319972 0.019372717 0.414 6.7129791e-39
0.0092783514 0.01941951 0.41499999 1.086182e-38
0.010731585 0.019466303 0.41600001 6.0676476e-39
0.012133251 0.01941951 0.41499999 1.1125782e-38
0.013495335 0.019325923 0.41299999 1.1033586e-38
0.014915893 0.019325923 0.41299999 9.6492319e-39
0.01633645 0.019325923 0.41299999 9.0038625e-39
0.017757008 0.019325923 0.41299999 1.1511155e-38
0.019177565 0.019325923 0.41299999 6.2560045e-39
0.020598149 0.019325923 0.41299999 9.2998742e-39
0.022018706 0.019325923 0.41299999 6.9027878e-39
0.023439264 0.019325923 0.41299999 4.7772437e-39
0.024859821 0.019325923 0.41299999 7.5431126e-39
0.026280379 0.019325923 0.41299999 7.4480457e-39
0.027700936 0.019325923 0.41299999 5.7885243e-39
0.029192006 0.019372717 0.414 3.9514487e-39
0.03061603 0.019372717 0.414 9.2987952e-39
0.032117419 0.01941951 0.41499999 5.6102161e-39
0.033625688 0.019466303 0.41600001 8.6526635e-39
0.035140835 0.019513099 0.417 6.3449379e-39
0.03657515 0.019513099 0.417 9.2951981e-39
0.038100615 0.019559892 0.41800001 7.0871791e-39
0.040389672 0.019981038 0.42699999 8.2857223e-39
0.041858412 0.019981038 0.42699999 1.2147109e-38
0.043327123 0.019981038 0.42699999 1.1686131e-38
0.044900745 0.020027833 0.428 7.8110394e-39
0.046481244 0.020074626 0.42899999 1.1498856e-38
0.047956835 0.020074626 0.42899999 1.1878108e-38
0.049547654 0.02012142 0.43000001 1.0034195e-38
0.051026713 0.02012142 0.43000001 1.4003595e-38
0.052505743 0.02012142 0.43000001 7.7342917e-39
0.054110318 0.020168213 0.43099999 1.1600413e-38
0.05559279 0.020168213 0.43099999 1.123163e-38
0.057207689 0.020215008 0.43200001 1.0305358e-38
0.058693599 0.020215008 0.43200001 6.986315e-39
0.060179509 0.020215008 0.43200001 8.5659273e-39
0.061665446 0.020215008 0.43200001 3.3107764e-39
0.06344372 0.020308595 0.43399999 1.160793e-38
0.065086134 0.02035539 0.435 1.2161104e-38
0.066735424 0.020402184 0.43599999 1.0965067e-38
0.068391599 0.020448979 0.43700001 1.1702632e-38
0.069894709 0.020448979 0.43700001 1.1795536e-38
0.071561217 0.020495772 0.43799999 1.1334558e-38
0.073067769 0.020495772 0.43799999 6.080873e-39
0.074744582 0.020542568 0.43900001 1.2165773e-38
0.076254569 0.020542568 0.43900001 1.8164677e-38
0.077764556 0.020542568 0.43900001 1.7427112e-38
-0.030724375 0.017201139 0.39700001 2.0461598e-38
-0.029358851 0.017201139 0.39700001 1.935343e-38
-0.028063837 0.017244468 0.398 1.7325126e-38
-0.026761934 0.017287795 0.39899999 1.7233283e-38
-0.025389532 0.017287795 0.39899999 1.7878653e-38
-0.024077322 0.017331123 0.40000001 1.4101128e-38
-0.022758221 0.01737445 0.40099999 1.4008932e-38
-0.021432253 0.017417779 0.40200001 1.5019159e-38
-0.020099405 0.017461106 0.403 1.2898659e-38
-0.018713243 0.017461106 0.403 9.7633242e-39
-0.017327068 0.017461106 0.403 1.0039911e-38
-0.015782684 0.017287795 0.39899999 1.2233898e-38
-0.014410282 0.017287795 0.39899999 1.4354397e-38
-0.01310322 0.01737445 0.40099999 1.4004025e-38
-0.011723937 0.01737445 0.40099999 1.2897677e-38
-0.010370452 0.017417779 0.40200001 1.6488973e-38
-0.0090100747 0.017461106 0.403 9.389909e-39
-0.0076428317 0.017504435 0.40400001 1.0297829e-38
-0.006268709 0.017547762 0.405 1.2787111e-38
-0.0048876936 0.017591089 0.40599999 1.0667314e-38
-0.0034998127 0.017634418 0.40700001 1.4447335e-38
-0.0021050524 0.017677745 0.40799999 1.0865346e-38
-0.00070341286 0.017721074 0.40900001 1.1879498e-38
0.00071198493 0.017937712 0.414 4.9659663e-39
0.002136009 0.017937712 0.414 5.9801183e-39
0.0035600059 0.017937712 0.414 7.4447863e-39
0.004984003 0.017937712 0.414 7.4447863e-39
0.0064079999 0.017937712 0.414 9.4802774e-39
0.0078509143 0.017981039 0.41499999 1.2338342e-38
0.0092783514 0.017981039 0.41499999 1.2249762e-38
0.010705788 0.017981039 0.41499999 9.2995015e-39
0.012104015 0.017937712 0.414 1.3343143e-38
0.013495335 0.017894384 0.41299999 1.3250947e-38
0.014915893 0.017894384 0.41299999 1.0481494e-38
0.01633645 0.017894384 0.41299999 1.0665885e-38
0.017757008 0.017894384 0.41299999 1.3540854e-38
0.019177565 0.017894384 0.41299999 7.2715507e-39
0.020598149 0.017894384 0.41299999 1.3533345e-38
0.022018706 0.017894384 0.41299999 8.4625858e-39
0.023439264 0.017894384 0.41299999 8.6389994e-39
0.024859821 0.017894384 0.41299999 1.0575108e-38
0.026280379 0.017894384 0.41299999 1.07566e-38
0.027768008 0.017937712 0.414 9.0970951e-39
0.029192006 0.017937712 0.414 8.7362579e-39
0.03061603 0.017937712 0.414 1.2516279e-38
0.032117419 0.017981039 0.41499999 1.002443e-38
0.033625688 0.018024366 0.41600001 1.297469e-38
0.035140835 0.018067695 0.417 8.5558198e-39
0.036662858 0.018111022 0.41800001 5.2367771e-39
0.038100615 0.018111022 0.41800001 4.4117234e-39
0.040578853 0.018587628 0.42899999 6.3478316e-39
0.042054471 0.018587628 0.42899999 9.5695989e-39
0.043530062 0.018587628 0.42899999 1.1597903e-38
0.045005653 0.018587628 0.42899999 9.296235e-39
0.046481244 0.018587628 0.42899999 1.3537234e-38
0.047956835 0.018587628 0.42899999 1.2339061e-38
0.049547654 0.018630957 0.43000001 1.1785887e-38
0.051026713 0.018630957 0.43000001 9.9398094e-39
0.052505743 0.018630957 0.43000001 6.0675999e-39
0.054110318 0.018674284 0.43099999 1.0951077e-38
0.055721778 0.018717613 0.43200001 1.1412056e-38
0.057207689 0.018717613 0.43200001 9.937629e-39
0.058693599 0.018717613 0.43200001 1.2334715e-38
0.060179509 0.018717613 0.43200001 1.3360448e-38
0.061665446 0.018717613 0.43200001 7.0911448e-39
0.063589908 0.018847596 0.435 1.0960776e-38
0.065086134 0.018847596 0.435 1.298908e-38
0.066888489 0.018934252 0.43700001 1.0599109e-38
0.068391599 0.018934252 0.43700001 9.4005827e-39
0.070054643 0.018977579 0.43799999 8.9360243e-39
0.071724609 0.019020908 0.43900001 7.5531108e-39
0.073234595 0.019020908 0.43900001 9.8648974e-39
0.074744582 0.019020908 0.43900001 1.760933e-38
0.076254569 0.019020908 0.43900001 1.8070318e-38
0.077764556 0.019020908 0.43900001 1.7701536e-38
-0.030724375 0.015825041 0.39700001 1.6310261e-38
-0.029358851 0.015825041 0.39700001 1.5295733e-38
-0.02813435 0.015904762 0.39899999 1.5387929e-38
-0.026761934 0.015904762 0.39899999 1.5296093e-38
-0.025389532 0.015904762 0.39899999 1.5019507e-38
-0.024077322 0.015944624 0.40000001 1.3731301e-38
-0.022758221 0.015984487 0.40099999 1.3731301e-38
-0.021432253 0.016024349 0.40200001 1.4282683e-38
-0.020099405 0.01606421 0.403 1.1885596e-38
-0.018713243 0.01606421 0.403 1.0686353e-38
-0.017327068 0.01606421 0.403 1.0686353e-38
-0.015782684 0.015904762 0.39899999 1.334493e-38
-0.014410282 0.015904762 0.39899999 8.7351481e-39
-0.013070543 0.015944624 0.40000001 1.3076282e-38
-0.011723937 0.015984487 0.40099999 1.0494805e-38
-0.010370452 0.016024349 0.40200001 1.3441112e-38
-0.0090100747 0.01606421 0.403 1.1873786e-38
-0.0076428317 0.016104072 0.40400001 1.141567e-38
-0.006268709 0.016143933 0.405 1.2614213e-38
-0.0048997323 0.016223656 0.40700001 1.0489057e-38
-0.0035084116 0.016263517 0.40799999 1.021247e-38
-0.0021153712 0.01634324 0.41 6.1601529e-39
-0.0007102922 0.016462825 0.41299999 1.067773e-38
0.00071198493 0.016502688 0.414 7.1696735e-39
0.002136009 0.016502688 0.414 7.9994342e-39
0.0035600059 0.016502688 0.414 7.2575153e-39
0.0049960413 0.016542548 0.41499999 8.9170283e-39
0.0064699128 0.016662132 0.41800001 9.1068383e-39
0.0078887502 0.016622271 0.417 1.2518077e-38
0.0093007088 0.016582409 0.41600001 9.1042838e-39
0.010705788 0.016542548 0.41499999 1.002624e-38
0.012104015 0.016502688 0.414 1.1957693e-38
0.013495335 0.016462825 0.41299999 1.3893801e-38
0.014915893 0.016462825 0.41299999 1.0578712e-38
0.01633645 0.016462825 0.41299999 1.2791407e-38
0.017757008 0.016462825 0.41299999 1.3446487e-38
0.019177565 0.016462825 0.41299999 1.1049401e-38
0.020648023 0.016502688 0.414 1.3807784e-38
0.022072021 0.016502688 0.414 1.1410698e-38
0.023496017 0.016502688 0.414 1.0768145e-38
0.024920015 0.016502688 0.414 1.3165231e-38
0.026344011 0.016502688 0.414 1.2702766e-38
0.027768008 0.016502688 0.414 9.8447018e-39
0.029262517 0.016542548 0.41499999 1.2340875e-38
0.030689981 0.016542548 0.41499999 1.3170636e-38
0.032194812 0.016582409 0.41600001 1.3169544e-38
0.033706516 0.016622271 0.417 1.3353936e-38
0.035225105 0.016662132 0.41800001 9.572473e-39
0.036662858 0.016662132 0.41800001 5.331481e-39
0.038191762 0.016701994 0.419 7.5369707e-39
0.039727546 0.016741855 0.41999999 7.9057532e-39
0.042152502 0.017140472 0.43000001 7.9082713e-39
0.043631531 0.017140472 0.43000001 5.7877887e-39
0.045110561 0.017140472 0.43000001 6.2552478e-39
0.046589591 0.017140472 0.43000001 1.2616746e-38
0.048068624 0.017140472 0.43000001 1.0493373e-38
0.049662881 0.017180333 0.43099999 1.5010959e-38
0.051145379 0.017180333 0.43099999 1.0218557e-38
0.05262785 0.017180333 0.43099999 9.6653833e-39
0.054235868 0.017220195 0.43200001 1.1138353e-38
0.055721778 0.017220195 0.43200001 9.29444e-39
0.057207689 0.017220195 0.43200001 7.1678322e-39
0.058693599 0.017220195 0.43200001 1.1040039e-38
0.060179509 0.017220195 0.43200001 8.0105087e-39
0.061808188 0.017260056 0.433 1.326566e-38
0.063589908 0.017339779 0.435 1.6409005e-38
0.065235756 0.01737964 0.43599999 1.65012e-38
0.066888489 0.017419502 0.43700001 1.4467049e-38
0.068704605 0.017499227 0.43900001 1.3360701e-38
0.070214592 0.017499227 0.43900001 1.2628596e-38
0.071724609 0.017499227 0.43900001 1.5763247e-38
0.073234595 0.017499227 0.43900001 1.8347281e-38
0.074744582 0.017499227 0.43900001 1.7978498e-38
0.076254569 0.017499227 0.43900001 1.7702255e-38
0.077764556 0.017499227 0.43900001 1.7241276e-38
-0.030801764 0.014485336 0.398 1.4192597e-38
-0.029432802 0.014485336 0.398 1.4190825e-38
-0.028063837 0.014485336 0.398 1.4375216e-38
-0.026761934 0.014521731 0.39899999 1.4282292e-38
-0.025389532 0.014521731 0.39899999 1.4374487e-38
-0.024077322 0.014558127 0.40000001 1.4284127e-38
-0.022758221 0.014594522 0.40099999 1.4191932e-38
-0.021485565 0.014667313 0.403 1.4005733e-38
-0.020099405 0.014667313 0.403 1.3268168e-38
-0.018759679 0.014703709 0.40400001 1.1328842e-38
-0.017413059 0.014740104 0.405 8.2863865e-39
-0.015782684 0.014521731 0.39899999 1.1682208e-38
-0.014410282 0.014521731 0.39899999 7.9943825e-39
-0.013070543 0.014558127 0.40000001 1.3998942e-38
-0.011723937 0.014594522 0.40099999 1.3814551e-38
-0.01039625 0.014667313 0.403 1.5196069e-38
-0.0090100747 0.014667313 0.403 1.1692635e-38
-0.0076428317 0.014703709 0.40400001 1.0306071e-38
-0.0062996657 0.014812895 0.40700001 9.4763103e-39
-0.0048997323 0.014812895 0.40700001 8.9177709e-39
-0.0035256096 0.014922081 0.41 1.2421205e-38
-0.0021256902 0.014994871 0.412 9.0992475e-39
-0.000712012 0.015067662 0.414 1.6382691e-38
0.00071198493 0.015067662 0.414 9.2015423e-39
0.0021411683 0.015104057 0.41499999 6.8966515e-39
0.0035686048 0.015104057 0.41499999 4.1336735e-39
0.0050441963 0.015249638 0.419 8.7434508e-39
0.0064699128 0.015213243 0.41800001 6.6236464e-39
0.0078887502 0.015176848 0.417 1.0219276e-38
0.0093007088 0.015140451 0.41600001 5.3318496e-39
0.010705788 0.015104057 0.41499999 7.7289359e-39
0.012104015 0.015067662 0.414 9.8364972e-39
0.013528012 0.015067662 0.414 1.0574062e-38
0.014952009 0.015067662 0.414 8.6354065e-39
0.016376005 0.015067662 0.414 1.2231026e-38
0.017800003 0.015067662 0.414 1.1967777e-38
0.019223999 0.015067662 0.414 8.0955605e-39
0.020648023 0.015067662 0.414 1.3442201e-38
0.022072021 0.015067662 0.414 6.7119198e-39
0.023496017 0.015067662 0.414 9.5638634e-39
0.024920015 0.015067662 0.414 1.1131189e-38
0.026344011 0.015067662 0.414 1.1310512e-38
0.027768008 0.015067662 0.414 8.6368414e-39
0.029262517 0.015104057 0.41499999 1.104547e-38
0.030689981 0.015104057 0.41499999 9.2937533e-39
0.032194812 0.015140451 0.41600001 1.2609894e-38
0.033706516 0.015176848 0.417 1.0489394e-38
0.035225105 0.015213243 0.41800001 8.6411574e-39
0.03675057 0.015249638 0.419 7.995788e-39
0.038282912 0.015286032 0.41999999 9.6639526e-39
0.039727546 0.015286032 0.41999999 9.5717569e-39
0.042250529 0.015686382 0.43099999 9.8389817e-39
0.043733001 0.015686382 0.43099999 7.0731269e-39
0.045215469 0.015686382 0.43099999 8.744918e-39
0.046697941 0.015686382 0.43099999 6.9010054e-39
0.048180409 0.015686382 0.43099999 7.1754217e-39
0.049662881 0.015686382 0.43099999 8.5583561e-39
0.051264048 0.015722778 0.43200001 6.4324308e-39
0.052749958 0.015722778 0.43200001 1.0581226e-38
0.054235868 0.015722778 0.43200001 1.1045455e-38
0.055721778 0.015722778 0.43200001 9.8469117e-39
0.057340112 0.015759172 0.433 9.6682686e-39
0.05882946 0.015759172 0.433 1.3356094e-38
0.060318813 0.015759172 0.433 8.4751582e-39
0.062236421 0.015868358 0.43599999 1.9262047e-38
0.063736089 0.015868358 0.43599999 1.816324e-38
0.065235756 0.015868358 0.43599999 1.7702262e-38
0.070534475 0.016050335 0.44100001 1.8346552e-38
0.072051369 0.016050335 0.44100001 1.8254356e-38
0.073401414 0.016013939 0.44 1.7885927e-38
0.074914843 0.016013939 0.44 1.7885927e-38
0.076428264 0.016013939 0.44 1.7701536e-38
-0.030801764 0.013105791 0.398 1.2807925e-38
-0.029432802 0.013105791 0.398 1.3453225e-38
-0.028063837 0.013105791 0.398 1.4098594e-38
-0.026761934 0.01313872 0.39899999 1.446667e-38
-0.025453165 0.01317165 0.40000001 1.4282279e-38
-0.024077322 0.01317165 0.40000001 1.5480912e-38
-0.022758221 0.013204578 0.40099999 1.3452608e-38
-0.021485565 0.013270437 0.403 1.4465276e-38
-0.020149279 0.013303366 0.40400001 1.3174537e-38
-0.018759679 0.013303366 0.40400001 8.9302845e-39
-0.017413059 0.013336295 0.405 8.5615076e-39
-0.015782684 0.01313872 0.39899999 1.3254926e-38
-0.014410282 0.01313872 0.39899999 1.0028079e-38
-0.013070543 0.01317165 0.40000001 1.2803298e-38
-0.011753174 0.013237508 0.40200001 1.1973538e-38
-0.01039625 0.013270437 0.403 1.178081e-38
-0.0090100747 0.013270437 0.403 1.1043245e-38
-0.0049719643 0.013599727 0.41299999 8.9296596e-39
-0.003551407 0.013599727 0.41299999 1.4645789e-38
-0.0021308495 0.013599727 0.41299999 1.2702766e-38
-0.000712012 0.013632657 0.414 1.5192048e-38
0.00071198493 0.013632657 0.414 9.2948071e-39
0.0021411683 0.013665586 0.41499999 9.1104158e-39
0.0035944022 0.013764373 0.41800001 8.6498006e-39
0.0050441963 0.013797302 0.419 1.5287886e-38
0.0064699128 0.013764373 0.41800001 1.1418119e-38
0.0078887502 0.013731444 0.417 1.3446423e-38
0.0093007088 0.013698515 0.41600001 6.2534233e-39
0.010705788 0.013665586 0.41499999 7.9129348e-39
0.012104015 0.013632657 0.414 8.4589144e-39
0.013528012 0.013632657 0.414 9.4730663e-39
0.014952009 0.013632657 0.414 6.1551306e-39
0.016376005 0.013632657 0.414 9.9351445e-39
0.017800003 0.013632657 0.414 7.4591762e-39
0.019223999 0.013632657 0.414 4.9698942e-39
0.020648023 0.013632657 0.414 8.6620732e-39
0.022072021 0.013632657 0.414 2.1161835e-39
0.023496017 0.013632657 0.414 6.8052e-39
0.024920015 0.013632657 0.414 7.2661782e-39
0.026344011 0.013632657 0.414 7.9983482e-39
0.02783508 0.013665586 0.41499999 5.6938162e-39
0.029333031 0.013698515 0.41600001 8.7528241e-39
0.030763933 0.013698515 0.41600001 3.4976732e-39
0.032349594 0.013764373 0.41800001 9.0268901e-39
0.033787347 0.013764373 0.41800001 4.6014998e-39
0.035309374 0.013797302 0.419 5.6099008e-39
0.036838278 0.013830231 0.41999999 4.1347707e-39
0.038282912 0.013830231 0.41999999 5.6963483e-39
0.039822139 0.01386316 0.421 8.9231954e-39
0.042250529 0.014192452 0.43099999 8.0876319e-39
0.043733001 0.014192452 0.43099999 1.1406675e-38
0.045215469 0.014192452 0.43099999 1.2524178e-38
0.046697941 0.014192452 0.43099999 1.0219287e-38
0.048292201 0.014225381 0.43200001 1.1415332e-38
0.049778111 0.014225381 0.43200001 5.6992028e-39
0.051382713 0.01425831 0.433 7.4444149e-39
0.052872065 0.01425831 0.433 7.5366091e-39
0.054361414 0.01425831 0.433 6.4310043e-39
0.055979744 0.014291239 0.43399999 5.5101298e-39
0.057472534 0.014291239 0.43399999 7.1818634e-39
0.058965322 0.014291239 0.43399999 4.5081902e-39
0.060736723 0.014357097 0.43599999 1.5027916e-38
0.062236421 0.014357097 0.43599999 1.8162567e-38
0.063882276 0.014390027 0.43700001 1.7702255e-38
-0.029506752 0.011755708 0.39899999 1.6589015e-38
-0.02813435 0.011755708 0.39899999 1.437632e-38
-0.026761934 0.011755708 0.39899999 1.3182399e-38
-0.025453165 0.011785171 0.40000001 1.6870224e-38
-0.024137516 0.011814633 0.40099999 1.9914246e-38
-0.022814974 0.011844098 0.40200001 1.8162529e-38
-0.021485565 0.01187356 0.403 1.5848229e-38
-0.020149279 0.011903023 0.40400001 5.7989094e-39
-0.018806113 0.011932486 0.405 1.3778912e-39
-0.017456055 0.011961948 0.40599999 3.2217996e-39
-0.013168572 0.01187356 0.403 1.1412058e-38
-0.011782411 0.01187356 0.403 9.2915589e-39
-0.01039625 0.01187356 0.403 7.4419038e-39
-0.0049719643 0.01216819 0.41299999 1.3718831e-38
-0.003551407 0.01216819 0.41299999 1.3811027e-38
-0.002136009 0.012197653 0.414 9.4669482e-39
-0.000712012 0.012197653 0.414 1.1495241e-38
0.00072230358 0.012374429 0.41999999 1.001545e-38
0.0021618062 0.012344967 0.419 1.001545e-38
0.0036030011 0.012344967 0.419 8.5579539e-39
0.0050441963 0.012344967 0.419 1.5564822e-38
0.0064699128 0.012315503 0.41800001 1.3447189e-38
0.0078887502 0.012286041 0.417 1.5383298e-38
0.0092783514 0.012227115 0.41499999 9.5753232e-39
0.010705788 0.012227115 0.41499999 1.2709975e-38
0.012104015 0.012197653 0.414 1.325524e-38
0.013528012 0.012197653 0.414 1.325524e-38
0.014952009 0.012197653 0.414 9.3837293e-39
0.016415561 0.012227115 0.41499999 1.5745228e-38
0.017842997 0.012227115 0.41499999 1.2523474e-38
0.019270435 0.012227115 0.41499999 1.1509323e-38
0.020697897 0.012227115 0.41499999 1.2618929e-38
0.022125334 0.012227115 0.41499999 5.2432791e-39
0.023552772 0.012227115 0.41499999 1.0673811e-38
0.024980208 0.012227115 0.41499999 9.1986808e-39
0.026407644 0.012227115 0.41499999 9.5652689e-39
0.027902154 0.012256578 0.41600001 8.6433126e-39
0.029333031 0.012256578 0.41600001 1.2160498e-38
0.030911837 0.012315503 0.41800001 6.9053466e-39
0.032349594 0.012315503 0.41800001 1.3076327e-38
0.033868179 0.012344967 0.419 7.4523939e-39
0.035309374 0.012344967 0.419 8.8360024e-39
0.036838278 0.012374429 0.41999999 8.4672199e-39
0.038374063 0.012403892 0.421 1.1335085e-38
0.039916724 0.012433355 0.42199999 1.1058498e-38
0.04532038 0.012727985 0.43200001 1.1604646e-38
0.046806291 0.012727985 0.43200001 1.0682692e-38
0.048403986 0.012757448 0.433 9.0199732e-39
0.049893338 0.012757448 0.433 7.0838888e-39
0.051382713 0.012757448 0.433 1.0581889e-38
0.052994166 0.01278691 0.43399999 1.095067e-38
0.054612502 0.012816374 0.435 9.2983608e-39
0.056108732 0.012816374 0.435 1.3815947e-38
0.057604961 0.012816374 0.435 1.1980352e-38
0.059237055 0.012845837 0.43599999 1.6129156e-38
0.060736723 0.012845837 0.43599999 1.8622075e-38
0.062236421 0.012845837 0.43599999 1.788451e-38
-0.00072233105 0.010918606 0.41999999 1.3527913e-38
0.00072230358 0.010918606 0.41999999 1.1597163e-38
0.0021618062 0.01089261 0.419 8.7390984e-39
0.0035944022 0.010866614 0.41800001 1.1140925e-38
0.0050321575 0.010866614 0.41800001 1.2431664e-38
0.0064699128 0.010866614 0.41800001 1.3346768e-38
0.0078887502 0.010840617 0.417 1.0949682e-38
0.0092783514 0.010788624 0.41499999 8.5482345e-39
0.010705788 0.010788624 0.41499999 1.2512635e-38
0.012104015 0.010762627 0.414 1.2511213e-38
0.013528012 0.010762627 0.414 1.2879996e-38
0.014952009 0.010762627 0.414 9.105346e-39
0.016415561 0.010788624 0.41499999 1.7679538e-38
0.017842997 0.010788624 0.41499999 1.3719833e-38
0.019270435 0.010788624 0.41499999 1.5287159e-38
0.020697897 0.010788624 0.41499999 1.4279154e-38
0.022125334 0.010788624 0.41499999 6.9956995e-39
0.023609526 0.01081462 0.41600001 1.3073418e-38
0.025040401 0.01081462 0.41600001 1.2520244e-38
0.026471278 0.01081462 0.41600001 1.0858169e-38
0.027902154 0.01081462 0.41600001 1.2425494e-38
0.029474054 0.010866614 0.41800001 1.3722078e-38
0.030911837 0.010866614 0.41800001 1.178597e-38
0.032349594 0.010866614 0.41800001 1.3902506e-38
0.033868179 0.01089261 0.419 1.0952246e-38
0.035393644 0.010918606 0.41999999 1.0588805e-38
0.036838278 0.010918606 0.41999999 1.1418566e-38
0.038374063 0.010944604 0.421 1.9910666e-38
0.039916724 0.0109706 0.42199999 1.9265297e-38
0.054863598 0.011360551 0.43700001 1.8438735e-38
0.056366704 0.011360551 0.43700001 1.8346539e-38
0.057737388 0.011334553 0.43599999 1.8532012e-38
0.059237055 0.011334553 0.43599999 1.8255426e-38
-0.00072405091 0.0094853146 0.421 6.71154e-39
0.00072230358 0.009462784 0.41999999 9.5674269e-39
0.0021618062 0.0094402535 0.419 7.6313187e-39
0.0035944022 0.0094177239 0.41800001 1.4921685e-38
0.0050321575 0.0094177239 0.41800001 1.3169968e-38
0.0064544347 0.0093951933 0.417 1.500957e-38
0.0078698331 0.0093726628 0.41600001 1.288907e-38
0.0092783514 0.0093501322 0.41499999 1.0583403e-38
0.010705788 0.0093501322 0.41499999 1.2519512e-38
0.012133251 0.0093501322 0.41499999 1.251409e-38
0.013560688 0.0093501322 0.41499999 1.0301395e-38
0.014988124 0.0093501322 0.41499999 8.2723693e-39
0.016415561 0.0093501322 0.41499999 1.5279227e-38
0.017842997 0.0093501322 0.41499999 1.0485748e-38
0.019270435 0.0093501322 0.41499999 1.481893e-38
0.020697897 0.0093501322 0.41499999 1.0308575e-38
0.02217865 0.0093726628 0.41600001 6.6207653e-39
0.023609526 0.0093726628 0.41600001 1.1495985e-38
0.025100594 0.0093951933 0.417 1.1127202e-38
0.026534911 0.0093951933 0.417 9.5555551e-39
0.027969226 0.0093951933 0.417 1.0754089e-38
0.029474054 0.0094177239 0.41800001 1.2802617e-38
0.030911837 0.0094177239 0.41800001 1.0128944e-38
0.032426983 0.0094402535 0.419 1.2616769e-38
0.033868179 0.0094402535 0.419 5.3333139e-39
0.035393644 0.009462784 0.41999999 9.0138874e-39
0.03692599 0.0094853146 0.421 1.1779756e-38
0.038465213 0.0095078452 0.42199999 1.9082665e-38
0.040011317 0.0095303757 0.42300001 1.8898274e-38
-0.00072405091 0.0080260467 0.421 5.7056824e-39
0.00072230358 0.0080069825 0.41999999 7.4426283e-39
0.0021618062 0.0079879183 0.419 6.9816501e-39
0.0035944022 0.0079688542 0.41800001 1.0961219e-38
0.0050321575 0.0079688542 0.41800001 5.7060677e-39
0.0064544347 0.00794979 0.417 1.3537308e-38
0.0078698331 0.0079307258 0.41600001 9.111918e-39
0.0092783514 0.0079116616 0.41499999 1.0399035e-38
0.010705788 0.0079116616 0.41499999 1.2980512e-38
0.012133251 0.0079116616 0.41499999 1.3902799e-38
0.013560688 0.0079116616 0.41499999 1.1413517e-38
0.014988124 0.0079116616 0.41499999 1.1050476e-38
0.016415561 0.0079116616 0.41499999 1.4000736e-38
0.017842997 0.0079116616 0.41499999 1.3440312e-38
0.019316871 0.0079307258 0.41600001 1.5007638e-38
0.020747773 0.0079307258 0.41600001 1.1510749e-38
0.02217865 0.0079307258 0.41600001 9.7590321e-39
0.023666279 0.00794979 0.417 1.3531856e-38
0.025100594 0.00794979 0.417 1.3624051e-38
0.026534911 0.00794979 0.417 1.1040765e-38
0.028036298 0.0079688542 0.41800001 1.3530047e-38
0.029474054 0.0079688542 0.41800001 1.316997e-38
0.030911837 0.0079688542 0.41800001 1.1602645e-38
0.032426983 0.0079879183 0.419 1.3352534e-38
0.033868179 0.0079879183 0.419 9.7569049e-39
0.035393644 0.0080069825 0.41999999 1.1692985e-38
0.03692599 0.0080260467 0.421 1.0217855e-38
0.038556363 0.008064175 0.42300001 1.788268e-38
0.040105905 0.0080832392 0.42399999 1.935781e-38
-0.00072233105 0.0065511595 0.41999999 9.8509026e-39
0.00072230358 0.0065511595 0.41999999 9.9228971e-39
0.0021618062 0.0065355618 0.419 1.102924e-38
0.0035944022 0.006519964 0.41800001 1.1879572e-38
0.0050201188 0.0065043662 0.417 5.7946606e-39
0.0064544347 0.0065043662 0.417 1.114237e-38
0.0078698331 0.0064887679 0.41600001 4.0433066e-39
0.0093007088 0.0064887679 0.41600001 6.3424338e-39
0.010731585 0.0064887679 0.41600001 7.2643901e-39
0.012133251 0.0064731701 0.41499999 7.7253556e-39
0.013560688 0.0064731701 0.41499999 5.7892474e-39
0.014988124 0.0064731701 0.41499999 6.5318571e-39
0.016415561 0.0064731701 0.41499999 1.1602617e-38
0.017885994 0.0064887679 0.41600001 8.0026025e-39
0.019316871 0.0064887679 0.41600001 1.3442132e-38
0.020747773 0.0064887679 0.41600001 6.9041709e-39
0.02217865 0.0064887679 0.41600001 6.9041709e-39
0.023666279 0.0065043662 0.417 1.021282e-38
0.025100594 0.0065043662 0.417 1.0120625e-38
0.026598543 0.006519964 0.41800001 8.4556816e-39
0.028036298 0.006519964 0.41800001 1.2143497e-38
0.029544566 0.0065355618 0.419 1.2069361e-38
0.030985788 0.0065355618 0.419 7.9205579e-39
0.032426983 0.0065355618 0.419 1.1604752e-38
0.03394901 0.0065511595 0.41999999 5.5198408e-39
0.035477918 0.0065667578 0.421 8.3674908e-39
0.037013698 0.0065823556 0.42199999 6.5235782e-39
-0.00072233105 0.005095358 0.41999999 1.0776815e-38
0.00072230358 0.005095358 0.41999999 1.0671967e-38
0.0021618062 0.0050832261 0.419 1.3806618e-38
0.0035944022 0.0050710947 0.41800001 1.3908226e-38
0.0050201188 0.0050589629 0.417 8.3764886e-39
0.0064544347 0.0050589629 0.417 1.4085077e-38
0.0078887502 0.0050589629 0.417 6.43284e-39
0.0093007088 0.005046831 0.41600001 9.9276069e-39
0.010731585 0.005046831 0.41600001 1.0480781e-38
0.012162489 0.005046831 0.41600001 1.0391084e-38
0.013593365 0.005046831 0.41600001 7.7174103e-39
0.015024241 0.005046831 0.41600001 8.0952326e-39
0.016455118 0.005046831 0.41600001 1.1137688e-38
0.017885994 0.005046831 0.41600001 7.0777904e-39
0.019363305 0.0050589629 0.417 1.2240734e-38
0.020797648 0.0050589629 0.417 5.1474583e-39
0.022231963 0.0050589629 0.417 6.2538059e-39
0.023666279 0.0050589629 0.417 7.537705e-39
0.025160788 0.0050710947 0.41800001 7.8142918e-39
0.026598543 0.0050710947 0.41800001 5.3286112e-39
0.02810337 0.0050832261 0.419 8.6476482e-39
0.029544566 0.0050832261 0.419 8.2889719e-39
0.030985788 0.0050832261 0.419 6.6294505e-39
0.032504376 0.005095358 0.41999999 7.3655386e-39
0.03394901 0.005095358 0.41999999 4.23089e-39
0.035477918 0.0051074899 0.421 7.6295629e-39
0.037013698 0.0051196218 0.42199999 1.085641e-38
-0.00072233105 0.0036395355 0.41999999 5.8936834e-39
0.00072230358 0.0036395355 0.41999999 9.7388674e-39
0.0021618062 0.00363087 0.419 1.5915965e-38
0.0035944022 0.0036222045 0.41800001 1.4094034e-38
0.0050201188 0.003613539 0.417 1.2342317e-38
0.0064544347 0.003613539 0.417 1.52004e-38
0.0078887502 0.003613539 0.417 8.009141e-39
0.0093230661 0.003613539 0.417 1.2701359e-38
0.010757382 0.003613539 0.417 1.2240381e-38
0.012191725 0.003613539 0.417 1.2516272e-38
0.013626041 0.003613539 0.417 8.4596641e-39
0.015060357 0.003613539 0.417 1.1323515e-38
0.016494673 0.003613539 0.417 1.289084e-38
0.017928988 0.003613539 0.417 1.0573279e-38
0.019363305 0.003613539 0.417 1.573622e-38
0.020797648 0.003613539 0.417 7.2596677e-39
0.022231963 0.003613539 0.417 9.6567485e-39
0.023723032 0.0036222045 0.41800001 1.1220073e-38
0.025160788 0.0036222045 0.41800001 1.1496658e-38
0.026598543 0.0036222045 0.41800001 8.176229e-39
0.02810337 0.00363087 0.419 1.241722e-38
0.029544566 0.00363087 0.419 1.1319144e-38
0.030985788 0.00363087 0.419 1.1134753e-38
0.032504376 0.0036395355 0.41999999 1.0120625e-38
0.03394901 0.0036395355 0.41999999 8.0923207e-39
0.035477918 0.0036482012 0.421 9.564906e-39
0.037013698 0.0036568667 0.42199999 1.7032752e-38
0.038465213 0.0036568667 0.42199999 1.899229e-38
0.00072402338 0.0021889124 0.421 6.5224726e-39
0.0021618062 0.0021785137 0.419 1.2699571e-38
0.0035944022 0.0021733146 0.41800001 1.1047236e-38
0.0050321575 0.0021733146 0.41800001 1.0770649e-38
0.0064544347 0.0021681152 0.417 1.1967777e-38
0.0078887502 0.0021681152 0.417 6.5282348e-39
0.0093230661 0.0021681152 0.417 1.1774011e-38
0.010757382 0.0021681152 0.417 1.1958402e-38
0.012191725 0.0021681152 0.417 1.2698868e-38
0.013626041 0.0021681152 0.417 1.0025195e-38
0.015060357 0.0021681152 0.417 1.2894793e-38
0.016494673 0.0021681152 0.417 1.3724554e-38
0.017928988 0.0021681152 0.417 1.2980837e-38
0.019363305 0.0021681152 0.417 1.3718402e-38
0.020797648 0.0021681152 0.417 8.8348813e-39
0.022285277 0.0021733146 0.41800001 1.1785141e-38
0.023723032 0.0021733146 0.41800001 1.2796798e-38
0.025160788 0.0021733146 0.41800001 1.3073385e-38
0.026598543 0.0021733146 0.41800001 9.384081e-39
0.02810337 0.0021785137 0.419 1.5100209e-38
0.029544566 0.0021785137 0.419 1.2803269e-38
0.03105974 0.002183713 0.41999999 1.363303e-38
0.032504376 0.002183713 0.41999999 1.0681704e-38
0.03394901 0.002183713 0.41999999 9.3909656e-39
0.035477918 0.0021889124 0.421 9.8450704e-39
0.037013698 0.0021941117 0.42199999 1.851146e-38
0.038465213 0.0021941117 0.42199999 1.8716416e-38
0.040484264 0.0022253077 0.428 1.7978851e-38
0.00072402338 0.00072964438 0.421 9.564906e-39
0.0021669655 0.00072791125 0.41999999 1.3437122e-38
0.0036030011 0.00072617811 0.419 8.0105451e-39
0.0050321575 0.00072444504 0.41800001 8.5637189e-39
0.0064699128 0.00072444504 0.41800001 6.9993051e-39
0.0078887502 0.00072271196 0.417 3.3114799e-39
0.0093230661 0.00072271196 0.417 8.6415442e-39
0.010757382 0.00072271196 0.417 8.8259354e-39
0.012191725 0.00072271196 0.417 1.0021218e-38
0.013626041 0.00072271196 0.417 7.9929168e-39
0.015060357 0.00072271196 0.417 1.1138019e-38
0.016494673 0.00072271196 0.417 9.9394759e-39
0.017928988 0.00072271196 0.417 1.1498533e-38
0.019363305 0.00072271196 0.417 1.3619032e-38
0.020847522 0.00072444504 0.41800001 7.4451324e-39
0.022285277 0.00072444504 0.41800001 1.0118796e-38
0.023723032 0.00072444504 0.41800001 1.1494917e-38
0.025160788 0.00072444504 0.41800001 1.1771504e-38
0.026598543 0.00072444504 0.41800001 8.9123479e-39
0.02810337 0.00072617811 0.419 1.3890904e-38
0.029544566 0.00072617811 0.419 1.0947818e-38
0.03105974 0.00072791125 0.41999999 1.3068318e-38
0.032504376 0.00072791125 0.41999999 8.6443748e-39
0.034029841 0.00072964438 0.421 9.3819314e-39
0.035562184 0.00073137751 0.42199999 7.4419038e-39
0.03710141 0.00073311065 0.42300001 2.1179047e-38
0.038647514 0.00073484372 0.42399999 1.8347984e-38
0.040484264 0.00074177625 0.428 1.7979202e-38
0.0021669655 -0.00072791125 0.41999999 1.7865024e-38
0.0036030011 -0.00072617811 0.419 1.3816734e-38
0.0050441963 -0.00072617811 0.419 1.3632343e-38
0.0064699128 -0.00072444504 0.41800001 9.2998742e-39
0.0079076681 -0.00072444504 0.41800001 4.9666796e-39
0.0093454234 -0.00072444504 0.41800001 9.2905009e-39
0.01078318 -0.00072444504 0.41800001 7.4465883e-39
0.012220962 -0.00072444504 0.41800001 7.4454911e-39
0.013658717 -0.00072444504 0.41800001 5.4182943e-39
0.015096473 -0.00072444504 0.41800001 8.5677448e-39
0.016534228 -0.00072444504 0.41800001 4.6033327e-39
0.017971983 -0.00072444504 0.41800001 7.5488859e-39
0.019409738 -0.00072444504 0.41800001 8.7474291e-39
0.020847522 -0.00072444504 0.41800001 3.4000658e-39
0.022285277 -0.00072444504 0.41800001 5.7049509e-39
0.023723032 -0.00072444504 0.41800001 6.801572e-39
0.025160788 -0.00072444504 0.41800001 7.4469414e-39
0.026598543 -0.00072444504 0.41800001 4.318062e-39
0.02810337 -0.00072617811 0.419 1.0495168e-38
0.029615078 -0.00072791125 0.41999999 6.7201342e-39
0.03105974 -0.00072791125 0.41999999 9.4859989e-39
0.032504376 -0.00072791125 0.41999999 4.0454254e-39
0.034029841 -0.00072964438 0.421 5.6127455e-39
0.035562184 -0.00073137751 0.42199999 4.6036929e-39
0.037189119 -0.00073484372 0.42399999 1.8709624e-38
0.038647514 -0.00073484372 0.42399999 1.8163596e-38
0.00072746287 -0.002199311 0.42300001 1.1223351e-38
0.0021721253 -0.0021889124 0.421 1.5187763e-38
0.0036116003 -0.002183713 0.41999999 1.344687e-38
0.0050441963 -0.0021785137 0.419 1.639713e-38
0.0064699128 -0.0021733146 0.41800001 1.3536535e-38
0.0079076681 -0.0021733146 0.41800001 1.0494079e-38
0.0093454234 -0.0021733146 0.41800001 1.463928e-38
0.01078318 -0.0021733146 0.41800001 1.3164149e-38
0.012220962 -0.0021733146 0.41800001 1.3255615e-38
0.013658717 -0.0021733146 0.41800001 9.7521811e-39
0.015096473 -0.0021733146 0.41800001 1.4831981e-38
0.016534228 -0.0021733146 0.41800001 1.0037808e-38
0.017971983 -0.0021733146 0.41800001 1.3536575e-38
0.019409738 -0.0021733146 0.41800001 1.2245837e-38
0.020847522 -0.0021733146 0.41800001 7.3536556e-39
0.022338592 -0.0021785137 0.419 1.1594645e-38
0.023779785 -0.0021785137 0.419 1.0303875e-38
0.025220981 -0.0021785137 0.419 1.0488266e-38
0.026662176 -0.0021785137 0.419 7.2636138e-39
0.028170442 -0.002183713 0.41999999 1.4454864e-38
0.029615078 -0.002183713 0.41999999 9.2980231e-39
0.03105974 -0.002183713 0.41999999 1.252487e-38
0.032581769 -0.0021889124 0.421 6.7151119e-39
0.034110669 -0.0021941117 0.42199999 9.7575635e-39
0.035562184 -0.0021941117 0.42199999 1.2065771e-38
0.037189119 -0.0022045104 0.42399999 2.0455573e-38
0.038738664 -0.0022097097 0.42500001 1.8070681e-38
0.00072746287 -0.0036655325 0.42300001 1.1501002e-38
0.0021721253 -0.0036482012 0.421 1.6110783e-38
0.0036201994 -0.0036482012 0.421 1.4370614e-38
0.005056235 -0.0036395355 0.41999999 1.298768e-38
0.0064853914 -0.00363087 0.419 8.7405333e-39
0.0079076681 -0.0036222045 0.41800001 7.4497959e-39
0.0093454234 -0.0036222045 0.41800001 1.2236071e-38
0.01078318 -0.0036222045 0.41800001 1.288144e-38
0.012220962 -0.0036222045 0.41800001 1.22375e-38
0.013658717 -0.0036222045 0.41800001 1.1131153e-38
0.015096473 -0.0036222045 0.41800001 1.5937236e-38
0.016534228 -0.0036222045 0.41800001 1.1511846e-38
0.017971983 -0.0036222045 0.41800001 1.4457084e-38
0.019409738 -0.0036222045 0.41800001 1.4641475e-38
0.020897396 -0.00363087 0.419 9.4823737e-39
0.022338592 -0.00363087 0.419 1.4276534e-38
0.023779785 -0.00363087 0.419 1.3257037e-38
0.025220981 -0.00363087 0.419 1.298045e-38
0.026662176 -0.00363087 0.419 1.0402975e-38
0.028170442 -0.0036395355 0.41999999 1.3353235e-38
0.029615078 -0.0036395355 0.41999999 1.3443927e-38
0.031133693 -0.0036482012 0.421 1.4458079e-38
0.032659154 -0.0036568667 0.42199999 8.8362966e-39
0.034110669 -0.0036568667 0.42199999 9.9426386e-39
0.035646457 -0.0036655325 0.42300001 1.4280593e-38
0.037189119 -0.0036741977 0.42399999 2.0273309e-38
0.038738664 -0.0036828637 0.42500001 1.797812e-38
0.00072746287 -0.0051317327 0.42300001 5.4200879e-39
0.0021772843 -0.0051196008 0.42199999 1.242695e-38
0.0036201994 -0.0051074694 0.421 1.4189482e-38
0.005056235 -0.0050953371 0.41999999 1.4650461e-38
0.0064853914 -0.0050832056 0.419 1.1605824e-38
0.0079265861 -0.0050832056 0.419 9.6697161e-39
0.0093677808 -0.0050832056 0.419 1.3625128e-38
0.01078318 -0.0050710742 0.41800001 1.2795367e-38
0.012220962 -0.0050710742 0.41800001 1.122083e-38
0.013658717 -0.0050710742 0.41800001 9.1003307e-39
0.015096473 -0.0050710742 0.41800001 1.3629091e-38
0.016534228 -0.0050710742 0.41800001 1.1232004e-38
0.017971983 -0.0050710742 0.41800001 1.2615705e-38
0.019456174 -0.0050832056 0.419 8.8356843e-39
0.020897396 -0.0050832056 0.419 8.3634873e-39
0.022338592 -0.0050832056 0.419 1.2051301e-38
0.023779785 -0.0050832056 0.419 1.1035685e-38
0.025220981 -0.0050832056 0.419 9.4683831e-39
0.026662176 -0.0050832056 0.419 7.6316984e-39
0.028170442 -0.0050953371 0.41999999 1.3993197e-38
0.029615078 -0.0050953371 0.41999999 1.0025495e-38
0.031133693 -0.0051074694 0.421 1.3989893e-38
0.032659154 -0.0051196008 0.42199999 7.3536556e-39
0.034191504 -0.0051317327 0.42300001 9.0131671e-39
0.035730727 -0.0051438645 0.42399999 1.5022124e-38
0.037189119 -0.0051438645 0.42399999 1.9263123e-38
0.038738664 -0.0051559964 0.42500001 1.7794447e-38
0.00072746287 -0.0065979543 0.42300001 7.5330218e-39
0.0021824441 -0.0065979543 0.42300001 1.3525731e-38
0.0036287983 -0.0065823556 0.42199999 8.6555642e-39
0.0050682737 -0.0065667578 0.421 1.1974607e-38
0.0065008695 -0.0065511595 0.41999999 7.8261398e-39
0.0079265861 -0.0065355618 0.419 9.4856612e-39
0.0093677808 -0.0065355618 0.419 1.2797535e-38
0.010808976 -0.0065355618 0.419 1.3627295e-38
0.012250199 -0.0065355618 0.419 1.141567e-38
0.013691394 -0.0065355618 0.419 1.2337626e-38
0.015096473 -0.006519964 0.41800001 1.3908224e-38
0.016534228 -0.006519964 0.41800001 1.187992e-38
0.018014979 -0.0065355618 0.419 1.427058e-38
0.019456174 -0.0065355618 0.419 1.3533015e-38
0.020897396 -0.0065355618 0.419 1.0771352e-38
0.022338592 -0.0065355618 0.419 1.4274786e-38
0.023779785 -0.0065355618 0.419 1.3533236e-38
0.025220981 -0.0065355618 0.419 1.0951758e-38
0.026662176 -0.0065355618 0.419 1.1604024e-38
0.028170442 -0.0065511595 0.41999999 1.3540132e-38
0.02968559 -0.0065667578 0.421 1.3538281e-38
0.031207642 -0.0065823556 0.42199999 1.5566585e-38
0.032659154 -0.0065823556 0.42199999 9.2050736e-39
0.034191504 -0.0065979543 0.42300001 1.1878731e-38
0.035730727 -0.0066135516 0.42399999 1.7236257e-38
0.037189119 -0.0066135516 0.42399999 1.8803583e-38
0.038738664 -0.0066291504 0.42500001 1.7794447e-38
