# .PCD v0.7 - Point Cloud Data file format
VERSION 0.7
FIELDS x y z rgb
SIZE 4 4 4 4
TYPE F F F F
COUNT 1 1 1 1
WIDTH 710
HEIGHT 1
VIEWPOINT 0 0 0 1 0 0 0
POINTS 710
DATA ascii
-0.0014274637 0.079116531 0.82999998 1.5764714e-38
0.0014274094 0.079116531 0.82999998 1.5396642e-38
-0.012661245 0.075137332 0.81800002 1.2262006e-38
-0.0098476196 0.075137332 0.81800002 1.3088151e-38
-0.007102814 0.075872168 0.82599998 1.3180347e-38
-0.004261699 0.075872168 0.82599998 1.2906647e-38
-0.0014205844 0.075872168 0.82599998 1.3459821e-38
0.0014274094 0.076239593 0.82999998 1.4657625e-38
-0.029831814 0.073009051 0.82599998 1.2352384e-38
-0.026990671 0.073009051 0.82599998 1.5021362e-38
-0.023915663 0.072301947 0.81800002 1.3269645e-38
-0.021102065 0.072301947 0.81800002 6.6275812e-39
-0.018266082 0.072213553 0.81699997 7.0885524e-39
-0.015455923 0.072213553 0.81699997 6.9942057e-39
-0.012645765 0.072213553 0.81699997 7.4551769e-39
-0.0098355804 0.072213553 0.81699997 8.9331754e-39
-0.0070856158 0.072832279 0.824 7.9190235e-39
-0.004261699 0.073009051 0.82599998 1.1517942e-38
-0.0014205844 0.073009051 0.82599998 1.409942e-38
-0.029831814 0.070145935 0.82599998 1.6225692e-38
-0.026990671 0.070145935 0.82599998 1.0775604e-38
-0.024091084 0.069976091 0.824 6.719058e-39
-0.021102065 0.069466561 0.81800002 4.6918611e-39
-0.018266082 0.069381632 0.81699997 5.7060033e-39
-0.015455923 0.069381632 0.81699997 7.5502564e-39
-0.012645765 0.069381632 0.81699997 7.5502564e-39
-0.0098355804 0.069381632 0.81699997 7.0885524e-39
-0.0070254221 0.069381632 0.81699997 1.1790529e-38
-0.0042204238 0.069466561 0.81800002 1.4009041e-38
-0.0014102653 0.069636405 0.81999999 1.1243172e-38
0.0014136513 0.069806248 0.82200003 1.5211913e-38
-0.032514706 0.066957042 0.82200003 1.6318611e-38
-0.02975958 0.067119949 0.824 1.0602482e-38
-0.026925318 0.067119949 0.824 6.9967169e-39
-0.024091084 0.067119949 0.824 5.7059977e-39
-0.021153659 0.06679412 0.81999999 6.7197796e-39
-0.018266082 0.066549748 0.81699997 6.5353884e-39
-0.015418088 0.066386841 0.815 6.9038206e-39
-0.012614809 0.066386841 0.815 7.54919e-39
-0.0098115029 0.066386841 0.815 6.814506e-39
-0.0070082243 0.066386841 0.815 5.1549847e-39
-0.0042152638 0.066549748 0.81699997 8.5687635e-39
-0.0014051058 0.066549748 0.81699997 1.3823914e-38
0.0014102117 0.06679412 0.81999999 1.5212257e-38
0.0042307423 0.06679412 0.81999999 1.5304452e-38
-0.032514706 0.064107783 0.82200003 1.6227134e-38
-0.029687349 0.064107783 0.82200003 1.124857e-38
-0.026859967 0.064107783 0.82200003 4.8737385e-39
-0.024091084 0.064263761 0.824 6.9020367e-39
-0.021205254 0.064107783 0.82200003 6.7201342e-39
-0.018266082 0.063717827 0.81699997 6.1669688e-39
-0.015418088 0.063561849 0.815 5.7045627e-39
-0.012614809 0.063561849 0.815 7.4562755e-39
-0.0097874263 0.063405871 0.81300002 8.4726022e-39
-0.0069910265 0.063405871 0.81300002 4.9691683e-39
-0.0042049452 0.063561849 0.815 5.2432329e-39
-0.0014016661 0.063561849 0.815 4.3212906e-39
0.0014050524 0.063717827 0.81699997 1.5576717e-38
0.0070512192 0.063951805 0.81999999 1.5211901e-38
-0.029687349 0.061258573 0.82200003 1.0970904e-38
-0.026859967 0.061258573 0.82200003 4.2305313e-39
-0.02403261 0.061258573 0.82200003 6.1666325e-39
-0.021153659 0.06110952 0.81999999 6.4439102e-39
-0.018266082 0.060885947 0.81699997 5.9829391e-39
-0.015418088 0.060736902 0.815 5.7060061e-39
-0.012614809 0.060736902 0.815 5.982593e-39
-0.0097874263 0.060587857 0.81300002 9.4820584e-39
-0.0069910265 0.060587857 0.81300002 7.2693633e-39
-0.0042049452 0.060736902 0.815 6.2570106e-39
-0.0014016661 0.060736902 0.815 1.4093632e-38
0.0014050524 0.060885947 0.81699997 1.5397374e-38
0.0042307423 0.06110952 0.81999999 1.5028591e-38
-0.032435592 0.058267202 0.81999999 1.6869983e-38
-0.029615115 0.058267202 0.81999999 1.1430441e-38
-0.026794612 0.058267202 0.81999999 6.1655339e-39
-0.023915663 0.05812509 0.81800002 7.4562629e-39
-0.021102065 0.05812509 0.81800002 5.8889512e-39
-0.018266082 0.058054026 0.81699997 5.6123685e-39
-0.015418088 0.05791191 0.815 5.2439699e-39
-0.012614809 0.05791191 0.815 6.7191e-39
-0.0097874263 0.057769798 0.81300002 7.2711584e-39
-0.0069910265 0.057769798 0.81300002 5.3350684e-39
-0.0042049452 0.05791191 0.815 4.5989495e-39
-0.0014016661 0.05791191 0.815 1.7321937e-38
0.0014016129 0.05791191 0.815 1.5396645e-38
0.0041946266 0.057769798 0.81300002 1.5120058e-38
0.0069910265 0.057769798 0.81300002 1.5304452e-38
-0.029542886 0.055289701 0.81800002 6.5447953e-39
-0.026729262 0.055289701 0.81800002 8.7509646e-39
-0.023915663 0.055289701 0.81800002 6.907052e-39
-0.021102065 0.055289701 0.81800002 5.9818643e-39
-0.018266082 0.055222102 0.81699997 4.9677264e-39
-0.015418088 0.055086922 0.815 5.2450265e-39
-0.012614809 0.055086922 0.815 4.23089e-39
-0.0098115029 0.055086922 0.815 3.4951298e-39
-0.0070082243 0.055086922 0.815 5.7078194e-39
-0.0041946266 0.054951742 0.81300002 8.8457386e-39
-0.0013982266 0.054951742 0.81300002 1.493065e-38
0.0013981734 0.054951742 0.81300002 1.6125235e-38
0.0041843075 0.054816555 0.81099999 1.5018887e-38
0.0069738282 0.054816555 0.81099999 1.6128105e-38
0.0097633488 0.054816555 0.81099999 1.4560779e-38
0.012490956 0.054546189 0.80699998 1.4564013e-38
0.015228883 0.054411009 0.80500001 1.5209382e-38
0.017908337 0.054140642 0.801 1.4934963e-38
0.020611865 0.054005463 0.79900002 1.4934963e-38
0.023360165 0.054005463 0.79900002 1.4843474e-38
0.02610841 0.054005463 0.79900002 1.4751278e-38
-0.029542886 0.052454352 0.81800002 1.0232267e-38
-0.026729262 0.052454352 0.81800002 9.3963536e-39
-0.023915663 0.052454352 0.81800002 4.1412069e-39
-0.021102065 0.052454352 0.81800002 6.3488489e-39
-0.018266082 0.052390222 0.81699997 6.2566533e-39
-0.015455923 0.052390222 0.81699997 5.2410805e-39
-0.012614809 0.052261975 0.815 6.3474196e-39
-0.0097874263 0.052133724 0.81300002 6.8091222e-39
-0.0069910265 0.052133724 0.81300002 1.1418904e-38
-0.0041946266 0.052133724 0.81300002 1.3261039e-38
-0.0013982266 0.052133724 0.81300002 9.6654099e-39
0.0013981734 0.052133724 0.81300002 1.241942e-38
0.0041843075 0.052005474 0.81099999 1.4908702e-38
0.0069738282 0.052005474 0.81099999 1.7317667e-38
0.0097633488 0.052005474 0.81099999 1.2984472e-38
0.012490956 0.051748972 0.80699998 1.6387056e-38
0.015191047 0.051492475 0.80299997 1.6663643e-38
0.017908337 0.051364221 0.801 1.6860622e-38
0.020611865 0.051235974 0.79900002 1.4832318e-38
0.023360165 0.051235974 0.79900002 1.2810488e-38
0.026075732 0.051171847 0.79799998 1.5207575e-38
0.028748306 0.0510436 0.796 1.4474336e-38
0.031486232 0.0510436 0.796 1.4750922e-38
-0.03641694 0.051378112 0.847 1.5856904e-38
-0.033345371 0.051135477 0.84299999 1.6132771e-38
-0.029615115 0.049740322 0.81999999 1.594838e-38
-0.026794612 0.049740322 0.81999999 1.2346273e-38
-0.023974136 0.049740322 0.81999999 3.8642753e-39
-0.021102065 0.049619004 0.81800002 4.5953733e-39
-0.018266082 0.049558342 0.81699997 4.8719602e-39
-0.015418088 0.049437024 0.815 5.887875e-39
-0.012552896 0.049194388 0.81099999 5.7034865e-39
-0.0097633488 0.049194388 0.81099999 7.3561878e-39
-0.0069910265 0.04931571 0.81300002 8.2781441e-39
-0.0041946266 0.04931571 0.81300002 8.6501636e-39
-0.0013982266 0.04931571 0.81300002 6.2530772e-39
0.0013981734 0.04931571 0.81300002 1.0121353e-38
0.0041843075 0.049194388 0.81099999 1.251844e-38
0.0069566299 0.049073074 0.80900002 1.3634886e-38
0.0097392714 0.049073074 0.80900002 1.1145604e-38
0.012490956 0.048951752 0.80699998 1.371302e-38
0.015153212 0.048587799 0.801 1.9152562e-38
0.017908337 0.048587799 0.801 1.7869013e-38
0.020586068 0.048405822 0.79799998 1.2060689e-38
0.023330927 0.048405822 0.79799998 1.6957497e-38
0.026010379 0.048284508 0.796 1.5851149e-38
0.028676076 0.04816319 0.79400003 1.8156743e-38
0.031248901 0.047920555 0.79000002 1.6128439e-38
0.033966191 0.047920555 0.79000002 1.475019e-38
0.036683477 0.047920555 0.79000002 1.475019e-38
0.03940082 0.047920555 0.79000002 1.4382856e-38
-0.03641694 0.048442204 0.847 1.4376735e-38
-0.033345371 0.048213433 0.84299999 1.5104577e-38
-0.030337436 0.04804185 0.83999997 1.5842142e-38
-0.026925318 0.047126774 0.824 1.0393617e-38
-0.023974136 0.046898 0.81999999 1.1499965e-38
-0.021102065 0.046783619 0.81800002 1.2424461e-38
-0.018266082 0.046726421 0.81699997 1.4544961e-38
-0.015418088 0.046612035 0.815 1.5379378e-38
-0.012552896 0.046383265 0.81099999 1.2521314e-38
-0.0097392714 0.04626888 0.80900002 1.1868038e-38
-0.0069566299 0.04626888 0.80900002 1.1683647e-38
-0.0041739885 0.04626888 0.80900002 8.7420089e-39
-0.0013947869 0.046383265 0.81099999 5.7917487e-39
0.0013947338 0.046383265 0.81099999 1.1222331e-38
0.0041843075 0.046383265 0.81099999 1.0669157e-38
0.0069566299 0.04626888 0.80900002 1.1505745e-38
0.0097151939 0.046154492 0.80699998 6.527181e-39
0.01246 0.04604011 0.80500001 8.0858285e-39
0.015153212 0.045811336 0.801 1.4262933e-38
0.01786362 0.045696955 0.79900002 7.0749205e-39
0.020586068 0.045639761 0.79799998 1.7861799e-38
0.023330927 0.045639761 0.79799998 1.7786529e-38
0.026010379 0.045525376 0.796 2.0828984e-38
0.028676076 0.045410994 0.79400003 1.9998837e-38
0.031248901 0.045182221 0.79000002 1.7232968e-38
0.033966191 0.045182221 0.79000002 1.4101904e-38
0.036683477 0.045182221 0.79000002 1.5761425e-38
0.03940082 0.045182221 0.79000002 1.4475408e-38
-0.045157008 0.045506295 0.847 1.4735752e-38
-0.042044163 0.04529139 0.84299999 1.4551361e-38
-0.039144576 0.04529139 0.84299999 1.787261e-38
-0.036244962 0.04529139 0.84299999 1.6305285e-38
-0.033226706 0.045130204 0.83999997 1.4178664e-38
-0.030265205 0.045022756 0.838 8.0937528e-39
-0.027186731 0.044700395 0.83200002 1.1690875e-38
-0.02403261 0.044163138 0.82200003 1.2336244e-38
-0.021102065 0.043948229 0.81800002 1.1774789e-38
-0.018266082 0.0438945 0.81699997 1.2881136e-38
-0.015380253 0.043679595 0.81300002 1.0771032e-38
-0.012521939 0.04346469 0.80900002 5.5158807e-39
-0.0097392714 0.04346469 0.80900002 8.7305028e-39
-0.0069566299 0.04346469 0.80900002 9.6524591e-39
-0.0041739885 0.04346469 0.80900002 6.7144435e-39
-0.0013947869 0.043572139 0.81099999 4.9627265e-39
0.0013947338 0.043572139 0.81099999 1.1684025e-38
0.0041739885 0.04346469 0.80900002 1.5832829e-38
0.0069566299 0.04346469 0.80900002 1.611804e-38
0.0097151939 0.043357234 0.80699998 1.0678498e-38
0.01246 0.043249782 0.80500001 1.3710862e-38
0.015153212 0.043034878 0.801 1.5278188e-38
0.01786362 0.042927425 0.79900002 1.2147502e-38
0.020586068 0.042873699 0.79799998 1.4913371e-38
0.023330927 0.042873699 0.79799998 1.3542982e-38
0.02594503 0.042658795 0.79400003 1.9351307e-38
0.028676076 0.042658795 0.79400003 1.750664e-38
0.031328011 0.042551339 0.792 1.0776359e-38
0.033966191 0.04244389 0.79000002 7.3835047e-39
0.036683477 0.04244389 0.79000002 1.3284025e-38
0.03940082 0.04244389 0.79000002 1.4474689e-38
-0.048410878 0.042871989 0.85299999 1.4286322e-38
-0.045157008 0.042570427 0.847 1.242111e-38
-0.042243659 0.042570427 0.847 1.500257e-38
-0.039144576 0.042369388 0.84299999 1.3908242e-38
-0.036244962 0.042369388 0.84299999 1.0589199e-38
-0.033147596 0.042118084 0.838 1.0394276e-38
-0.030192973 0.042017564 0.83600003 1.1039645e-38
-0.027121376 0.041716006 0.82999998 1.1138067e-38
-0.024091084 0.041414443 0.824 1.1783436e-38
-0.021076266 0.041062616 0.81699997 1.2149297e-38
-0.018221367 0.0409621 0.815 1.5652731e-38
-0.015380253 0.040861581 0.81300002 1.4739394e-38
-0.012521939 0.040660538 0.80900002 9.1154605e-39
-0.0097392714 0.040660538 0.80900002 1.2609196e-38
-0.0069566299 0.040660538 0.80900002 1.2332609e-38
-0.0041739885 0.040660538 0.80900002 1.1788809e-38
-0.0013913471 0.040660538 0.80900002 5.0585277e-39
0.0013947338 0.040761057 0.81099999 7.3568926e-39
0.0041739885 0.040660538 0.80900002 1.288863e-38
0.0069394317 0.040560015 0.80699998 1.1512585e-38
0.0097151939 0.040560015 0.80699998 5.9808469e-39
0.01246 0.040459495 0.80500001 9.1925824e-39
0.015191047 0.040358976 0.80299997 1.2788212e-38
0.017908337 0.040258456 0.801 8.0008313e-39
0.020586068 0.040107675 0.79799998 5.1427878e-39
0.023330927 0.040107675 0.79799998 7.1818228e-39
0.02594503 0.039906636 0.79400003 1.354332e-38
0.028676076 0.039906636 0.79400003 1.0595917e-38
0.031328011 0.039806113 0.792 1.1149091e-38
0.033966191 0.039705593 0.79000002 1.4749133e-38
0.036683477 0.039705593 0.79000002 1.4841329e-38
-0.05134489 0.039915282 0.85299999 1.7415552e-38
-0.048410878 0.039915282 0.85299999 1.1699423e-38
-0.045263637 0.039728105 0.84899998 4.4095387e-39
-0.042243659 0.039634518 0.847 8.189554e-39
-0.039144576 0.039447341 0.84299999 1.509993e-38
-0.036115974 0.039306957 0.83999997 1.1780887e-38
-0.033147596 0.039213371 0.838 9.2789724e-39
-0.030120742 0.039026197 0.83399999 1.0108722e-38
-0.027121376 0.03883902 0.82999998 1.3073058e-38
-0.024091084 0.03855826 0.824 1.5377949e-38
-0.021076266 0.038230695 0.81699997 1.3991071e-38
-0.018176652 0.038043521 0.81300002 1.5097419e-38
-0.015342416 0.037949935 0.81099999 1.5013457e-38
-0.012552896 0.037949935 0.81099999 9.2051324e-39
-0.0097392714 0.037856348 0.80900002 1.3807043e-38
-0.0069566299 0.037856348 0.80900002 1.26085e-38
-0.0041739885 0.037856348 0.80900002 1.3262138e-38
-0.0013913471 0.037856348 0.80900002 1.1049443e-38
0.0013912943 0.037856348 0.80900002 6.3402366e-39
0.0041739885 0.037856348 0.80900002 1.4361251e-38
0.0069394317 0.037762757 0.80699998 1.2986971e-38
0.0097151939 0.037762757 0.80699998 9.5757324e-39
0.01246 0.037669171 0.80500001 1.0952539e-38
0.015191047 0.037575584 0.80299997 1.2796452e-38
0.017908337 0.037481993 0.801 9.7622775e-39
0.020586068 0.03734161 0.79799998 5.9822566e-39
0.023330927 0.03734161 0.79799998 9.2141063e-39
0.02594503 0.03715444 0.79400003 1.5852192e-38
0.028676076 0.03715444 0.79400003 1.4750922e-38
0.031407125 0.03715444 0.79400003 1.5027509e-38
0.034138173 0.03715444 0.79400003 1.4567603e-38
-0.054406144 0.037045278 0.85500002 1.4105909e-38
-0.051465277 0.037045278 0.85500002 1.3080136e-38
-0.048183862 0.036785308 0.84899998 1.3356723e-38
-0.045050383 0.036611997 0.84500003 1.2238625e-38
-0.042143915 0.036611997 0.84500003 1.1408865e-38
-0.039237447 0.036611997 0.84500003 1.0671653e-38
-0.036115974 0.036395356 0.83999997 6.7994365e-39
-0.033147596 0.036308698 0.838 7.5369679e-39
-0.030120742 0.03613539 0.83399999 1.269992e-38
-0.027121376 0.035962079 0.82999998 1.2795017e-38
-0.024091084 0.035702113 0.824 1.6021864e-38
-0.021076266 0.035398815 0.81699997 1.1968859e-38
-0.018176652 0.035225507 0.81300002 1.1323489e-38
-0.015342416 0.035138849 0.81099999 1.1142698e-38
-0.012552896 0.035138849 0.81099999 5.1499821e-39
-0.0097392714 0.035052195 0.80900002 8.9242926e-39
-0.0069566299 0.035052195 0.80900002 5.0520761e-39
-0.0041739885 0.035052195 0.80900002 8.282886e-39
-0.0013913471 0.035052195 0.80900002 8.7438642e-39
0.0013912943 0.035052195 0.80900002 5.0538235e-39
0.0041739885 0.035052195 0.80900002 5.3304104e-39
0.0069566299 0.035052195 0.80900002 1.2994552e-38
0.0097392714 0.035052195 0.80900002 1.0689661e-38
0.012490956 0.034965537 0.80699998 1.3177826e-38
0.015228883 0.034878884 0.80500001 1.5390521e-38
0.017908337 0.034705572 0.801 1.4750559e-38
0.020663461 0.034705572 0.801 1.5119342e-38
-0.054406144 0.034081638 0.85500002 1.438214e-38
-0.051465277 0.034081638 0.85500002 1.2531341e-38
-0.048183862 0.033842467 0.84899998 9.6732768e-39
-0.045050383 0.033683021 0.84500003 8.9242323e-39
-0.042143915 0.033683021 0.84500003 6.9881241e-39
-0.039237447 0.033683021 0.84500003 1.002699e-38
-0.036115974 0.03348371 0.83999997 1.1594315e-38
-0.033147596 0.033403989 0.838 1.030576e-38
-0.030120742 0.033244543 0.83399999 1.0213564e-38
-0.027186731 0.033164818 0.83200002 9.1972613e-39
-0.02420803 0.033005375 0.82800001 1.0303609e-38
-0.021153659 0.032686479 0.81999999 1.1687963e-38
-0.018176652 0.032407451 0.81300002 1.343968e-38
-0.015342416 0.032327726 0.81099999 1.3904964e-38
-0.012552896 0.032327726 0.81099999 1.0217139e-38
-0.0097392714 0.032248002 0.80900002 1.3250262e-38
-0.0069566299 0.032248002 0.80900002 9.8390238e-39
-0.0041739885 0.032248002 0.80900002 1.2618948e-38
-0.0013913471 0.032248002 0.80900002 1.2434556e-38
0.0013912943 0.032248002 0.80900002 6.4349419e-39
0.0041843075 0.032327726 0.81099999 5.7895823e-39
0.0069738282 0.032327726 0.81099999 1.5670739e-38
0.0097633488 0.032327726 0.81099999 1.5578543e-38
0.01255287 0.032327726 0.81099999 1.5119342e-38
-0.045050383 0.030754045 0.84500003 1.1237744e-38
-0.042143915 0.030754045 0.84500003 8.9328531e-39
-0.039237447 0.030754045 0.84500003 9.8501249e-39
-0.036115974 0.030572064 0.83999997 1.1786233e-38
-0.033147596 0.030499276 0.838 1.4835205e-38
-0.030265205 0.030499276 0.838 1.3360075e-38
-0.027186731 0.030280903 0.83200002 1.1416063e-38
-0.024266502 0.030208115 0.82999998 1.3444367e-38
-0.021205254 0.029916953 0.82200003 1.44506e-38
-0.018176652 0.029589394 0.81300002 1.2330101e-38
-0.015342416 0.029516602 0.81099999 1.1416388e-38
-0.012552896 0.029516602 0.81099999 7.3597807e-39
-0.0097392714 0.029443812 0.80900002 8.7369992e-39
-0.0069566299 0.029443812 0.80900002 5.7867391e-39
-0.0041739885 0.029443812 0.80900002 9.6665464e-39
-0.0013913471 0.029443812 0.80900002 8.3758075e-39
0.0013912943 0.029443812 0.80900002 1.9292629e-39
0.0041739885 0.029443812 0.80900002 2.4824325e-39
0.0069738282 0.029516602 0.81099999 1.5024979e-38
0.0097874263 0.029589394 0.81300002 1.5393761e-38
-0.03004851 0.027397029 0.83200002 1.6042017e-38
-0.027186731 0.027397029 0.83200002 9.4885843e-39
-0.024091084 0.027133597 0.824 8.4744323e-39
-0.021102065 0.026936024 0.81800002 1.1596489e-38
-0.018221367 0.026837233 0.815 1.1596489e-38
-0.015380253 0.026771378 0.81300002 1.3813497e-38
-0.012552896 0.026705517 0.81099999 1.1600802e-38
-0.0097392714 0.026639661 0.80900002 1.1507162e-38
-0.0069566299 0.026639661 0.80900002 9.202271e-39
-0.0041739885 0.026639661 0.80900002 1.3262507e-38
-0.0013913471 0.026639661 0.80900002 1.1695181e-38
0.0013912943 0.026639661 0.80900002 5.975047e-39
0.0041739885 0.026639661 0.80900002 4.6843278e-39
0.0069738282 0.026705517 0.81099999 1.4748039e-38
0.0098115029 0.026837233 0.815 1.5393408e-38
-0.02975958 0.024277452 0.824 1.5488487e-38
-0.026925318 0.024277452 0.824 1.3726334e-38
-0.024091084 0.024277452 0.824 1.4279507e-38
-0.021102065 0.024100676 0.81800002 1.5008794e-38
-0.018266082 0.024071211 0.81699997 1.2611707e-38
-0.015380253 0.02395336 0.81300002 1.4367757e-38
-0.012552896 0.023894433 0.81099999 1.1601888e-38
-0.0097392714 0.023835508 0.80900002 1.1135118e-38
-0.0069394317 0.023776582 0.80699998 1.0028771e-38
-0.0041636694 0.023776582 0.80699998 1.3444342e-38
-0.0013913471 0.023835508 0.80900002 1.1877016e-38
0.0013912943 0.023835508 0.80900002 6.6178954e-39
0.0041739885 0.023835508 0.80900002 5.4193705e-39
0.0069738282 0.023894433 0.81099999 1.474912e-38
-0.026859967 0.021369275 0.82200003 1.3449384e-38
-0.02403261 0.021369275 0.82200003 1.5662079e-38
-0.021102065 0.021265289 0.81800002 1.3255252e-38
-0.018266082 0.02123929 0.81699997 1.1226948e-38
-0.015380253 0.021135304 0.81300002 1.2617122e-38
-0.012552896 0.02108331 0.81099999 1.0035644e-38
-0.0097392714 0.021031316 0.80900002 8.3696026e-39
-0.0069394317 0.020979322 0.80699998 7.3554507e-39
-0.0041636694 0.020979322 0.80699998 7.8258007e-39
-0.0013913471 0.021031316 0.80900002 6.9038444e-39
0.0013912943 0.021031316 0.80900002 2.6639469e-39
0.0041739885 0.021031316 0.80900002 3.5859003e-39
0.0069738282 0.02108331 0.81099999 1.5670714e-38
0.0098115029 0.021187296 0.815 1.5301931e-38
-0.026794612 0.018474961 0.81999999 7.9172312e-39
-0.023974136 0.018474961 0.81999999 1.0959687e-38
-0.021102065 0.0184299 0.81800002 9.6538674e-39
-0.018266082 0.018407367 0.81699997 8.8241068e-39
-0.015380253 0.018317247 0.81300002 1.3438995e-38
-0.012552896 0.018272186 0.81099999 1.3254603e-38
-0.0097392714 0.018227125 0.80900002 1.0490489e-38
-0.0069566299 0.018227125 0.80900002 9.8451194e-39
-0.0041739885 0.018227125 0.80900002 1.0955057e-38
-0.0013913471 0.018227125 0.80900002 1.067847e-38
0.0013912943 0.018227125 0.80900002 7.3601408e-39
0.0041739885 0.018227125 0.80900002 5.0552571e-39
0.0069910265 0.018317247 0.81300002 1.5577796e-38
0.0098115029 0.018362308 0.815 1.5209014e-38
-0.026794612 0.015632682 0.81999999 1.3073036e-38
-0.023974136 0.015632682 0.81999999 1.6115491e-38
-0.021102065 0.015594553 0.81800002 1.4816841e-38
-0.018266082 0.015575487 0.81699997 1.2604146e-38
-0.015418088 0.015537359 0.815 1.371845e-38
-0.012552896 0.015461101 0.81099999 1.2704298e-38
-0.0097392714 0.015422974 0.80900002 8.4618122e-39
-0.0069566299 0.015422974 0.80900002 7.0788778e-39
-0.0041739885 0.015422974 0.80900002 7.7235564e-39
-0.0013913471 0.015422974 0.80900002 8.0923389e-39
0.0013912943 0.015422974 0.80900002 4.2273097e-39
0.0041843075 0.015461101 0.81099999 3.8585272e-39
0.0070082243 0.015537359 0.815 1.5300849e-38
0.0098115029 0.015537359 0.815 1.5116458e-38
-0.023974136 0.01279036 0.81999999 1.0770271e-38
-0.021153659 0.01279036 0.81999999 9.3848209e-39
-0.018266082 0.012743565 0.81699997 7.6331082e-39
-0.015418088 0.01271237 0.815 1.0956524e-38
-0.012552896 0.012649978 0.81099999 1.2984828e-38
-0.0097392714 0.012618782 0.80900002 8.3728634e-39
-0.0069566299 0.012618782 0.80900002 8.0040809e-39
-0.0041739885 0.012618782 0.80900002 9.0186112e-39
-0.0013913471 0.012618782 0.80900002 1.1323502e-38
0.0013912943 0.012618782 0.80900002 8.7463249e-39
0.0041843075 0.012649978 0.81099999 3.8599607e-39
0.0070082243 0.01271237 0.815 1.5208291e-38
0.0098355804 0.012743565 0.81699997 1.5300486e-38
-0.023974136 0.0099480804 0.81999999 1.4551415e-38
-0.021153659 0.0099480804 0.81999999 1.436486e-38
-0.018266082 0.0099116843 0.81699997 1.2336557e-38
-0.015418088 0.0098874215 0.815 1.408687e-38
-0.012583853 0.0098631578 0.81300002 1.5746391e-38
-0.0097392714 0.0098146303 0.80900002 9.109697e-39
-0.0069566299 0.0098146303 0.80900002 8.0033494e-39
-0.0041739885 0.0098146303 0.80900002 7.6338424e-39
-0.0013913471 0.0098146303 0.80900002 1.0030929e-38
0.0013947338 0.009838894 0.81099999 6.345626e-39
0.0041843075 0.009838894 0.81099999 3.2142424e-39
0.0069910265 0.0098631578 0.81300002 1.4931348e-38
0.0098355804 0.0099116843 0.81699997 1.5207935e-38
-0.021153659 0.0071057603 0.81999999 1.1325618e-38
-0.018333154 0.0071057603 0.81999999 9.7582922e-39
-0.015455923 0.0070797629 0.81699997 1.086573e-38
-0.012583853 0.0070451014 0.81300002 8.1920567e-39
-0.0097633488 0.0070277699 0.81099999 9.7615712e-39
-0.0069738282 0.0070277699 0.81099999 9.2083974e-39
-0.0041843075 0.0070277699 0.81099999 7.8293908e-39
-0.0013947869 0.0070277699 0.81099999 6.7230433e-39
0.0013947338 0.0070277699 0.81099999 4.0537084e-39
0.0041946266 0.0070451014 0.81300002 1.2166924e-38
0.0069910265 0.0070451014 0.81300002 1.4658361e-38
-0.021205254 0.0042738388 0.82200003 1.0142563e-38
-0.01837787 0.0042738388 0.82200003 1.0880128e-38
-0.015512677 0.0042634401 0.81999999 1.0598507e-38
-0.012645765 0.0042478419 0.81699997 1.2867731e-39
-0.0097874263 0.0042270445 0.81300002 1.2165497e-38
-0.0069910265 0.0042270445 0.81300002 1.2442084e-38
-0.0041946266 0.0042270445 0.81300002 1.1427567e-38
-0.0013982266 0.0042270445 0.81300002 6.2646113e-39
0.0013981734 0.0042270445 0.81300002 5.3440815e-39
0.0041946266 0.0042270445 0.81300002 1.5669992e-38
0.0069910265 0.0042270445 0.81300002 1.4382843e-38
-0.021205254 0.0014246264 0.82200003 1.2631502e-38
-0.01837787 0.0014246264 0.82200003 1.1432959e-38
-0.015550514 0.0014246264 0.82200003 1.0601737e-38
-0.0126922 0.0014211602 0.81999999 2.3041382e-39
-0.0098115029 0.0014124945 0.815 1.3088151e-38
-0.0070082243 0.0014124945 0.815 1.2627173e-38
-0.0041946266 0.0014090283 0.81300002 1.1798494e-38
-0.0013982266 0.0014090283 0.81300002 7.4652999e-39
0.0013981734 0.0014090283 0.81300002 5.5298657e-39
0.0041946266 0.0014090283 0.81300002 1.4565037e-38
0.0069910265 0.0014090283 0.81300002 1.4383206e-38
-0.02420803 -0.0014350251 0.82800001 1.4751276e-38
-0.021256847 -0.0014280927 0.824 1.3553098e-38
-0.018422585 -0.0014280927 0.824 1.1709186e-38
-0.01558835 -0.0014280927 0.824 1.1060914e-38
-0.012723157 -0.0014246264 0.82200003 3.593068e-39
-0.0098716961 -0.0014211602 0.81999999 1.3456924e-38
-0.0069910265 -0.0014090283 0.81300002 1.2627164e-38
-0.0041946266 -0.0014090283 0.81300002 1.2535694e-38
-0.0013982266 -0.0014090283 0.81300002 9.1244555e-39
0.0013981734 -0.0014090283 0.81300002 7.1882856e-39
0.0041946266 -0.0014090283 0.81300002 1.3918567e-38
0.0069910265 -0.0014090283 0.81300002 1.4382856e-38
-0.02420803 -0.0043050349 0.82800001 1.4842032e-38
-0.021360036 -0.0043050349 0.82800001 1.3921527e-38
-0.018422585 -0.0042842375 0.824 1.1801028e-38
-0.01558835 -0.0042842375 0.824 1.0415545e-38
-0.012754114 -0.0042842375 0.824 3.6852636e-39
-0.0098957745 -0.0042738388 0.82200003 1.3548767e-38
-0.0069910265 -0.0042270445 0.81300002 1.262681e-38
-0.0041843075 -0.0042166458 0.81099999 1.2996306e-38
-0.0013947869 -0.0042166458 0.81099999 9.8616548e-39
0.0013947338 -0.0042166458 0.81099999 6.7287648e-39
0.0041946266 -0.0042270445 0.81300002 1.2168307e-38
0.0069910265 -0.0042270445 0.81300002 1.429066e-38
0.0098115029 -0.0042374432 0.815 1.4014073e-38
-0.02420803 -0.0071750851 0.82800001 1.4658361e-38
-0.021360036 -0.0071750851 0.82800001 1.4105553e-38
-0.018512014 -0.0071750851 0.82800001 1.1708467e-38
-0.015626185 -0.0071577537 0.82599998 8.6638164e-39
-0.012785071 -0.0071577537 0.82599998 4.4228174e-39
-0.0098957745 -0.0071230917 0.82200003 1.3734966e-38
-0.0069910265 -0.0070451014 0.81300002 1.2813009e-38
-0.0041843075 -0.0070277699 0.81099999 1.1981078e-38
-0.0013947869 -0.0070277699 0.81099999 1.0413752e-38
0.0013947338 -0.0070277699 0.81099999 7.3748629e-39
0.0041946266 -0.0070451014 0.81300002 1.0878297e-38
0.0069910265 -0.0070451014 0.81300002 1.4382856e-38
0.0098115029 -0.0070624324 0.815 1.3921878e-38
-0.024266502 -0.010069357 0.82999998 1.4105543e-38
-0.021411629 -0.010069357 0.82999998 1.4382496e-38
-0.018556729 -0.010069357 0.82999998 1.1616627e-38
-0.015664021 -0.010045094 0.82800001 9.1244428e-39
-0.012816027 -0.010045094 0.82800001 6.8195521e-39
-0.0099680061 -0.010045094 0.82800001 1.4379243e-38
-0.0069910265 -0.0098631177 0.81300002 1.235094e-38
-0.0041843075 -0.009838854 0.81099999 1.1335718e-38
-0.0013947869 -0.009838854 0.81099999 1.1704501e-38
0.0013947338 -0.009838854 0.81099999 7.7440111e-39
0.0041946266 -0.0098631177 0.81300002 9.4035325e-39
0.0070082243 -0.0098873805 0.815 1.4934228e-38
-0.021411629 -0.01294634 0.82999998 1.4751276e-38
-0.018556729 -0.01294634 0.82999998 1.0879059e-38
-0.015701856 -0.01294634 0.82999998 9.9542035e-39
-0.012816027 -0.012915145 0.82800001 9.1244428e-39
-0.0099680061 -0.012915145 0.82800001 1.4378177e-38
-0.0069910265 -0.012681174 0.81300002 1.3548416e-38
-0.0041843075 -0.012649978 0.81099999 1.1798492e-38
-0.0013947869 -0.012649978 0.81099999 1.0507753e-38
0.0013947338 -0.012649978 0.81099999 7.6493016e-39
0.0041946266 -0.012681174 0.81300002 8.9400404e-39
0.0070082243 -0.01271237 0.815 1.4842029e-38
-0.021411629 -0.015823282 0.82999998 1.438249e-38
-0.018556729 -0.015823282 0.82999998 1.1524426e-38
-0.015664021 -0.015785154 0.82800001 1.078433e-38
-0.012816027 -0.015785154 0.82800001 1.1521895e-38
-0.0099439286 -0.015747026 0.82599998 1.437888e-38
-0.0070082243 -0.015537319 0.815 1.3733511e-38
-0.0041946266 -0.01549919 0.81300002 1.1890677e-38
-0.0013982266 -0.01549919 0.81300002 9.9545693e-39
0.0013981734 -0.01549919 0.81300002 7.5563871e-39
0.0042049452 -0.015537319 0.815 8.4783434e-39
0.0070082243 -0.015537319 0.815 1.4565798e-38
-0.021360036 -0.018655205 0.82800001 1.4383209e-38
-0.018512014 -0.018655205 0.82800001 1.309247e-38
-0.015664021 -0.018655205 0.82800001 1.2259107e-38
-0.012785071 -0.018610142 0.82599998 1.3088868e-38
-0.0099198511 -0.018565083 0.824 1.345764e-38
-0.0070254221 -0.018407367 0.81699997 1.3918618e-38
-0.0042049452 -0.018362308 0.815 1.1982873e-38
-0.0013982266 -0.018317247 0.81300002 1.0323352e-38
0.0013981734 -0.018317247 0.81300002 7.5571059e-39
0.0042049452 -0.018362308 0.815 7.6493016e-39
0.0070082243 -0.018362308 0.815 1.4473247e-38
-0.021360036 -0.021525213 0.82800001 1.438213e-38
-0.018512014 -0.021525213 0.82800001 1.3828956e-38
-0.015664021 -0.021525213 0.82800001 1.3825341e-38
-0.012754114 -0.021421228 0.824 1.2718993e-38
-0.0098957745 -0.021369236 0.82200003 1.2259826e-38
-0.0070254221 -0.021239249 0.81699997 1.4011543e-38
-0.0042049452 -0.021187257 0.815 1.2167262e-38
-0.0013982266 -0.021135263 0.81300002 1.0231153e-38
0.0013981734 -0.021135263 0.81300002 8.0202421e-39
0.0042049452 -0.021187257 0.815 7.0060901e-39
0.0070082243 -0.021187257 0.815 1.3919713e-38
-0.018512014 -0.024395265 0.82800001 1.4105903e-38
-0.015626185 -0.024336338 0.82599998 1.4103373e-38
-0.012754114 -0.024277413 0.824 1.1337504e-38
-0.0098957745 -0.024218488 0.82200003 1.2811918e-38
-0.0070254221 -0.02407117 0.81699997 1.4194852e-38
-0.0042049452 -0.024012245 0.815 1.2167983e-38
-0.0013982266 -0.02395332 0.81300002 1.0324071e-38
0.0013981734 -0.02395332 0.81300002 8.1124377e-39
0.0041946266 -0.02395332 0.81300002 7.1904814e-39
0.0070082243 -0.024012245 0.815 1.3182145e-38
0.0098355804 -0.02407117 0.81699997 1.4011906e-38
-0.018422585 -0.027133597 0.824 1.4197739e-38
-0.01558835 -0.027133597 0.824 1.2536033e-38
-0.012754114 -0.027133597 0.824 1.133749e-38
-0.0098957745 -0.027067741 0.82200003 1.1521518e-38
-0.0070082243 -0.026837233 0.815 1.4748365e-38
-0.0041946266 -0.026771378 0.81300002 1.2443864e-38
-0.0013947869 -0.026705517 0.81099999 1.1245321e-38
0.0013947338 -0.026705517 0.81099999 8.0213351e-39
0.0041946266 -0.026771378 0.81300002 7.4681613e-39
0.0070082243 -0.026837233 0.815 1.2261981e-38
0.0098355804 -0.026903091 0.81699997 1.3921502e-38
-0.018422585 -0.029989742 0.824 1.4013708e-38
-0.01558835 -0.029989742 0.824 1.2076137e-38
-0.012754114 -0.029989742 0.824 1.1615158e-38
-0.0098957745 -0.029916953 0.82200003 1.0597709e-38
-0.0070082243 -0.029662183 0.815 1.5760664e-38
-0.0041946266 -0.029589394 0.81300002 1.3088157e-38
-0.0013947869 -0.029516602 0.81099999 1.1428636e-38
0.0013947338 -0.029516602 0.81099999 8.5730697e-39
0.0041946266 -0.029589394 0.81300002 8.019896e-39
0.0070082243 -0.029662183 0.815 1.1891396e-38
0.0098115029 -0.029662183 0.815 1.4104091e-38
-0.0184673 -0.03292565 0.82599998 1.3276499e-38
-0.015626185 -0.03292565 0.82599998 1.2167262e-38
-0.012754114 -0.032845929 0.824 1.2167262e-38
-0.0099198511 -0.032845929 0.824 8.2020578e-39
-0.0070082243 -0.032487173 0.815 1.5208907e-38
-0.0041946266 -0.032407451 0.81300002 1.2720085e-38
-0.0013947869 -0.032327726 0.81099999 1.1705933e-38
0.0013947338 -0.032327726 0.81099999 9.4013815e-39
0.0041946266 -0.032407451 0.81300002 8.8482077e-39
0.0069910265 -0.032407451 0.81300002 1.0970516e-38
0.0098115029 -0.032487173 0.815 1.4105168e-38
0.012645738 -0.032566894 0.81699997 1.3276864e-38
-0.0184673 -0.035788726 0.82599998 1.3184303e-38
-0.015626185 -0.035788726 0.82599998 1.2718993e-38
-0.012754114 -0.035702072 0.824 1.2626798e-38
-0.0099198511 -0.035702072 0.824 5.0631492e-39
-0.0070254221 -0.035398774 0.81699997 1.4559289e-38
-0.0041946266 -0.035225466 0.81300002 1.3548767e-38
-0.0013947869 -0.035138808 0.81099999 1.2534615e-38
0.0013947338 -0.035138808 0.81099999 1.0138581e-38
0.0041946266 -0.035225466 0.81300002 8.7556463e-39
0.0069910265 -0.035225466 0.81300002 1.0508445e-38
0.0098115029 -0.03531212 0.815 1.4380662e-38
0.012645738 -0.035398774 0.81699997 1.3368344e-38
-0.012785071 -0.038651846 0.82599998 1.2443121e-38
-0.0099439286 -0.038651846 0.82599998 4.1433593e-39
-0.0070340219 -0.038277496 0.81800002 1.1795587e-38
-0.0042049452 -0.038137108 0.815 1.4194865e-38
-0.0013982266 -0.038043521 0.81300002 1.2443148e-38
0.0013981734 -0.038043521 0.81300002 9.2173405e-39
0.0041946266 -0.038043521 0.81300002 8.0187973e-39
0.0069910265 -0.038043521 0.81300002 8.9425515e-39
0.0097874263 -0.038043521 0.81300002 1.4013311e-38
0.012583827 -0.038043521 0.81300002 1.3367978e-38
-0.015626185 -0.041514922 0.82599998 1.4102657e-38
-0.012785071 -0.041514922 0.82599998 1.0875809e-38
-0.0099439286 -0.041514922 0.82599998 4.6025368e-39
-0.0070340219 -0.041112844 0.81800002 6.6308308e-39
-0.0042049452 -0.040962059 0.815 1.3182498e-38
-0.0013982266 -0.04086154 0.81300002 1.2076151e-38
0.0013981734 -0.04086154 0.81300002 9.5857699e-39
0.0041946266 -0.04086154 0.81300002 8.2028355e-39
0.0069910265 -0.04086154 0.81300002 7.4699171e-39
0.0097874263 -0.04086154 0.81300002 1.2817264e-38
0.01255287 -0.040761016 0.81099999 1.3460174e-38
0.01534239 -0.040761016 0.81099999 1.3183587e-38
-0.015626185 -0.044378038 0.82599998 1.3365415e-38
-0.012785071 -0.044378038 0.82599998 7.0961124e-39
-0.0099439286 -0.044378038 0.82599998 4.7984047e-39
-0.0070512192 -0.044055682 0.81999999 1.1436477e-38
-0.0042152638 -0.0438945 0.81699997 1.5297259e-38
-0.0013982266 -0.043679595 0.81300002 1.3822129e-38
0.0013981734 -0.043679595 0.81300002 1.1519675e-38
0.0041946266 -0.043679595 0.81300002 9.0303933e-39
0.0069910265 -0.043679595 0.81300002 1.2534931e-38
0.0097874263 -0.043679595 0.81300002 1.5761779e-38
0.01255287 -0.043572139 0.81099999 1.6957104e-38
0.015304554 -0.04346469 0.80900002 1.5850757e-38
0.018087195 -0.04346469 0.80900002 1.3733874e-38
-0.0184673 -0.047241118 0.82599998 1.7236592e-38
-0.01558835 -0.047126733 0.824 1.9259449e-38
-0.012754114 -0.047126733 0.824 1.6954558e-38
-0.0099439286 -0.047241118 0.82599998 1.4837311e-38
-0.0070340219 -0.046783578 0.81800002 1.7787571e-38
-0.0042049452 -0.046611995 0.815 1.9815539e-38
-0.0013982266 -0.046497613 0.81300002 1.704967e-38
0.0013947338 -0.046383224 0.81099999 1.4651821e-38
0.0041843075 -0.046383224 0.81099999 1.6219147e-38
0.0069910265 -0.046497613 0.81300002 1.5943296e-38
0.0097874263 -0.046497613 0.81300002 1.5021339e-38
0.012583827 -0.046497613 0.81300002 1.4742945e-38
0.015304554 -0.046268839 0.80900002 1.336001e-38
0.018087195 -0.046268839 0.80900002 1.2628229e-38
0.020973027 -0.046497613 0.81300002 1.5578489e-38
-0.0184673 -0.050104234 0.82599998 1.2443501e-38
-0.015550514 -0.049861602 0.82200003 1.0231413e-38
-0.012723157 -0.049861602 0.82200003 9.3094647e-39
-0.0099198511 -0.049982917 0.824 5.1668229e-39
-0.0069738282 -0.049194347 0.81099999 1.7244436e-38
-0.0041843075 -0.049194347 0.81099999 1.8246013e-38
-0.0013947869 -0.049194347 0.81099999 1.5203557e-38
0.0013947338 -0.049194347 0.81099999 1.446596e-38
0.0041843075 -0.049194347 0.81099999 1.4281569e-38
0.0069566299 -0.049073033 0.80900002 1.3912458e-38
0.0097392714 -0.049073033 0.80900002 1.3635871e-38
0.012521913 -0.049073033 0.80900002 1.2437707e-38
0.015304554 -0.049073033 0.80900002 1.1700142e-38
0.01813191 -0.049194347 0.81099999 1.2536413e-38
0.020973027 -0.049315669 0.81300002 1.5671064e-38
-0.015550514 -0.052710854 0.82200003 1.5946555e-38
-0.012723157 -0.052710854 0.82200003 1.5762164e-38
-0.0099198511 -0.052839104 0.824 1.5118243e-38
-0.0069738282 -0.052005474 0.81099999 1.7054352e-38
-0.0041843075 -0.052005474 0.81099999 1.7324788e-38
-0.0013947869 -0.052005474 0.81099999 1.5112093e-38
0.0013912943 -0.051877223 0.80900002 1.3269963e-38
0.0041739885 -0.051877223 0.80900002 1.290118e-38
0.0069566299 -0.051877223 0.80900002 1.2441667e-38
0.0097151939 -0.051748972 0.80699998 1.2072884e-38
0.012490956 -0.051748972 0.80699998 1.1708084e-38
0.015304554 -0.051877223 0.80900002 1.2445649e-38
0.01813191 -0.052005474 0.81099999 1.5302294e-38
