# .PCD v0.7 - Point Cloud Data file format
VERSION 0.7
FIELDS x y z rgb
SIZE 4 4 4 4
TYPE F F F F
COUNT 1 1 1 1
WIDTH 750
HEIGHT 1
VIEWPOINT 0 0 0 1 0 0 0
POINTS 750
DATA ascii
-0.0013775885 0.073575795 0.801 1.0687731e-38
0.0013775361 0.073575795 0.801 1.1702683e-38
0.0041327132 0.073575795 0.801 9.6743796e-39
0.0069050356 0.073759511 0.80299997 4.6932961e-39
0.0096670389 0.073759511 0.80299997 1.0870393e-38
0.012429043 0.073759511 0.80299997 1.7144056e-38
0.015115376 0.073392086 0.79900002 1.3825013e-38
0.01786362 0.073392086 0.79900002 1.1436539e-38
-0.012398113 0.070799336 0.801 1.2905941e-38
-0.0068878378 0.070799336 0.801 1.13332e-38
-0.0041327132 0.070799336 0.801 1.1054698e-38
-0.0013775885 0.070799336 0.801 8.288871e-39
0.0013775361 0.070799336 0.801 6.346335e-39
0.0041327132 0.070799336 0.801 6.8073062e-39
0.0068878378 0.070799336 0.801 5.9811454e-39
0.0096188849 0.070622556 0.79900002 9.9455477e-39
0.01236713 0.070622556 0.79900002 9.679797e-39
0.015115376 0.070622556 0.79900002 1.3275427e-38
0.01786362 0.070622556 0.79900002 1.4937134e-38
-0.0068878378 0.06802287 0.801 1.0779634e-38
-0.0041223941 0.067853026 0.79900002 6.8123284e-39
-0.0013741488 0.067853026 0.79900002 7.0889111e-39
0.0013740966 0.067853026 0.79900002 7.3647833e-39
0.0041223941 0.067853026 0.79900002 6.8116109e-39
0.0068620401 0.067768104 0.79799998 5.056692e-39
0.0096068457 0.067768104 0.79799998 5.8864457e-39
0.012351652 0.067768104 0.79799998 6.9055988e-39
0.015096458 0.067768104 0.79799998 1.5110999e-38
0.01786362 0.067853026 0.79900002 1.5765793e-38
-0.0096429624 0.065246448 0.801 1.0034463e-38
-0.0068878378 0.065246448 0.801 7.9139956e-39
-0.0041223941 0.065083541 0.79900002 8.0061899e-39
-0.001372429 0.065002084 0.79799998 8.0983855e-39
0.0013723767 0.065002084 0.79799998 8.2831397e-39
0.0041223941 0.065083541 0.79900002 7.0846063e-39
0.0068620401 0.065002084 0.79799998 4.6929373e-39
0.0096068457 0.065002084 0.79799998 4.7851316e-39
0.012351652 0.065002084 0.79799998 4.322008e-39
0.015096458 0.065002084 0.79799998 7.0878699e-39
0.017841263 0.065002084 0.79799998 1.5025707e-38
-0.0096429624 0.062469989 0.801 9.2058583e-39
-0.0068878378 0.062469989 0.801 1.0588793e-38
-0.0041223941 0.062314011 0.79900002 7.6341844e-39
-0.001372429 0.062236018 0.79799998 7.910767e-39
0.0013723767 0.062236018 0.79799998 5.4243927e-39
0.0041069156 0.062080041 0.796 6.254145e-39
0.0068448423 0.062080041 0.796 5.7045627e-39
0.0096068457 0.062236018 0.79799998 5.3357858e-39
0.012320695 0.062080041 0.796 4.4152785e-39
0.015058622 0.062080041 0.796 6.3513839e-39
0.017841263 0.062236018 0.79799998 1.6039503e-38
-0.0068706395 0.059544522 0.79900002 1.7420661e-38
-0.0041172346 0.059469994 0.79799998 1.3179621e-38
-0.001372429 0.059469994 0.79799998 7.3712966e-39
0.0013723767 0.059469994 0.79799998 5.9818629e-39
0.0041069156 0.059320949 0.796 4.8755321e-39
0.0068448423 0.059320949 0.796 4.8755321e-39
0.0096068457 0.059469994 0.79799998 3.8613956e-39
0.012320695 0.059320949 0.796 3.3100239e-39
0.015058622 0.059320949 0.796 5.7993045e-39
0.017841263 0.059469994 0.79799998 1.6132055e-38
-0.018288441 0.05812509 0.81800002 1.5673235e-38
-0.015455923 0.058054026 0.81699997 1.5856181e-38
-0.012614809 0.05791191 0.815 1.6224964e-38
-0.0068706395 0.056774992 0.79900002 1.7326985e-38
-0.0041172346 0.056703933 0.79799998 1.6220275e-38
-0.001372429 0.056703933 0.79799998 1.4837341e-38
0.0013723767 0.056703933 0.79799998 1.262464e-38
0.0041172346 0.056703933 0.79799998 6.4475326e-39
0.0068620401 0.056703933 0.79799998 5.6084224e-39
0.0096188849 0.056774992 0.79900002 4.5942859e-39
0.012351652 0.056703933 0.79799998 1.8388651e-39
0.015096458 0.056703933 0.79799998 3.6827777e-39
0.01786362 0.056774992 0.79900002 1.6406468e-38
-0.02403261 0.055560067 0.82200003 1.5671074e-38
-0.021205254 0.055560067 0.82200003 1.5114653e-38
-0.018288441 0.055289701 0.81800002 1.5022458e-38
-0.015455923 0.055222102 0.81699997 1.5482006e-38
-0.012614809 0.055086922 0.815 1.668055e-38
-0.0098115029 0.055086922 0.815 1.815603e-38
-0.0068706395 0.054005463 0.79900002 1.3177466e-38
-0.0041172346 0.053937871 0.79799998 1.5852164e-38
-0.0013689892 0.053802688 0.796 1.4838012e-38
0.0013689372 0.053802688 0.796 1.2624994e-38
0.0041172346 0.053937871 0.79799998 1.0504495e-38
0.0068620401 0.053937871 0.79799998 8.0141086e-39
0.0096188849 0.054005463 0.79900002 3.3121763e-39
0.01236713 0.054005463 0.79900002 3.956108e-39
0.015115376 0.054005463 0.79900002 2.757576e-39
0.01786362 0.054005463 0.79900002 1.3920416e-38
-0.038355183 0.052967351 0.82599998 1.576288e-38
-0.035514042 0.052967351 0.82599998 1.5855076e-38
-0.032672927 0.052967351 0.82599998 1.5386907e-38
-0.02975958 0.052839104 0.824 1.4096169e-38
-0.026859967 0.052710854 0.82200003 1.5096647e-38
-0.02403261 0.052710854 0.82200003 1.8231298e-38
-0.021205254 0.052710854 0.82200003 1.5096253e-38
-0.018288441 0.052454352 0.81800002 1.3621123e-38
-0.015455923 0.052390222 0.81699997 1.2606325e-38
-0.012614809 0.052261975 0.815 1.2329738e-38
-0.0098115029 0.052261975 0.815 1.3814171e-38
-0.0068878378 0.051364221 0.801 1.805517e-38
-0.0041172346 0.051171847 0.79799998 1.5667062e-38
-0.0013689892 0.0510436 0.796 1.4560714e-38
0.0013689372 0.0510436 0.796 1.2622801e-38
0.0041172346 0.051171847 0.79799998 1.0594497e-38
0.0068620401 0.051171847 0.79799998 7.1843605e-39
0.0096188849 0.051235974 0.79900002 2.0214571e-39
0.012351652 0.051171847 0.79799998 5.6199677e-39
0.015096458 0.051171847 0.79799998 1.1336097e-38
0.017796548 0.0510436 0.796 1.5300847e-38
0.020534474 0.0510436 0.796 1.5946216e-38
0.023097035 0.050658848 0.79000002 1.493567e-38
0.025814323 0.050658848 0.79000002 1.4843474e-38
-0.047332559 0.050589547 0.83399999 1.585727e-38
-0.044037413 0.050104275 0.82599998 1.6041628e-38
-0.041196298 0.050104275 0.82599998 1.5580649e-38
-0.038355183 0.050104275 0.82599998 1.4177161e-38
-0.035428051 0.049982958 0.824 1.8694747e-38
-0.032593817 0.049982958 0.824 1.3714009e-38
-0.02975958 0.049982958 0.824 1.4451574e-38
-0.026859967 0.049861643 0.82200003 1.2053126e-38
-0.023974136 0.049740322 0.81999999 1.4358017e-38
-0.021153659 0.049740322 0.81999999 7.7235087e-39
-0.018333154 0.049740322 0.81999999 5.6952357e-39
-0.015455923 0.049558342 0.81699997 1.4274466e-38
-0.012614809 0.049437024 0.815 1.1508597e-38
-0.0097874263 0.04931571 0.81300002 1.1409609e-38
-0.0069050356 0.048709121 0.80299997 1.2423761e-38
-0.0041223941 0.048466485 0.79900002 1.2255857e-38
-0.001372429 0.048405822 0.79799998 1.0965118e-38
0.0013723767 0.048405822 0.79799998 9.4892036e-39
0.0041172346 0.048405822 0.79799998 7.5531108e-39
0.0068706395 0.048466485 0.79900002 8.272735e-39
0.0096188849 0.048466485 0.79900002 1.196056e-38
0.012351652 0.048405822 0.79799998 1.4185895e-38
0.015058622 0.048284508 0.796 1.4001504e-38
0.017751835 0.04816319 0.79400003 1.3636296e-38
0.020379692 0.047920555 0.79000002 1.4834839e-38
0.023038559 0.047799233 0.78799999 1.493425e-38
0.025748968 0.047799233 0.78799999 1.5303033e-38
0.028423263 0.047738578 0.787 1.5394853e-38
0.031051124 0.04761726 0.78500003 1.4933875e-38
0.033751212 0.04761726 0.78500003 1.4750913e-38
-0.050201219 0.047698699 0.83399999 1.7145478e-38
-0.047332559 0.047698699 0.83399999 1.8804999e-38
-0.0443573 0.047584314 0.83200002 1.7875428e-38
-0.041196298 0.047241159 0.82599998 1.3265647e-38
-0.038355183 0.047241159 0.82599998 1.3628743e-38
-0.035428051 0.047126774 0.824 1.4642895e-38
-0.032593817 0.047126774 0.824 1.0671584e-38
-0.02975958 0.047126774 0.824 1.3806236e-38
-0.026859967 0.047012389 0.82200003 1.2424789e-38
-0.023974136 0.046898 0.81999999 1.4176506e-38
-0.021153659 0.046898 0.81999999 1.0493751e-38
-0.018288441 0.046783619 0.81800002 1.1507903e-38
-0.015455923 0.046726421 0.81699997 1.648175e-38
-0.012583853 0.046497654 0.81300002 1.3623686e-38
-0.0097392714 0.04626888 0.80900002 1.7500987e-38
-0.0069050356 0.045925725 0.80299997 1.1784858e-38
-0.0041223941 0.045696955 0.79900002 9.0981825e-39
-0.0013741488 0.045696955 0.79900002 7.6230636e-39
0.0013723767 0.045639761 0.79799998 2.848694e-39
0.0041172346 0.045639761 0.79799998 6.6287093e-39
0.0068706395 0.045696955 0.79900002 6.9838053e-39
0.0096068457 0.045639761 0.79799998 1.1777978e-38
0.012320695 0.045525376 0.796 1.187596e-38
0.015020788 0.045410994 0.79400003 8.9256995e-39
0.017707119 0.045296606 0.792 1.3988177e-38
0.020379692 0.045182221 0.79000002 1.3435004e-38
0.023038559 0.045067832 0.78799999 1.362662e-38
0.025748968 0.045067832 0.78799999 1.4271989e-38
0.028423263 0.045010645 0.787 1.3822858e-38
0.03097201 0.044781871 0.78299999 1.5390184e-38
0.033579234 0.04466749 0.78100002 1.5484534e-38
0.03612626 0.044495907 0.778 1.557673e-38
0.038802326 0.044495907 0.778 1.4843474e-38
0.04147834 0.044495907 0.778 1.4566887e-38
-0.053069849 0.044807851 0.83399999 1.585727e-38
-0.050201219 0.044807851 0.83399999 1.760357e-38
-0.047332559 0.044807851 0.83399999 1.6681613e-38
-0.0443573 0.044700395 0.83200002 1.6305569e-38
-0.041296046 0.044485494 0.82800001 1.2248961e-38
-0.038262315 0.044270586 0.824 1.4179759e-38
-0.035428051 0.044270586 0.824 1.4271954e-38
-0.032514706 0.044163138 0.82200003 1.1224104e-38
-0.029687349 0.044163138 0.82200003 1.2514842e-38
-0.026859967 0.044163138 0.82200003 1.0483247e-38
-0.02403261 0.044163138 0.82200003 1.3617898e-38
-0.021153659 0.044055682 0.81999999 1.3350724e-38
-0.018288441 0.043948229 0.81800002 1.0953638e-38
-0.015455923 0.0438945 0.81699997 1.002734e-38
-0.012583853 0.043679595 0.81300002 1.1963448e-38
-0.0097151939 0.043357234 0.80699998 1.529188e-38
-0.0068878378 0.043034878 0.801 1.1788446e-38
-0.0041223941 0.042927425 0.79900002 1.426691e-38
-0.0013741488 0.042927425 0.79900002 1.4635692e-38
0.0013723767 0.042873699 0.79799998 1.344722e-38
0.0041172346 0.042873699 0.79799998 8.007678e-39
0.0068620401 0.042873699 0.79799998 6.1554894e-39
0.0095827691 0.042766247 0.796 1.3807721e-38
0.012320695 0.042766247 0.796 1.3354339e-38
0.015020788 0.042658795 0.79400003 5.6099064e-39
0.017707119 0.042551339 0.792 7.8089221e-39
0.020379692 0.04244389 0.79000002 1.3709442e-38
0.023038559 0.042336434 0.78799999 1.6302063e-38
0.025716294 0.042282708 0.787 1.0124956e-38
0.028351031 0.042175259 0.78500003 1.3061189e-38
0.03097201 0.042067803 0.78299999 8.8201901e-39
0.033579234 0.041960351 0.78100002 1.3901352e-38
0.03612626 0.041799169 0.778 1.2795004e-38
0.038802326 0.041799169 0.778 1.3830388e-38
0.04147834 0.041799169 0.778 1.3830388e-38
0.044154353 0.041799169 0.778 1.4381404e-38
0.046830367 0.041799169 0.778 1.4750187e-38
-0.050201219 0.041917045 0.83399999 1.567179e-38
-0.047332559 0.041917045 0.83399999 1.3827877e-38
-0.0443573 0.041816521 0.83200002 8.3857287e-39
-0.041395795 0.041716006 0.82999998 9.0310883e-39
-0.038262315 0.041414443 0.824 9.2050736e-39
-0.035428051 0.041414443 0.824 1.0680204e-38
-0.032514706 0.041313924 0.82200003 8.5579988e-39
-0.029687349 0.041313924 0.82200003 9.1111726e-39
-0.026859967 0.041313924 0.82200003 5.6984643e-39
-0.02403261 0.041313924 0.82200003 9.3862839e-39
-0.021205254 0.041313924 0.82200003 9.7529715e-39
-0.018333154 0.041213401 0.81999999 5.880755e-39
-0.015474843 0.041112881 0.81800002 9.9257726e-39
-0.012552896 0.040761057 0.81099999 1.5826293e-38
-0.0096911173 0.040459495 0.80500001 1.3716607e-38
-0.0068878378 0.040258456 0.801 7.9082825e-39
-0.0041223941 0.040157937 0.79900002 8.3620636e-39
-0.001372429 0.040107675 0.79799998 1.3156236e-38
0.0013689372 0.040007155 0.796 8.8431868e-39
0.0041069156 0.040007155 0.796 3.1270704e-39
0.0068620401 0.040107675 0.79799998 5.0549124e-39
0.0095827691 0.040007155 0.796 6.9910206e-39
0.012320695 0.040007155 0.796 1.1880654e-38
0.015020788 0.039906636 0.79400003 1.1235285e-38
0.017707119 0.039806113 0.792 1.2150729e-38
0.020379692 0.039705593 0.79000002 1.4363424e-38
0.023038559 0.03960507 0.78799999 9.0179077e-39
0.025650941 0.039454296 0.78500003 6.713017e-39
0.028351031 0.039454296 0.78500003 1.2881438e-38
0.03097201 0.039353773 0.78299999 1.5831698e-38
0.033579234 0.039253253 0.78100002 1.1874142e-38
0.036219127 0.039202988 0.77999997 1.7866858e-38
0.038802326 0.039102469 0.778 1.7881614e-38
0.04147834 0.039102469 0.778 1.9080157e-38
0.044040848 0.039001949 0.77600002 1.6406091e-38
0.046709981 0.039001949 0.77600002 1.5207548e-38
0.049379114 0.039001949 0.77600002 1.4382496e-38
0.052048251 0.039001949 0.77600002 1.4382496e-38
-0.047332559 0.039026197 0.83399999 1.6134576e-38
-0.0443573 0.038932607 0.83200002 1.5671051e-38
-0.041395795 0.03883902 0.82999998 1.5394465e-38
-0.038355183 0.038651846 0.82599998 8.1905783e-39
-0.035428051 0.03855826 0.824 6.8076649e-39
-0.032593817 0.03855826 0.824 7.7249436e-39
-0.02975958 0.03855826 0.824 6.4342244e-39
-0.026859967 0.038464673 0.82200003 7.4454911e-39
-0.02403261 0.038464673 0.82200003 1.4452356e-38
-0.021205254 0.038464673 0.82200003 1.0955815e-38
-0.018333154 0.038371082 0.81999999 3.6734367e-39
-0.015455923 0.038230695 0.81699997 9.3813177e-39
-0.012521939 0.037856348 0.80900002 1.3069143e-38
-0.0096911173 0.037669171 0.80500001 1.4921261e-38
-0.0068878378 0.037481993 0.801 1.1878806e-38
-0.0041223941 0.037388407 0.79900002 1.2880745e-38
-0.001372429 0.03734161 0.79799998 1.509344e-38
0.0013689372 0.037248023 0.796 1.3167046e-38
0.0041069156 0.037248023 0.796 7.0821344e-39
0.0068620401 0.03734161 0.79799998 8.1841786e-39
0.0096068457 0.03734161 0.79799998 5.6948966e-39
0.012320695 0.037248023 0.796 7.724285e-39
0.015020788 0.03715444 0.79400003 1.288724e-38
0.017751835 0.03715444 0.79400003 1.1962039e-38
0.020379692 0.036967263 0.79000002 1.7678168e-38
0.023038559 0.036873672 0.78799999 1.3257424e-38
0.025650941 0.036733292 0.78500003 1.1136925e-38
0.028351031 0.036733292 0.78500003 9.3708079e-39
0.03097201 0.036639702 0.78299999 1.2782039e-38
0.033579234 0.036546115 0.78100002 1.4279147e-38
0.036219127 0.036499318 0.77999997 1.6860625e-38
0.038802326 0.036405731 0.778 2.0089987e-38
0.04147834 0.036405731 0.778 1.6125575e-38
0.044040848 0.036312144 0.77600002 1.6771984e-38
0.046709981 0.036312144 0.77600002 1.5020267e-38
0.049379114 0.036312144 0.77600002 1.51179e-38
0.052048251 0.036312144 0.77600002 1.4656922e-38
-0.035428051 0.035702113 0.824 1.5673235e-38
-0.032593817 0.035702113 0.824 1.4933496e-38
-0.02975958 0.035702113 0.824 1.4656909e-38
-0.026925318 0.035702113 0.824 1.2345545e-38
-0.024091084 0.035702113 0.824 1.0593828e-38
-0.021205254 0.035615459 0.82200003 1.2068983e-38
-0.01837787 0.035615459 0.82200003 7.551397e-39
-0.015342416 0.035138849 0.81099999 1.4451336e-38
-0.012521939 0.035052195 0.80900002 1.4082554e-38
-0.0096911173 0.034878884 0.80500001 1.1509355e-38
-0.0068878378 0.034705572 0.801 5.7010301e-39
-0.0041223941 0.034618918 0.79900002 7.9932755e-39
-0.001372429 0.034575589 0.79799998 1.1681092e-38
0.0013723767 0.034575589 0.79799998 9.8534137e-39
0.0041172346 0.034575589 0.79799998 4.5982628e-39
0.0068620401 0.034575589 0.79799998 8.2724212e-39
0.0096068457 0.034575589 0.79799998 7.073878e-39
0.012351652 0.034575589 0.79799998 6.252036e-39
0.015115376 0.034618918 0.79900002 6.9896011e-39
0.017796548 0.034488935 0.796 1.1137328e-38
0.020379692 0.034228966 0.79000002 1.5470523e-38
0.023038559 0.034142312 0.78799999 1.1597187e-38
0.025716294 0.034098983 0.787 1.3533295e-38
0.028351031 0.034012329 0.78500003 1.2797538e-38
0.03097201 0.033925671 0.78299999 1.3258516e-38
0.033579234 0.033839017 0.78100002 1.1421025e-38
0.036219127 0.033795685 0.77999997 1.4002503e-38
0.038802326 0.033709031 0.778 1.6219203e-38
0.04147834 0.033709031 0.778 1.0042096e-38
0.044040848 0.033622377 0.77600002 1.0505479e-38
0.046709981 0.033622377 0.77600002 1.1611826e-38
0.049379114 0.033622377 0.77600002 1.4475052e-38
0.052048251 0.033622377 0.77600002 1.429066e-38
-0.020921484 0.032327726 0.81099999 1.6223895e-38
-0.015342416 0.032327726 0.81099999 1.4080721e-38
-0.012521939 0.032248002 0.80900002 1.6385611e-38
-0.0096911173 0.032088555 0.80500001 1.55663e-38
-0.0069050356 0.032008834 0.80299997 1.0587736e-38
-0.0041327132 0.031929109 0.801 1.1408468e-38
-0.0013741488 0.031849388 0.79900002 1.5649467e-38
0.0013740966 0.031849388 0.79900002 1.3355053e-38
0.0041223941 0.031849388 0.79900002 6.532576e-39
0.0068620401 0.031809524 0.79799998 1.0211063e-38
0.0096068457 0.031809524 0.79799998 6.6154334e-39
0.012351652 0.031809524 0.79799998 5.8846884e-39
0.015115376 0.031849388 0.79900002 4.501754e-39
0.01786362 0.031849388 0.79900002 9.9369521e-39
0.020431288 0.031570356 0.792 1.1227691e-38
0.023097035 0.031490635 0.79000002 6.8019252e-39
0.025748968 0.03141091 0.78799999 1.1135116e-38
0.028423263 0.03137105 0.787 1.0954707e-38
0.031051124 0.031291328 0.78500003 1.2061054e-38
0.033665221 0.031211603 0.78299999 3.9503613e-39
0.036265567 0.03113188 0.78100002 5.1489002e-39
0.03890207 0.031092016 0.77999997 1.3640249e-38
0.04147834 0.031012295 0.778 1.1058771e-38
0.044040848 0.030932572 0.77600002 1.1891745e-38
0.046709981 0.030932572 0.77600002 1.5395179e-38
-0.015342416 0.029516602 0.81099999 1.0491547e-38
-0.012521939 0.029443812 0.80900002 1.4916937e-38
-0.0097151939 0.029371019 0.80699998 1.4825488e-38
-0.0069050356 0.029225441 0.80299997 1.1690837e-38
-0.0041327132 0.029152649 0.801 1.149923e-38
-0.0013741488 0.029079858 0.79900002 1.5463642e-38
0.0013740966 0.029079858 0.79900002 1.3355053e-38
0.0041223941 0.029079858 0.79900002 8.0077061e-39
0.0068620401 0.029043462 0.79799998 1.0768165e-38
0.0096068457 0.029043462 0.79799998 7.4491219e-39
0.012351652 0.029043462 0.79799998 7.9179991e-39
0.015115376 0.029079858 0.79900002 3.4004245e-39
0.01786362 0.029079858 0.79900002 9.8581277e-39
0.020482883 0.028897883 0.79400003 1.382254e-38
0.023097035 0.028752301 0.79000002 1.1880584e-38
0.025748968 0.028679509 0.78799999 8.2849544e-39
0.028423263 0.028643116 0.787 7.717769e-39
0.031051124 0.028570326 0.78500003 8.9163024e-39
0.033751212 0.028570326 0.78500003 2.3905928e-39
0.036358435 0.028497534 0.78299999 8.9364769e-39
0.039051697 0.028497534 0.78299999 1.5578178e-38
0.041744906 0.028497534 0.78299999 1.4748417e-38
-0.015342416 0.026705517 0.81099999 1.3159466e-38
-0.012521939 0.026639661 0.80900002 1.2975075e-38
-0.0096911173 0.026507944 0.80500001 1.0120655e-38
-0.0069050356 0.026442086 0.80299997 7.2625908e-39
-0.0041327132 0.026376227 0.801 7.1678322e-39
-0.0013775885 0.026376227 0.801 1.2791756e-38
0.0013740966 0.026310369 0.79900002 1.1236691e-38
0.0041223941 0.026310369 0.79900002 6.4425187e-39
0.0068620401 0.02627744 0.79799998 1.0397933e-38
0.0096068457 0.02627744 0.79799998 7.171086e-39
0.012351652 0.02627744 0.79799998 8.1020471e-39
0.015115376 0.026310369 0.79900002 8.1942427e-39
0.01786362 0.026310369 0.79900002 1.5853698e-38
0.020586068 0.02627744 0.79799998 1.5484916e-38
0.023330927 0.02627744 0.79799998 1.5487399e-38
0.026075732 0.02627744 0.79799998 1.5118616e-38
0.031130234 0.02591522 0.787 1.4934225e-38
0.033837203 0.02591522 0.787 1.5119342e-38
0.036544174 0.02591522 0.787 1.5027146e-38
0.039251193 0.02591522 0.787 1.4566887e-38
-0.015342416 0.023894433 0.81099999 1.1133311e-38
-0.012521939 0.023835508 0.80900002 1.6296266e-38
-0.0096911173 0.023717657 0.80500001 1.3995377e-38
-0.0069050356 0.023658732 0.80299997 1.1506095e-38
-0.0041327132 0.023599803 0.801 1.1403803e-38
-0.0013775885 0.023599803 0.801 1.5091629e-38
0.0013740966 0.023540879 0.79900002 1.1510774e-38
0.0041223941 0.023540879 0.79900002 5.6102539e-39
0.0068620401 0.023511415 0.79799998 1.002197e-38
0.0096068457 0.023511415 0.79799998 7.7170796e-39
0.012351652 0.023511415 0.79799998 6.8984774e-39
0.015115376 0.023540879 0.79900002 7.6360425e-39
0.01786362 0.023540879 0.79900002 1.5763988e-38
0.020663461 0.023599803 0.801 1.4842032e-38
0.023418637 0.023599803 0.801 1.4658361e-38
0.031684011 0.023599803 0.801 1.4567247e-38
-0.015342416 0.02108331 0.81099999 1.0579746e-38
-0.012521939 0.021031316 0.80900002 1.3253419e-38
-0.0096911173 0.02092733 0.80500001 9.5699899e-39
-0.0069050356 0.020875337 0.80299997 8.0948598e-39
-0.0041327132 0.020823343 0.801 7.717769e-39
-0.0013775885 0.020823343 0.801 1.2880714e-38
0.0013740966 0.020771351 0.79900002 1.1416423e-38
0.0041223941 0.020771351 0.79900002 7.4520113e-39
0.0068706395 0.020771351 0.79900002 1.1131195e-38
0.0096188849 0.020771351 0.79900002 9.4716734e-39
0.01236713 0.020771351 0.79900002 7.9179991e-39
0.015115376 0.020771351 0.79900002 8.1023904e-39
0.017908337 0.020823343 0.801 1.5486685e-38
0.020663461 0.020823343 0.801 1.4933512e-38
0.023418637 0.020823343 0.801 1.4658361e-38
0.026173761 0.020823343 0.801 1.4658361e-38
-0.015380253 0.018317247 0.81300002 1.2611704e-38
-0.012521939 0.018227125 0.80900002 1.7221486e-38
-0.0097151939 0.018182063 0.80699998 1.4365582e-38
-0.0069222338 0.018137002 0.80500001 1.1968496e-38
-0.0041430318 0.018091943 0.80299997 9.196464e-39
-0.0013775885 0.018046882 0.801 1.4543808e-38
0.0013775361 0.018046882 0.801 9.8570137e-39
0.0041223941 0.018001821 0.79900002 5.1550365e-39
0.0068706395 0.018001821 0.79900002 9.0117841e-39
0.0096188849 0.018001821 0.79900002 6.522502e-39
0.01236713 0.018001821 0.79900002 4.5996795e-39
0.015153212 0.018046882 0.801 5.8904184e-39
0.017908337 0.018046882 0.801 1.5947298e-38
0.020715054 0.018091943 0.80299997 1.4933146e-38
0.023477111 0.018091943 0.80299997 1.4566165e-38
-0.015380253 0.01549923 0.81300002 1.2152521e-38
-0.012521939 0.015422974 0.80900002 1.6670107e-38
-0.0097151939 0.015384845 0.80699998 1.3904248e-38
-0.0069222338 0.015346716 0.80500001 1.1691553e-38
-0.0041430318 0.015308589 0.80299997 9.9347703e-39
-0.0013810281 0.015308589 0.80299997 1.4728943e-38
0.0013775361 0.015270459 0.801 1.2896235e-38
0.0041327132 0.015270459 0.801 8.7474319e-39
0.0068706395 0.015232331 0.79900002 1.2056385e-38
0.0096188849 0.015232331 0.79900002 8.9217338e-39
0.01236713 0.015232331 0.79900002 7.3684351e-39
0.015153212 0.015270459 0.801 2.7586536e-39
0.017953051 0.015308589 0.80299997 1.557815e-38
0.020766649 0.015346716 0.80500001 1.5024976e-38
0.023535585 0.015346716 0.80500001 1.4382493e-38
-0.015418088 0.01271237 0.815 9.3779826e-39
-0.012552896 0.012649978 0.81099999 1.2973601e-38
-0.0097151939 0.012587585 0.80699998 8.5572897e-39
-0.0069394317 0.012587585 0.80699998 8.8338766e-39
-0.0041533508 0.01255639 0.80500001 7.355808e-39
-0.0013810281 0.012525194 0.80299997 1.3348514e-38
0.0013775361 0.012493998 0.801 1.2620727e-38
0.0041327132 0.012493998 0.801 8.471924e-39
0.0068878378 0.012493998 0.801 1.1410653e-38
0.0096429624 0.012493998 0.801 8.5525884e-39
0.012398086 0.012493998 0.801 6.6283561e-39
0.015191047 0.012525194 0.80299997 2.6639469e-39
0.017953051 0.012525194 0.80299997 1.5025339e-38
0.020766649 0.01255639 0.80500001 1.5025339e-38
0.023535585 0.01255639 0.80500001 1.4382496e-38
0.02610841 0.012462802 0.79900002 1.4566887e-38
0.028856656 0.012462802 0.79900002 1.4290295e-38
-0.015418088 0.0098874215 0.815 1.1410601e-38
-0.012583853 0.0098631578 0.81300002 1.3715492e-38
-0.0097392714 0.0098146303 0.80900002 1.2428036e-38
-0.0069394317 0.0097903665 0.80699998 1.1137297e-38
-0.0041636694 0.0097903665 0.80699998 9.5577075e-39
-0.0013844678 0.0097661028 0.80500001 1.5273835e-38
0.0013809756 0.00974184 0.80299997 1.1229518e-38
0.0041327132 0.0097175753 0.801 6.5275411e-39
0.0068878378 0.0097175753 0.801 7.7181305e-39
0.0096429624 0.0097175753 0.801 6.8883797e-39
0.012398086 0.0097175753 0.801 6.0701503e-39
0.015153212 0.0097175753 0.801 3.4897489e-39
0.017997766 0.0097661028 0.80500001 1.4195218e-38
0.020766649 0.0097661028 0.80500001 1.5117174e-38
0.023535585 0.0097661028 0.80500001 1.42903e-38
0.02610841 0.0096933125 0.79900002 1.42903e-38
0.028856656 0.0096933125 0.79900002 1.4198465e-38
-0.015418088 0.0070624324 0.815 8.1941839e-39
-0.012583853 0.0070451014 0.81300002 9.8537052e-39
-0.0097392714 0.0070104389 0.80900002 1.0029096e-38
-0.0069394317 0.0069931075 0.80699998 9.5681178e-39
-0.0041636694 0.0069931075 0.80699998 9.3729645e-39
-0.0013879074 0.0069931075 0.80699998 1.5734463e-38
0.0013844152 0.0069757765 0.80500001 1.3811712e-38
0.0041327132 0.0069411141 0.801 1.0953647e-38
0.0068878378 0.0069411141 0.801 1.0301772e-38
0.0096429624 0.0069411141 0.801 9.3798155e-39
0.012398086 0.0069411141 0.801 5.8839822e-39
0.015153212 0.0069411141 0.801 2.7550705e-39
0.017997766 0.0069757765 0.80500001 1.3825006e-38
0.020766649 0.0069757765 0.80500001 1.5023549e-38
-0.015474843 0.0042530415 0.81800002 1.0693229e-38
-0.012614809 0.0042374432 0.815 1.0693229e-38
-0.0097633488 0.0042166458 0.81099999 4.7880014e-39
-0.0069566299 0.0042062472 0.80900002 7.3694749e-39
-0.0041739885 0.0042062472 0.80900002 8.5626651e-39
-0.0013879074 0.0041958485 0.80699998 9.3924258e-39
0.0013878547 0.0041958485 0.80699998 4.7815443e-39
0.0041430318 0.0041750516 0.80299997 4.4127673e-39
0.0068878378 0.0041646529 0.801 3.7677665e-39
0.0096429624 0.0041646529 0.801 6.8102195e-39
0.012398086 0.0041646529 0.801 1.1251502e-38
0.015191047 0.0041750516 0.80299997 1.2911023e-38
0.017997766 0.0041854503 0.80500001 1.4750559e-38
-0.015512677 0.0014211602 0.81999999 9.4957589e-39
-0.012661245 0.0014176939 0.81800002 1.1524063e-38
-0.0097874263 0.0014090283 0.81300002 7.4696313e-39
-0.0069738282 0.0014055619 0.81099999 7.6540225e-39
-0.0041739885 0.0014020958 0.80900002 1.318035e-38
-0.0013879074 0.0013986295 0.80699998 1.2534981e-38
0.0013878547 0.0013986295 0.80699998 7.8362067e-39
0.0041533508 0.0013951632 0.80500001 6.5454679e-39
0.0069050356 0.0013916971 0.80299997 5.809705e-39
0.0096670389 0.0013916971 0.80299997 9.4053345e-39
0.012429043 0.0013916971 0.80299997 1.5120449e-38
0.015191047 0.0013916971 0.80299997 1.4290688e-38
0.017997766 0.0013951632 0.80500001 1.401479e-38
-0.015550514 -0.0014246264 0.82200003 9.5886608e-39
-0.0126922 -0.0014211602 0.81999999 1.0971595e-38
-0.0098476196 -0.0014176939 0.81800002 1.1152424e-38
-0.0069738282 -0.0014055619 0.81099999 6.3582517e-39
-0.0041739885 -0.0014020958 0.80900002 1.30867e-38
-0.0013879074 -0.0013986295 0.80699998 1.3547678e-38
0.0013878547 -0.0013986295 0.80699998 1.1246027e-38
0.0041636694 -0.0013986295 0.80699998 1.0047484e-38
0.0069222338 -0.0013951632 0.80500001 7.4667026e-39
0.0096911173 -0.0013951632 0.80500001 1.1246723e-38
0.01246 -0.0013951632 0.80500001 1.4659443e-38
0.015228883 -0.0013951632 0.80500001 1.4198465e-38
-0.01558835 -0.0042842375 0.824 8.8510593e-39
-0.0126922 -0.0042634401 0.81999999 1.1893515e-38
-0.0098476196 -0.0042530415 0.81800002 1.3549135e-38
-0.0070082243 -0.0042374432 0.815 2.393464e-39
-0.0041843075 -0.0042166458 0.81099999 1.1614809e-38
-0.0013879074 -0.0041958485 0.80699998 1.3550918e-38
0.0013878547 -0.0041958485 0.80699998 1.1153831e-38
0.0041533508 -0.0041854503 0.80500001 1.0324071e-38
0.0069222338 -0.0041854503 0.80500001 7.0050083e-39
0.0096911173 -0.0041854503 0.80500001 1.1891377e-38
0.01246 -0.0041854503 0.80500001 1.4658376e-38
-0.01558835 -0.0071404227 0.824 9.1258483e-39
-0.0126922 -0.0071057603 0.81999999 1.3182456e-38
-0.0098476196 -0.0070884293 0.81800002 1.428813e-38
-0.0070254221 -0.0070797629 0.81699997 2.0261206e-39
-0.0041946266 -0.0070451014 0.81300002 1.1428633e-38
-0.0013879074 -0.0069931075 0.80699998 1.3549132e-38
0.0013878547 -0.0069931075 0.80699998 1.1614454e-38
0.0041533508 -0.0069757765 0.80500001 1.0231519e-38
0.0069222338 -0.0069757765 0.80500001 6.8220296e-39
0.0096911173 -0.0069757765 0.80500001 1.2814746e-38
0.01246 -0.0069757765 0.80500001 1.4566181e-38
-0.015550514 -0.0099723041 0.82200003 9.2191412e-39
-0.0126922 -0.0099480404 0.81999999 1.3183553e-38
-0.0098476196 -0.0099237766 0.81800002 1.3918631e-38
-0.0070254221 -0.0099116443 0.81699997 1.1956551e-39
-0.0041946266 -0.0098631177 0.81300002 1.2075097e-38
-0.0013879074 -0.0097903265 0.80699998 1.2720466e-38
0.0013878547 -0.0097903265 0.80699998 1.1982154e-38
0.0041533508 -0.0097660637 0.80500001 1.0783611e-38
0.0069222338 -0.0097660637 0.80500001 6.7291151e-39
0.0097151939 -0.0097903265 0.80699998 1.2998418e-38
0.012490956 -0.0097903265 0.80699998 1.4474691e-38
-0.015512677 -0.01279036 0.81999999 1.032515e-38
-0.0126922 -0.01279036 0.81999999 1.2537845e-38
-0.0098476196 -0.012759165 0.81800002 1.3733877e-38
-0.0070254221 -0.012743565 0.81699997 1.9328502e-39
-0.0041946266 -0.012681174 0.81300002 1.308852e-38
-0.0013879074 -0.012587585 0.80699998 1.2811933e-38
0.0013878547 -0.012587585 0.80699998 1.3180347e-38
0.0041533508 -0.01255639 0.80500001 1.0783261e-38
0.0069222338 -0.01255639 0.80500001 7.1912003e-39
0.0097151939 -0.012587585 0.80699998 1.2907329e-38
0.012490956 -0.012587585 0.80699998 1.4289944e-38
-0.015474843 -0.015594512 0.81800002 1.1339674e-38
-0.012661245 -0.015594512 0.81800002 1.2261631e-38
-0.0098476196 -0.015594512 0.81800002 1.4102291e-38
-0.0070254221 -0.015575446 0.81699997 4.0529671e-39
-0.0041946266 -0.01549919 0.81300002 1.4748417e-38
-0.0013879074 -0.015384804 0.80699998 1.4010852e-38
0.0013878547 -0.015384804 0.80699998 1.2535317e-38
0.0041636694 -0.015384804 0.80699998 1.0691404e-38
0.0069394317 -0.015384804 0.80699998 8.3883253e-39
0.0096911173 -0.015346677 0.80500001 1.3459085e-38
0.01246 -0.015346677 0.80500001 1.4105553e-38
-0.015474843 -0.0184299 0.81800002 1.2443867e-38
-0.012661245 -0.0184299 0.81800002 1.2812649e-38
-0.0098355804 -0.018407367 0.81699997 1.3088855e-38
-0.0070082243 -0.018362308 0.815 3.9614876e-39
-0.0041843075 -0.018272186 0.81099999 1.5391979e-38
-0.0013879074 -0.018182063 0.80699998 1.2349523e-38
0.0013878547 -0.018182063 0.80699998 9.586479e-39
0.0041636694 -0.018182063 0.80699998 1.0508435e-38
0.0069222338 -0.018137002 0.80500001 9.4935799e-39
0.0096429624 -0.018046882 0.801 1.3826774e-38
0.012398086 -0.018046882 0.801 1.4014064e-38
-0.015474843 -0.021265248 0.81800002 1.2997038e-38
-0.012661245 -0.021265248 0.81800002 1.253606e-38
-0.0098355804 -0.021239249 0.81699997 1.2903753e-38
-0.0070082243 -0.021187257 0.815 2.7622395e-39
-0.0041843075 -0.021083269 0.81099999 1.4471076e-38
-0.0013879074 -0.020979283 0.80699998 1.1520816e-38
0.0013878547 -0.020979283 0.80699998 1.2442053e-38
0.0041636694 -0.020979283 0.80699998 1.1427901e-38
0.0069222338 -0.02092729 0.80500001 9.4903541e-39
0.0096429624 -0.020823304 0.801 1.4284527e-38
0.012398086 -0.020823304 0.801 1.382967e-38
-0.015474843 -0.024100635 0.81800002 1.3549123e-38
-0.012661245 -0.024100635 0.81800002 1.2534971e-38
-0.0098355804 -0.02407117 0.81699997 1.1519723e-38
-0.0070254221 -0.02407117 0.81699997 2.207998e-39
-0.0041843075 -0.023894394 0.81099999 1.3549453e-38
-0.0013913471 -0.023835469 0.80900002 1.5208975e-38
0.0013878547 -0.023776541 0.80699998 1.4652567e-38
0.0041636694 -0.023776541 0.80699998 9.3974158e-39
0.0069394317 -0.023776541 0.80699998 7.748023e-39
0.0097151939 -0.023776541 0.80699998 1.3371956e-38
-0.018333154 -0.02700188 0.81999999 1.4105543e-38
-0.015512677 -0.02700188 0.81999999 1.3549486e-38
-0.012661245 -0.026936024 0.81800002 1.2350942e-38
-0.0098355804 -0.026903091 0.81699997 8.6641443e-39
-0.0070254221 -0.026903091 0.81699997 5.1607244e-39
-0.0041946266 -0.026771378 0.81300002 1.0416227e-38
-0.0013913471 -0.026639661 0.80900002 1.5579182e-38
0.0013878547 -0.0265738 0.80699998 9.0332576e-39
0.0041636694 -0.0265738 0.80699998 5.7142485e-39
0.0069394317 -0.0265738 0.80699998 1.3549874e-38
0.0097151939 -0.0265738 0.80699998 1.4379634e-38
-0.015512677 -0.029844161 0.81999999 1.3733877e-38
-0.012661245 -0.029771371 0.81800002 1.1613377e-38
-0.0098355804 -0.029734973 0.81699997 8.4790468e-39
-0.0070254221 -0.029734973 0.81699997 6.8195255e-39
-0.0041946266 -0.029589394 0.81300002 8.6638164e-39
-0.0013913471 -0.029443812 0.80900002 1.5209706e-38
0.0013878547 -0.029371019 0.80699998 8.2028411e-39
0.0041636694 -0.029371019 0.80699998 5.2525809e-39
0.0069394317 -0.029371019 0.80699998 1.4012997e-38
0.0097392714 -0.029443812 0.80900002 1.3552019e-38
-0.018333154 -0.032686479 0.81999999 1.3735672e-38
-0.015512677 -0.032686479 0.81999999 1.3641318e-38
-0.012661245 -0.032606758 0.81800002 1.1428623e-38
-0.0098355804 -0.032566894 0.81699997 7.2808568e-39
-0.0070254221 -0.032566894 0.81699997 4.7915888e-39
-0.0042152638 -0.032566894 0.81699997 8.7592911e-39
-0.0013913471 -0.032248002 0.80900002 1.4567616e-38
0.0013878547 -0.032168277 0.80699998 9.3106446e-39
0.0041636694 -0.032168277 0.80699998 7.5589276e-39
0.0069394317 -0.032168277 0.80699998 1.3274338e-38
0.0097151939 -0.032168277 0.80699998 1.4011903e-38
-0.021205254 -0.035615418 0.82200003 1.4013698e-38
-0.015512677 -0.03552876 0.81999999 1.2903385e-38
-0.012661245 -0.035442106 0.81800002 1.0875081e-38
-0.0098355804 -0.035398774 0.81699997 7.0064153e-39
-0.0070254221 -0.035398774 0.81699997 5.0703238e-39
-0.0042152638 -0.035398774 0.81699997 1.3178943e-38
-0.0013913471 -0.035052154 0.80900002 1.5483834e-38
0.0013878547 -0.034965497 0.80699998 1.1245297e-38
0.0041636694 -0.034965497 0.80699998 9.4013843e-39
0.0069394317 -0.034965497 0.80699998 1.2352723e-38
0.0097151939 -0.034965497 0.80699998 1.4196636e-38
-0.01837787 -0.038464673 0.82200003 1.3551634e-38
-0.015512677 -0.038371082 0.81999999 1.2350926e-38
-0.012661245 -0.038277496 0.81800002 9.9538392e-39
-0.0098476196 -0.038277496 0.81800002 6.5411267e-39
-0.0070254221 -0.038230695 0.81699997 8.7538092e-39
-0.0042049452 -0.038137108 0.815 1.4748783e-38
-0.0013879074 -0.037762757 0.80699998 1.2628283e-38
0.0013878547 -0.037762757 0.80699998 1.0600288e-38
0.0041636694 -0.037762757 0.80699998 7.6500274e-39
0.0069394317 -0.037762757 0.80699998 1.0692483e-38
0.0097151939 -0.037762757 0.80699998 1.4288113e-38
-0.021153659 -0.04121336 0.81999999 1.4194456e-38
-0.018333154 -0.04121336 0.81999999 1.410226e-38
-0.015512677 -0.04121336 0.81999999 1.308596e-38
-0.012661245 -0.041112844 0.81800002 1.01357e-38
-0.0098476196 -0.041112844 0.81800002 4.792665e-39
-0.0070254221 -0.041062579 0.81699997 1.1707326e-38
-0.0041739885 -0.040660497 0.80900002 1.5304099e-38
-0.0013879074 -0.040559974 0.80699998 1.3367991e-38
0.0013878547 -0.040559974 0.80699998 9.956716e-39
0.0041636694 -0.040559974 0.80699998 7.5596297e-39
0.0069394317 -0.040559974 0.80699998 9.8648918e-39
0.0097151939 -0.040559974 0.80699998 1.3829304e-38
0.012490956 -0.040559974 0.80699998 1.3459818e-38
-0.023886424 -0.0438945 0.81699997 1.6957457e-38
-0.021076266 -0.0438945 0.81699997 1.548085e-38
-0.018266082 -0.0438945 0.81699997 1.2438395e-38
-0.015474843 -0.043948229 0.81800002 7.8354332e-39
-0.012661245 -0.043948229 0.81800002 5.8071602e-39
-0.0098476196 -0.043948229 0.81800002 7.1930023e-39
-0.0070254221 -0.0438945 0.81699997 1.3554501e-38
-0.0041533508 -0.043249782 0.80500001 1.5393018e-38
-0.0013810281 -0.04314233 0.80299997 1.1797389e-38
0.0013809756 -0.04314233 0.80299997 9.0343436e-39
0.0041533508 -0.043249782 0.80500001 7.1904324e-39
0.0069394317 -0.043357234 0.80699998 1.0050012e-38
0.0097151939 -0.043357234 0.80699998 1.3184663e-38
0.012490956 -0.043357234 0.80699998 1.3275783e-38
-0.023886424 -0.04672638 0.81699997 1.6217006e-38
-0.021076266 -0.04672638 0.81699997 1.437449e-38
-0.018266082 -0.04672638 0.81699997 1.4651077e-38
-0.015455923 -0.04672638 0.81699997 1.2902282e-38
-0.012645765 -0.04672638 0.81699997 1.8618411e-38
-0.0098355804 -0.04672638 0.81699997 2.0644935e-38
-0.0068878378 -0.045811299 0.801 1.7049306e-38
-0.0041327132 -0.045811299 0.801 1.5945817e-38
-0.0013775885 -0.045811299 0.801 1.3733122e-38
0.0013775361 -0.045811299 0.801 1.0689164e-38
0.0041430318 -0.045925684 0.80299997 1.2533076e-38
0.0069222338 -0.046040069 0.80500001 1.4840219e-38
0.0097151939 -0.046154454 0.80699998 1.502461e-38
0.012521913 -0.046268839 0.80900002 1.4936045e-38
-0.023886424 -0.049558301 0.81699997 1.3269622e-38
-0.021076266 -0.049558301 0.81699997 1.0687404e-38
-0.018221367 -0.049436986 0.815 8.4747084e-39
-0.015380253 -0.049315669 0.81300002 1.5297963e-38
-0.012460027 -0.048830397 0.80500001 1.9538962e-38
-0.0096429624 -0.048587758 0.801 1.7416959e-38
-0.0068878378 -0.048587758 0.801 1.6402807e-38
-0.0041327132 -0.048587758 0.801 1.5944352e-38
-0.0013775885 -0.048587758 0.801 1.6681917e-38
0.0013775361 -0.048587758 0.801 1.649682e-38
0.0041430318 -0.04870908 0.80299997 1.437632e-38
0.0069050356 -0.04870908 0.80299997 1.4191932e-38
0.0096670389 -0.04870908 0.80299997 1.4468519e-38
0.01246 -0.048830397 0.80500001 1.6685592e-38
0.015266717 -0.048951712 0.80699998 1.65012e-38
-0.023886424 -0.052390222 0.81699997 1.2442376e-38
-0.021076266 -0.052390222 0.81699997 1.1798845e-38
-0.018221367 -0.052261975 0.815 1.1706649e-38
-0.015304581 -0.051877223 0.80900002 1.410444e-38
-0.012460027 -0.051620722 0.80500001 1.5856157e-38
-0.0096429624 -0.051364221 0.801 1.4743664e-38
-0.0068878378 -0.051364221 0.801 1.2991947e-38
-0.0041327132 -0.051364221 0.801 1.1519665e-38
-0.0013775885 -0.051364221 0.801 1.2072839e-38
0.0013775361 -0.051364221 0.801 1.1429991e-38
0.0041327132 -0.051364221 0.801 1.1614382e-38
0.0068878378 -0.051364221 0.801 1.1704076e-38
0.0096670389 -0.051492475 0.80299997 1.2441641e-38
0.01246 -0.051620722 0.80500001 1.548666e-38
0.015266717 -0.051748972 0.80699998 1.5117878e-38
