# .PCD v0.7 - Point Cloud Data file format
VERSION 0.7
FIELDS x y z rgb
SIZE 4 4 4 4
TYPE F F F F
COUNT 1 1 1 1
WIDTH 989
HEIGHT 1
VIEWPOINT 0 0 0 1 0 0 0
POINTS 989
DATA ascii
0.028975314 0.051660586 0.43200001 1.1511391e-38
0.030390712 0.051540997 0.43099999 9.0199732e-39
0.031873208 0.051540997 0.43099999 8.4668023e-39
0.033355679 0.051540997 0.43099999 1.0404317e-38
0.019966956 0.04993093 0.43000001 1.0224302e-38
0.024517585 0.050163168 0.43200001 1.2339707e-38
0.026003495 0.050163168 0.43200001 1.2431902e-38
0.02742577 0.050047047 0.43099999 1.1052586e-38
0.028841168 0.04993093 0.43000001 1.1144782e-38
0.030320199 0.04993093 0.43000001 1.104863e-38
0.031799257 0.04993093 0.43000001 9.2969133e-39
0.033278286 0.04993093 0.43000001 9.0228529e-39
0.03475732 0.04993093 0.43000001 1.0037005e-38
0.024404077 0.048440445 0.43000001 1.0311046e-38
0.025883107 0.048440445 0.43000001 1.040324e-38
0.027234873 0.04821514 0.428 1.1050062e-38
0.028707024 0.04821514 0.428 1.0865671e-38
0.030249687 0.048327789 0.42899999 1.1235889e-38
0.031799257 0.048440445 0.43000001 1.0590519e-38
0.033278286 0.048440445 0.43000001 8.9288622e-39
0.03475732 0.048440445 0.43000001 9.9430141e-39
0.036320619 0.048553094 0.43099999 1.0867444e-38
0.037978511 0.0487784 0.433 1.3817704e-38
0.025822913 0.046840794 0.42899999 1.0589072e-38
0.027234873 0.04673161 0.428 1.0223179e-38
0.028707024 0.04673161 0.428 1.0223179e-38
0.030179175 0.04673161 0.428 1.0682712e-38
0.031725306 0.046840794 0.42899999 1.1420277e-38
0.033200897 0.046840794 0.42899999 8.6504999e-39
0.03475732 0.046949983 0.43000001 8.1895217e-39
0.036236349 0.046949983 0.43000001 1.0314678e-38
0.037803091 0.047059167 0.43099999 1.068346e-38
0.039285559 0.047059167 0.43099999 1.3268183e-38
0.015421515 0.045142356 0.42699999 1.5296009e-38
0.016890228 0.045142356 0.42699999 6.4453452e-39
0.018444931 0.045353796 0.42899999 5.1524736e-39
0.019966956 0.045459516 0.43000001 7.3651589e-39
0.021446016 0.045459516 0.43000001 7.5491872e-39
0.022925045 0.045459516 0.43000001 9.9462736e-39
0.024347322 0.045353796 0.42899999 7.641359e-39
0.025822913 0.045353796 0.42899999 9.3008663e-39
0.027298504 0.045353796 0.42899999 9.8536926e-39
0.028707024 0.045248076 0.428 9.0239319e-39
0.030179175 0.045248076 0.428 1.0036286e-38
0.031355549 0.044825196 0.42399999 1.141922e-38
0.03281394 0.044825196 0.42399999 9.2991119e-39
0.034353167 0.04493092 0.42500001 7.8239818e-39
0.035899267 0.045036636 0.426 6.9963665e-39
0.037452247 0.045142356 0.42699999 1.0315409e-38
0.039285559 0.045565236 0.43099999 1.0960002e-38
0.013952804 0.043662269 0.42699999 1.5762909e-38
0.015421515 0.043662269 0.42699999 9.1110857e-39
0.016890228 0.043662269 0.42699999 7.5437838e-39
0.018401936 0.043764524 0.428 4.7815443e-39
0.019920522 0.043866776 0.42899999 8.4693624e-39
0.021446016 0.043969031 0.43000001 7.916525e-39
0.022925045 0.043969031 0.43000001 9.9448288e-39
0.031355549 0.04335551 0.42399999 1.1142271e-38
0.03281394 0.04335551 0.42399999 1.0682406e-38
0.034353167 0.043457765 0.42500001 8.1931245e-39
0.035815001 0.043457765 0.42500001 7.733912e-39
0.037364539 0.043560017 0.426 9.5778218e-39
0.038920961 0.043662269 0.42699999 1.0868175e-38
0.040389672 0.043662269 0.42699999 1.2435501e-38
0.041858412 0.043662269 0.42699999 1.6773844e-38
0.013952804 0.042182181 0.42699999 1.0226053e-38
0.015421515 0.042182181 0.42699999 8.3807065e-39
0.016890228 0.042182181 0.42699999 5.4304912e-39
0.01835894 0.042182181 0.42699999 4.5071238e-39
0.019920522 0.042379759 0.42899999 9.670079e-39
0.021396141 0.042379759 0.42899999 7.7325163e-39
0.031355549 0.041885823 0.42399999 1.0681305e-38
0.03281394 0.041885823 0.42399999 1.21561e-38
0.034353167 0.04198461 0.42500001 8.7448619e-39
0.035815001 0.04198461 0.42500001 7.1811053e-39
0.037364539 0.042083398 0.426 7.6420765e-39
0.038829811 0.042083398 0.426 1.0405772e-38
0.040389672 0.042182181 0.42699999 1.1788706e-38
0.041858412 0.042182181 0.42699999 1.2710653e-38
0.016890228 0.040702116 0.42699999 5.7928109e-39
0.01835894 0.040702116 0.42699999 6.076927e-39
0.019874087 0.040797442 0.428 1.206964e-38
0.021346267 0.040797442 0.428 7.8214483e-39
0.031355549 0.040416155 0.42399999 7.1800291e-39
0.03281394 0.040416155 0.42399999 8.6526481e-39
0.034353167 0.040511478 0.42500001 8.5604524e-39
0.035815001 0.040511478 0.42500001 7.365135e-39
0.037364539 0.040606797 0.426 7.0885524e-39
0.038829811 0.040606797 0.426 8.5636768e-39
0.040389672 0.040702116 0.42699999 1.0407589e-38
0.041858412 0.040702116 0.42699999 1.2341151e-38
0.016929785 0.039313909 0.428 9.4777172e-39
0.018401936 0.039313909 0.428 1.0312513e-38
0.019874087 0.039313909 0.428 1.289399e-38
0.021296391 0.039222054 0.42699999 8.6533543e-39
0.022765102 0.039222054 0.42699999 9.8518975e-39
0.024233814 0.039222054 0.42699999 8.5611489e-39
0.031355549 0.038946487 0.42399999 7.0867797e-39
0.03281394 0.038946487 0.42399999 8.1026889e-39
0.034353167 0.039038345 0.42500001 8.0104946e-39
0.035815001 0.039038345 0.42500001 8.4722253e-39
0.037364539 0.0391302 0.426 7.1814865e-39
0.038920961 0.039222054 0.42699999 8.838449e-39
0.040484264 0.039313909 0.428 7.5477298e-39
0.041956443 0.039313909 0.428 8.1034063e-39
0.018401936 0.037830357 0.428 6.8995004e-39
0.019874087 0.037830357 0.428 7.6370542e-39
0.021296391 0.037741967 0.42699999 8.1952755e-39
0.022765102 0.037741967 0.42699999 9.2094274e-39
0.024233814 0.037741967 0.42699999 9.0221523e-39
0.028505808 0.03756519 0.42500001 6.3492147e-39
0.02996764 0.03756519 0.42500001 8.6573046e-39
0.031429499 0.03756519 0.42500001 1.1884152e-38
0.032891333 0.03756519 0.42500001 1.1146577e-38
0.034433994 0.03765358 0.426 1.234512e-38
0.035983536 0.037741967 0.42699999 6.1785519e-39
0.037452247 0.037741967 0.42699999 7.8380733e-39
0.038920961 0.037741967 0.42699999 1.0043814e-38
0.040484264 0.037830357 0.428 2.8526401e-39
0.042054471 0.037918743 0.42899999 1.2258429e-38
0.018401936 0.036346804 0.428 6.1659024e-39
0.019874087 0.036346804 0.428 5.6127286e-39
0.021396141 0.036431726 0.42899999 6.7162063e-39
0.022871731 0.036431726 0.42899999 5.8864457e-39
0.024290569 0.036346804 0.428 5.056692e-39
0.02576272 0.036346804 0.428 7.3615757e-39
0.027107606 0.036176957 0.426 1.0136092e-38
0.028505808 0.036092039 0.42500001 1.0873657e-38
0.02996764 0.036092039 0.42500001 1.1887414e-38
0.031429499 0.036092039 0.42500001 1.2532783e-38
0.032968722 0.036176957 0.426 1.3087026e-38
0.034433994 0.036176957 0.426 1.2718244e-38
0.035983536 0.036261879 0.42699999 1.1060554e-38
0.037452247 0.036261879 0.42699999 1.1337141e-38
0.039012112 0.036346804 0.428 1.124419e-38
0.040578853 0.036431726 0.42899999 1.6591536e-38
0.042054471 0.036431726 0.42899999 1.9176338e-38
0.018487925 0.035026185 0.43000001 6.9009437e-39
0.019920522 0.034944728 0.42899999 6.1633815e-39
0.021396141 0.034944728 0.42899999 5.6120126e-39
0.022871731 0.034944728 0.42899999 7.5481208e-39
0.024290569 0.034863275 0.428 8.1041897e-39
0.02576272 0.034863275 0.428 1.0593472e-38
0.027107606 0.03470036 0.426 1.2255133e-38
0.028572878 0.03470036 0.426 1.2347328e-38
0.03003815 0.03470036 0.426 1.290118e-38
0.03150345 0.03470036 0.426 1.2993376e-38
0.032968722 0.03470036 0.426 1.4006822e-38
0.034433994 0.03470036 0.426 1.382243e-38
0.035983536 0.034781814 0.42699999 1.3363963e-38
0.037452247 0.034781814 0.42699999 1.3087377e-38
0.039103262 0.034944728 0.42899999 1.1338223e-38
0.040578853 0.034944728 0.42899999 2.0096807e-38
0.042054471 0.034944728 0.42899999 1.8991205e-38
0.01853092 0.033613689 0.43099999 5.885036e-39
0.019966956 0.0335357 0.43000001 6.3460141e-39
0.021446016 0.0335357 0.43000001 7.9204808e-39
0.022925045 0.0335357 0.43000001 9.3956109e-39
0.024290569 0.033379719 0.428 1.0039597e-38
0.025702527 0.03330173 0.42699999 1.0684967e-38
0.027107606 0.033223741 0.426 1.2715733e-38
0.028572878 0.033223741 0.426 1.3268906e-38
0.03003815 0.033223741 0.426 1.3638042e-38
0.03150345 0.033223741 0.426 1.3545846e-38
0.032968722 0.033223741 0.426 1.3638039e-38
0.034514826 0.03330173 0.42699999 1.3361452e-38
0.035983536 0.03330173 0.42699999 1.3361805e-38
0.037539959 0.033379719 0.428 1.326961e-38
0.039103262 0.033457708 0.42899999 1.5023181e-38
0.040578853 0.033457708 0.42899999 2.0186136e-38
0.042054471 0.033457708 0.42899999 1.880717e-38
0.01853092 0.032119758 0.43099999 1.5104249e-38
0.019966956 0.032045238 0.43000001 1.2891554e-38
0.021446016 0.032045238 0.43000001 1.1873009e-38
0.022871731 0.031970713 0.42899999 1.2149595e-38
0.024233814 0.031821664 0.42699999 1.243414e-38
0.025702527 0.031821664 0.42699999 1.0774619e-38
0.027107606 0.03174714 0.426 1.1883108e-38
0.028572878 0.03174714 0.426 1.3911412e-38
0.030108662 0.031821664 0.42699999 1.373025e-38
0.031577401 0.031821664 0.42699999 1.3453663e-38
0.033046111 0.031821664 0.42699999 1.3363603e-38
0.034514826 0.031821664 0.42699999 1.3179212e-38
0.03606781 0.031896189 0.428 1.2717868e-38
0.037539959 0.031896189 0.428 1.225689e-38
0.039103262 0.031970713 0.42899999 1.4104075e-38
0.040578853 0.031970713 0.42899999 1.7423117e-38
0.042054471 0.031970713 0.42899999 1.8716416e-38
0.018616911 0.030767925 0.433 1.7498446e-38
0.019966956 0.030554753 0.43000001 1.3995012e-38
0.021446016 0.030554753 0.43000001 1.4442995e-38
0.022871731 0.030483693 0.42899999 1.43508e-38
0.024120308 0.030199464 0.42500001 1.2427624e-38
0.025582142 0.030199464 0.42500001 1.2427624e-38
0.027107606 0.030270521 0.426 9.1086236e-39
0.028572878 0.030270521 0.426 1.1136927e-38
0.030108662 0.030341577 0.42699999 1.1150231e-38
0.031577401 0.030341577 0.42699999 1.1887796e-38
0.033046111 0.030341577 0.42699999 1.2899395e-38
0.034514826 0.030341577 0.42699999 1.2622808e-38
0.03606781 0.030412637 0.428 1.1980666e-38
0.037627671 0.030483693 0.42899999 1.1427492e-38
0.039194413 0.030554753 0.43000001 1.8159287e-38
0.040673442 0.030554753 0.43000001 1.935783e-38
0.022658477 0.028726311 0.42500001 1.5738828e-38
0.024120308 0.028726311 0.42500001 6.0704698e-39
0.025582142 0.028726311 0.42500001 9.9426764e-39
0.027107606 0.028793901 0.426 5.058162e-39
0.028572878 0.028793901 0.426 3.4908363e-39
0.030108662 0.028861491 0.42699999 7.1768286e-39
0.031577401 0.028861491 0.42699999 8.7441543e-39
0.033046111 0.028861491 0.42699999 9.7672703e-39
0.034595657 0.028929085 0.428 1.0504835e-38
0.03606781 0.028929085 0.428 1.0963643e-38
0.037627671 0.028996674 0.42899999 1.3729512e-38
0.039194413 0.029064268 0.43000001 1.7599992e-38
0.040768031 0.029131858 0.43099999 2.101123e-38
0.022658477 0.027253177 0.42500001 1.8596524e-38
0.024120308 0.027253177 0.42500001 6.5224726e-39
0.025582142 0.027253177 0.42500001 1.2883963e-38
0.027107606 0.027317302 0.426 9.944152e-39
0.028572878 0.027317302 0.426 7.45487e-39
0.030108662 0.027381426 0.42699999 1.1502833e-38
0.031577401 0.027381426 0.42699999 1.2424789e-38
0.033046111 0.027381426 0.42699999 1.0956813e-38
0.034595657 0.027445553 0.428 9.205096e-39
0.03606781 0.027445553 0.428 6.7176231e-39
0.037627671 0.027509676 0.42899999 1.2802523e-38
0.039194413 0.027573803 0.43000001 1.2705296e-38
0.02863995 0.02590136 0.42699999 6.900983e-39
0.030108662 0.02590136 0.42699999 1.0945341e-38
0.031577401 0.02590136 0.42699999 1.1129732e-38
0.033046111 0.02590136 0.42699999 1.0307817e-38
0.034595657 0.025962021 0.428 1.2981479e-38
0.03606781 0.025962021 0.428 7.4544608e-39
0.037627671 0.02602268 0.42899999 9.390569e-39
0.039285559 0.026143998 0.43099999 1.0031254e-38
0.028707024 0.024478469 0.428 6.7133295e-39
0.030108662 0.024421275 0.42699999 1.2514842e-38
0.031577401 0.024421275 0.42699999 1.2053864e-38
0.033046111 0.024421275 0.42699999 8.3659985e-39
0.034595657 0.024478469 0.428 1.3897725e-38
0.03606781 0.024478469 0.428 1.3076638e-38
0.037627671 0.02453566 0.42899999 1.0863943e-38
0.039285559 0.024650047 0.43099999 1.0216766e-38
0.028707024 0.022994917 0.428 8.2821125e-39
0.030108662 0.022941189 0.42699999 1.2428042e-38
0.031577401 0.022941189 0.42699999 1.1229499e-38
0.033046111 0.022941189 0.42699999 9.9394394e-39
0.034595657 0.022994917 0.428 1.5286786e-38
0.03606781 0.022994917 0.428 1.3819243e-38
0.037627671 0.023048641 0.42899999 1.2805091e-38
0.039285559 0.023156095 0.43099999 1.6118751e-38
0.028707024 0.021511385 0.428 5.0538586e-39
0.03003815 0.021410864 0.426 7.4512827e-39
0.03150345 0.021410864 0.426 5.883957e-39
0.033046111 0.021461124 0.42699999 6.1587488e-39
0.034595657 0.021511385 0.428 1.0860726e-38
0.03606781 0.021511385 0.428 9.4849689e-39
0.037627671 0.021561645 0.42899999 9.208382e-39
0.039285559 0.021662164 0.43099999 1.4088642e-38
0.03003815 0.019934244 0.426 1.1127592e-38
0.03150345 0.019934244 0.426 8.8227012e-39
0.032968722 0.019934244 0.426 8.2752952e-39
0.034514826 0.019981038 0.42699999 1.0580186e-38
0.03615208 0.020074626 0.42899999 7.0846806e-39
0.037715379 0.02012142 0.43000001 6.4393112e-39
0.039741311 0.020402184 0.43599999 6.7169672e-39
0.041335568 0.020448979 0.43700001 1.0589184e-38
0.042936731 0.020495772 0.43799999 9.3895125e-39
0.028505808 0.018414319 0.42500001 8.7474193e-39
0.02996764 0.018414319 0.42500001 1.297725e-38
0.031429499 0.018414319 0.42500001 9.9347941e-39
0.032968722 0.018457646 0.426 1.0677038e-38
0.034514826 0.018500973 0.42699999 1.1506799e-38
0.03606781 0.018544301 0.428 9.1990101e-39
0.037715379 0.018630957 0.43000001 9.475597e-39
0.039741311 0.018890923 0.43599999 1.1135486e-38
0.041335568 0.018934252 0.43700001 1.0213529e-38
0.042936731 0.018977579 0.43799999 1.1601856e-38
0.028505808 0.016941164 0.42500001 8.3696138e-39
0.02996764 0.016941164 0.42500001 1.1405235e-38
0.031429499 0.016941164 0.42500001 1.0575475e-38
0.032968722 0.016981024 0.426 1.1972822e-38
0.034514826 0.017020887 0.42699999 1.2249408e-38
0.03606781 0.017060749 0.428 1.0036321e-38
0.037627671 0.01710061 0.42899999 1.1050473e-38
0.039741311 0.01737964 0.43599999 1.1051189e-38
0.041335568 0.017419502 0.43700001 7.3633638e-39
0.042936731 0.017459365 0.43799999 1.2537176e-38
0.02698034 0.015431614 0.42399999 3.7703098e-39
0.028438734 0.015431614 0.42399999 5.4298312e-39
0.029897127 0.015431614 0.42399999 9.0146427e-39
0.031429499 0.01546801 0.42500001 7.3551214e-39
0.033046111 0.0155408 0.42699999 1.0308253e-38
0.034595657 0.015577196 0.428 1.0308253e-38
0.03606781 0.015577196 0.428 9.196492e-39
0.037276831 0.01546801 0.42500001 1.0763818e-38
0.038738664 0.01546801 0.42500001 6.7212804e-39
0.041430157 0.015941149 0.43799999 1.3543757e-38
0.043034762 0.015977545 0.43900001 1.8991581e-38
0.025521947 0.013961948 0.42399999 1.4180388e-38
0.02698034 0.013961948 0.42399999 7.1775334e-39
0.028438734 0.013961948 0.42399999 7.4541203e-39
0.029897127 0.013961948 0.42399999 8.6476314e-39
0.031429499 0.013994877 0.42500001 6.5271361e-39
0.033046111 0.014060735 0.42699999 7.8268797e-39
0.034595657 0.014093664 0.428 7.4580972e-39
0.03615208 0.014126593 0.42899999 4.8776845e-39
0.037276831 0.013994877 0.42500001 8.0123289e-39
0.038738664 0.013994877 0.42500001 1.235642e-38
0.040200498 0.013994877 0.42500001 1.7703767e-38
0.015168704 0.012374429 0.41999999 5.4200879e-39
0.016613338 0.012374429 0.41999999 6.7108211e-39
0.019549044 0.012403892 0.421 6.8930432e-39
0.020997146 0.012403892 0.421 1.0218574e-38
0.022498533 0.012433355 0.42199999 1.3076638e-38
0.023950046 0.012433355 0.42199999 1.0125222e-38
0.025461754 0.012462818 0.42300001 1.5933537e-38
0.026916709 0.012462818 0.42300001 9.0253837e-39
0.028438734 0.01249228 0.42399999 1.0961492e-38
0.029897127 0.01249228 0.42399999 1.1874127e-38
0.031429499 0.012521745 0.42500001 1.2888279e-38
0.033123508 0.012610133 0.428 1.2254078e-38
0.034595657 0.012610133 0.428 9.7647956e-39
0.03615208 0.012639595 0.42899999 1.0590588e-38
0.038738664 0.012521745 0.42500001 1.9360369e-38
0.040200498 0.012521745 0.42500001 1.8346217e-38
0.012337908 0.0109706 0.42199999 1.4182954e-38
0.013789422 0.0109706 0.42199999 6.1619466e-39
0.015168704 0.010918606 0.41999999 9.9308411e-39
0.016613338 0.010918606 0.41999999 1.1682558e-38
0.018057974 0.010918606 0.41999999 1.1407024e-38
0.019549044 0.010944604 0.421 1.0024089e-38
0.020997146 0.010944604 0.421 1.0035987e-38
0.022498533 0.0109706 0.42199999 1.1695509e-38
0.023950046 0.0109706 0.42199999 9.8393125e-39
0.025461754 0.010996597 0.42300001 1.4449081e-38
0.026916709 0.010996597 0.42300001 7.168191e-39
0.028438734 0.011022594 0.42399999 1.0948203e-38
0.029897127 0.011022594 0.42399999 1.0486852e-38
0.031429499 0.011048591 0.42500001 1.3437113e-38
0.033123508 0.011126581 0.428 1.2342673e-38
0.034676488 0.011152577 0.42899999 9.4846088e-39
0.03615208 0.011152577 0.42899999 1.1785178e-38
0.038829811 0.011074587 0.426 1.8714969e-38
0.040295083 0.011074587 0.426 1.8253991e-38
0.010912165 0.0095303757 0.42300001 7.8171393e-39
0.012337908 0.0095078452 0.42199999 1.333488e-38
0.013789422 0.0095078452 0.42199999 1.1951945e-38
0.015204821 0.0094853146 0.421 7.3501047e-39
0.016613338 0.009462784 0.41999999 7.4423003e-39
0.018057974 0.009462784 0.41999999 7.9994272e-39
0.019549044 0.0094853146 0.421 7.1696665e-39
0.020997146 0.0094853146 0.421 1.1051591e-38
0.022551848 0.0095303757 0.42300001 1.2895504e-38
0.024006801 0.0095303757 0.42300001 1.2523109e-38
0.025461754 0.0095303757 0.42300001 1.2891891e-38
0.026916709 0.0095303757 0.42300001 9.3884335e-39
0.028438734 0.0095529063 0.42399999 1.114015e-38
0.029897127 0.0095529063 0.42399999 1.02142e-38
0.031429499 0.0095754368 0.42500001 1.2980069e-38
0.033123508 0.0096430276 0.428 1.1047603e-38
0.034676488 0.0096655581 0.42899999 8.6505167e-39
0.036236349 0.0096880887 0.43000001 1.0861432e-38
0.010912165 0.008064175 0.42300001 4.7783759e-39
0.012367146 0.008064175 0.42300001 8.6448064e-39
0.013789422 0.0080451109 0.42199999 7.7228501e-39
0.015204821 0.0080260467 0.421 9.3729645e-39
0.016652895 0.0080260467 0.421 9.8339427e-39
0.018100969 0.0080260467 0.421 8.2723987e-39
0.019549044 0.0080260467 0.421 6.5206818e-39
0.020997146 0.0080260467 0.421 6.9067157e-39
0.022498533 0.0080451109 0.42199999 7.1833026e-39
0.024006801 0.008064175 0.42300001 8.285009e-39
0.025461754 0.008064175 0.42300001 9.2069653e-39
0.02698034 0.0080832392 0.42399999 8.5572575e-39
0.028438734 0.0080832392 0.42399999 1.1599713e-38
0.02996764 0.0081023043 0.42500001 1.0495161e-38
0.031577401 0.0081404317 0.42699999 1.3168834e-38
0.033123508 0.0081594968 0.428 1.1787702e-38
0.034676488 0.008178561 0.42899999 1.0220376e-38
0.036236349 0.0081976252 0.43000001 1.2157942e-38
0.010912165 0.0065979543 0.42300001 6.9939297e-39
0.012367146 0.0065979543 0.42300001 1.3433947e-38
0.013822099 0.0065979543 0.42300001 1.2511991e-38
0.015204821 0.0065667578 0.421 1.2053828e-38
0.016652895 0.0065667578 0.421 1.1039676e-38
0.018100969 0.0065667578 0.421 1.1034989e-38
0.019549044 0.0065667578 0.421 8.0847523e-39
0.020997146 0.0065667578 0.421 1.003099e-38
0.022498533 0.0065823556 0.42199999 8.7402516e-39
0.024006801 0.0065979543 0.42300001 9.8487348e-39
0.025461754 0.0065979543 0.42300001 7.0828659e-39
0.02698034 0.0066135516 0.42399999 6.3442317e-39
0.028438734 0.0066135516 0.42399999 6.3442317e-39
0.02996764 0.0066291504 0.42500001 5.9812001e-39
0.031577401 0.0066603459 0.42699999 7.732917e-39
0.033123508 0.0066759442 0.428 7.0874958e-39
0.03475732 0.0067071402 0.43000001 5.0592031e-39
0.036320619 0.006722738 0.43099999 8.4783882e-39
0.010937962 0.0051438855 0.42399999 7.6367403e-39
0.012396382 0.0051438855 0.42399999 1.4080749e-38
0.013822099 0.0051317536 0.42300001 1.2329032e-38
0.015277052 0.0051317536 0.42300001 1.177223e-38
0.01669245 0.0051196218 0.42199999 1.2509795e-38
0.018100969 0.0051074899 0.421 1.1963071e-38
0.019549044 0.0051074899 0.421 9.3815937e-39
0.020997146 0.0051074899 0.421 1.335686e-38
0.022498533 0.0051196218 0.42199999 9.2080569e-39
0.024006801 0.0051317536 0.42300001 1.2981241e-38
0.025461754 0.0051317536 0.42300001 7.2651118e-39
0.02698034 0.0051438855 0.42399999 9.8411692e-39
0.028505808 0.0051560174 0.42500001 8.3660391e-39
0.03003815 0.0051681488 0.426 1.0489057e-38
0.031651355 0.0051924125 0.428 1.0581252e-38
0.033278286 0.0052166763 0.43000001 9.1961053e-39
0.034838151 0.0052288081 0.43099999 7.8131918e-39
0.0094795683 0.0036741977 0.42399999 1.2520598e-38
0.010937962 0.0036741977 0.42399999 7.0810554e-39
0.01242562 0.0036828637 0.42500001 1.2784249e-38
0.013854776 0.0036741977 0.42399999 9.3730108e-39
0.015277052 0.0036655325 0.42300001 1.0114516e-38
0.01669245 0.0036568667 0.42199999 9.2847556e-39
0.018143963 0.0036568667 0.42199999 9.924332e-39
0.019595478 0.0036568667 0.42199999 9.8321378e-39
0.021047018 0.0036568667 0.42199999 1.3078466e-38
0.022551848 0.0036655325 0.42300001 1.0404792e-38
0.024006801 0.0036655325 0.42300001 1.3446885e-38
0.025461754 0.0036655325 0.42300001 9.2058863e-39
0.02698034 0.0036741977 0.42399999 1.2519149e-38
0.028505808 0.0036828637 0.42500001 1.0767432e-38
0.030108662 0.0037001944 0.42699999 1.316958e-38
0.031725306 0.0037175256 0.42899999 1.1417863e-38
0.033278286 0.0037261914 0.43000001 1.1135822e-38
0.0094795683 0.0022045104 0.42399999 1.4186946e-38
0.010937962 0.0022045104 0.42399999 9.6693602e-39
0.01242562 0.0022097097 0.42500001 1.4269078e-38
0.013854776 0.0022045104 0.42399999 1.0673448e-38
0.015277052 0.002199311 0.42300001 8.9177289e-39
0.01669245 0.0021941117 0.42199999 9.0099245e-39
0.018143963 0.0021941117 0.42199999 6.1551306e-39
0.019595478 0.0021941117 0.42199999 8.8287969e-39
0.021047018 0.0021941117 0.42199999 1.0497689e-38
0.022551848 0.002199311 0.42300001 8.3771892e-39
0.024006801 0.002199311 0.42300001 1.0765265e-38
0.025461754 0.002199311 0.42300001 7.6306138e-39
0.02698034 0.0022045104 0.42399999 1.0943551e-38
0.028572878 0.0022149091 0.426 9.5606166e-39
0.030179175 0.0022253077 0.428 1.2061414e-38
0.031725306 0.0022305069 0.42899999 1.1231654e-38
0.033278286 0.0022357064 0.43000001 1.1038255e-38
0.0095466403 0.00074004312 0.42699999 8.0083479e-39
0.010963759 0.00073657691 0.42500001 5.7956808e-39
0.01242562 0.00073657691 0.42500001 9.8347274e-39
0.013887453 0.00073657691 0.42500001 1.5182074e-38
0.015277052 0.00073311065 0.42300001 1.3807327e-38
0.016732005 0.00073311065 0.42300001 1.3254153e-38
0.018143963 0.00073137751 0.42199999 7.4451324e-39
0.019595478 0.00073137751 0.42199999 1.2054907e-38
0.021047018 0.00073137751 0.42199999 7.4587894e-39
0.022551848 0.00073311065 0.42300001 7.6431807e-39
0.024006801 0.00073311065 0.42300001 5.4294654e-39
0.025521947 0.00073484372 0.42399999 5.0606829e-39
0.02698034 0.00073484372 0.42399999 7.262588e-39
0.02863995 0.00074004312 0.42699999 6.9860011e-39
0.030179175 0.00074177625 0.428 9.3902495e-39
0.031725306 0.00074350939 0.42899999 8.1917064e-39
0.033278286 0.00074524252 0.43000001 8.1845037e-39
0.0095466403 -0.00074004312 0.42699999 9.5674563e-39
0.010989555 -0.00073830999 0.426 6.5250006e-39
0.01242562 -0.00073657691 0.42500001 9.9290712e-39
0.013887453 -0.00073657691 0.42500001 1.1772984e-38
0.015313168 -0.00073484372 0.42399999 1.1590316e-38
0.016732005 -0.00073311065 0.42300001 1.2604468e-38
0.01818696 -0.00073311065 0.42300001 1.0495122e-38
0.019595478 -0.00073137751 0.42199999 1.5012707e-38
0.021047018 -0.00073137751 0.42199999 1.2064943e-38
0.022551848 -0.00073311065 0.42300001 1.4185442e-38
0.024006801 -0.00073311065 0.42300001 9.3851937e-39
0.025521947 -0.00073484372 0.42399999 1.0122759e-38
0.02698034 -0.00073484372 0.42399999 9.0156979e-39
0.02863995 -0.00074004312 0.42699999 8.9235023e-39
0.030249687 -0.00074350939 0.42899999 9.3005777e-39
0.031799257 -0.00074524252 0.43000001 7.7332519e-39
0.033355679 -0.00074697559 0.43099999 5.8864415e-39
0.035080642 -0.00075217499 0.43399999 1.0035245e-38
0.0095466403 -0.0022201082 0.42699999 1.160262e-38
0.010989555 -0.0022149091 0.426 6.9928381e-39
0.01242562 -0.0022097097 0.42500001 1.3160938e-38
0.013887453 -0.0022097097 0.42500001 1.4912655e-38
0.015313168 -0.0022045104 0.42399999 1.2976863e-38
0.016732005 -0.002199311 0.42300001 7.9982991e-39
0.01818696 -0.002199311 0.42300001 7.546002e-39
0.019641913 -0.002199311 0.42300001 1.3538718e-38
0.021096895 -0.002199311 0.42300001 1.0490053e-38
0.022551848 -0.002199311 0.42300001 1.6390559e-38
0.024063554 -0.0022045104 0.42399999 1.0124522e-38
0.025521947 -0.0022045104 0.42399999 1.3074782e-38
0.027043974 -0.0022097097 0.42500001 1.2152519e-38
0.02863995 -0.0022201082 0.42699999 1.381204e-38
0.030249687 -0.0022305069 0.42899999 1.3170636e-38
0.031799257 -0.0022357064 0.43000001 1.2894049e-38
0.033433072 -0.0022461049 0.43200001 1.1694067e-38
0.035080642 -0.0022565036 0.43399999 1.5197501e-38
0.036910512 -0.0022773009 0.43799999 1.8807164e-38
0.0095466403 -0.0037001944 0.42699999 1.3351443e-38
0.011015353 -0.0037001944 0.42699999 8.9260526e-39
0.012454855 -0.0036915289 0.426 1.3163815e-38
0.013887453 -0.0036828637 0.42500001 1.1227706e-38
0.015313168 -0.0036741977 0.42399999 1.2332943e-38
0.016771562 -0.0036741977 0.42399999 1.0028052e-38
0.01818696 -0.0036655325 0.42300001 1.2804765e-38
0.019641913 -0.0036655325 0.42300001 1.3634526e-38
0.021146769 -0.0036741977 0.42399999 1.1133697e-38
0.022605162 -0.0036741977 0.42399999 1.3254197e-38
0.024063554 -0.0036741977 0.42399999 8.1801751e-39
0.025521947 -0.0036741977 0.42399999 1.0669449e-38
0.027107606 -0.0036915289 0.426 1.0021205e-38
0.02863995 -0.0037001944 0.42699999 1.2418292e-38
0.030249687 -0.0037175256 0.42899999 1.1881313e-38
0.031873208 -0.0037348568 0.43099999 9.3920306e-39
0.033433072 -0.0037435226 0.43200001 9.5681598e-39
0.035323136 -0.0037868503 0.43700001 1.694381e-38
0.036910512 -0.0037955157 0.43799999 1.8439104e-38
0.0095689986 -0.0051923916 0.428 1.2057461e-38
0.011015353 -0.0051802597 0.42699999 6.8945062e-39
0.012484092 -0.0051802597 0.42699999 1.0942106e-38
0.013887453 -0.0051559964 0.42500001 9.0059981e-39
0.015349285 -0.0051559964 0.42500001 7.4473044e-39
0.016771562 -0.0051438645 0.42399999 6.0643713e-39
0.018229954 -0.0051438645 0.42399999 1.1696623e-38
0.019688347 -0.0051438645 0.42399999 1.0221493e-38
0.021146769 -0.0051438645 0.42399999 1.4550725e-38
0.022605162 -0.0051438645 0.42399999 1.316779e-38
0.024120308 -0.0051559964 0.42500001 1.0313264e-38
0.025582142 -0.0051559964 0.42500001 1.2525959e-38
0.027171237 -0.0051802597 0.42699999 1.1323457e-38
0.028707024 -0.0051923916 0.428 1.3904935e-38
0.030249687 -0.005204523 0.42899999 1.3083076e-38
0.031873208 -0.0052287867 0.43099999 1.1054772e-38
0.033433072 -0.0052409186 0.43200001 1.0680614e-38
0.034999814 -0.0052530505 0.433 1.8609438e-38
0.0095689986 -0.0066759442 0.428 9.0215203e-39
0.01104115 -0.0066759442 0.428 3.7663694e-39
0.012484092 -0.0066603459 0.42699999 1.0205983e-38
0.013887453 -0.0066291504 0.42500001 1.1220135e-38
0.015349285 -0.0066291504 0.42500001 9.3740547e-39
0.016771562 -0.0066135516 0.42399999 8.6364897e-39
0.018229954 -0.0066135516 0.42399999 9.0294208e-39
0.019688347 -0.0066135516 0.42399999 3.1289005e-39
0.021146769 -0.0066135516 0.42399999 9.2098464e-39
0.022658477 -0.0066291504 0.42500001 4.9688474e-39
0.024120308 -0.0066291504 0.42500001 8.3714439e-39
0.025702527 -0.0066603459 0.42699999 1.0215357e-38
0.027171237 -0.0066603459 0.42699999 9.0153069e-39
0.028774096 -0.006691542 0.42899999 1.4086067e-38
0.030320199 -0.0067071402 0.43000001 1.2525251e-38
0.031873208 -0.006722738 0.43099999 1.0404752e-38
0.033433072 -0.0067383363 0.43200001 1.0309691e-38
0.034999814 -0.0067539341 0.433 1.9160471e-38
0.0095913559 -0.0081785396 0.42899999 1.5474836e-38
0.01104115 -0.0081594754 0.428 8.1913813e-39
0.012484092 -0.0081404112 0.42699999 1.3156246e-38
0.013887453 -0.0081022829 0.42500001 1.5000159e-38
0.015349285 -0.0081022829 0.42500001 9.0102903e-39
0.016811118 -0.0081022829 0.42500001 1.0854203e-38
0.018272951 -0.0081022829 0.42500001 1.1324581e-38
0.019734783 -0.0081022829 0.42500001 6.7147994e-39
0.021196645 -0.0081022829 0.42500001 1.0583403e-38
0.022658477 -0.0081022829 0.42500001 6.0658175e-39
0.024233814 -0.0081404112 0.42699999 9.1064782e-39
0.02576272 -0.0081594754 0.428 7.4469569e-39
0.027298504 -0.0081785396 0.42899999 5.703509e-39
0.028841168 -0.0081976037 0.43000001 8.6537691e-39
0.030320199 -0.0081976037 0.43000001 7.275536e-39
0.031873208 -0.0082166679 0.43099999 4.6940584e-39
0.033587851 -0.0082738604 0.43399999 7.0893525e-39
0.035323136 -0.0083310539 0.43700001 1.8798197e-38
0.0095913559 -0.0096655581 0.42899999 1.4919482e-38
0.01104115 -0.0096430276 0.428 6.898462e-39
0.012484092 -0.009620497 0.42699999 1.0940327e-38
0.013920127 -0.0095979674 0.426 1.2507652e-38
0.015349285 -0.0095754368 0.42500001 9.0981965e-39
0.016811118 -0.0095754368 0.42500001 1.6658238e-38
0.018272951 -0.0095754368 0.42500001 1.4459573e-38
0.019734783 -0.0095754368 0.42500001 1.2246878e-38
0.021196645 -0.0095754368 0.42500001 1.1597163e-38
0.022711789 -0.0095979674 0.426 9.7532503e-39
0.024290569 -0.0096430276 0.428 1.1405252e-38
0.02576272 -0.0096430276 0.428 9.2847528e-39
0.027298504 -0.0096655581 0.42899999 1.1133012e-38
0.028841168 -0.0096880887 0.43000001 1.0856425e-38
0.030390712 -0.0097106192 0.43099999 1.0583028e-38
0.031947162 -0.0097331498 0.43200001 8.278137e-39
0.033742636 -0.0098232711 0.43599999 1.2337313e-38
0.035403967 -0.0098683322 0.43799999 2.063492e-38
0.0096137132 -0.011178553 0.43000001 1.3442171e-38
0.011066947 -0.011152555 0.42899999 6.4353034e-39
0.012484092 -0.011100562 0.42699999 9.4745573e-39
0.013920127 -0.011074566 0.426 7.6306447e-39
0.015349285 -0.011048569 0.42500001 7.5337645e-39
0.016811118 -0.011048569 0.42500001 1.4356241e-38
0.018272951 -0.011048569 0.42500001 1.1407024e-38
0.019734783 -0.011048569 0.42500001 1.4633871e-38
0.021196645 -0.011048569 0.42500001 9.5684807e-39
0.022765102 -0.011100562 0.42699999 1.1596785e-38
0.024347322 -0.011152555 0.42899999 1.2611707e-38
0.025822913 -0.011152555 0.42899999 1.0122425e-38
0.027362138 -0.011178553 0.43000001 1.4366684e-38
0.02890824 -0.011204549 0.43099999 1.3075945e-38
0.030461224 -0.011230546 0.43200001 1.0863212e-38
0.032169018 -0.011308536 0.435 1.1600777e-38
0.033742636 -0.011334532 0.43599999 1.4833767e-38
0.035403967 -0.011386526 0.43799999 1.9720136e-38
0.0096137132 -0.012669038 0.43000001 1.3270001e-38
0.011092744 -0.012669038 0.43000001 8.5680237e-39
0.012513329 -0.012610112 0.428 1.2243272e-38
0.013952804 -0.012580648 0.42699999 6.2505563e-39
0.0153854 -0.012551186 0.426 5.7903446e-39
0.016811118 -0.012521723 0.42500001 9.3859742e-39
0.018272951 -0.012521723 0.42500001 7.262183e-39
0.019734783 -0.012521723 0.42500001 1.1687573e-38
0.021246517 -0.012551186 0.426 7.6284446e-39
0.022765102 -0.012580648 0.42699999 9.0113721e-39
0.024347322 -0.012639575 0.42899999 1.0021983e-38
0.025822913 -0.012639575 0.42899999 1.0206374e-38
0.02742577 -0.0126985 0.43099999 1.1229506e-38
0.028975314 -0.012727964 0.43200001 1.0584136e-38
0.030602247 -0.012786889 0.43399999 9.4687573e-39
0.032169018 -0.012816352 0.435 9.8375398e-39
0.033820029 -0.012875278 0.43700001 1.4467123e-38
0.035484798 -0.012934204 0.43900001 1.91691e-38
0.0096360706 -0.014192452 0.43099999 1.2165789e-38
0.011092744 -0.014159523 0.43000001 1.1243833e-38
0.012542566 -0.014126593 0.42899999 1.1331746e-38
0.013985481 -0.014093664 0.428 8.7502681e-39
0.015421515 -0.014060735 0.42699999 1.2344841e-38
0.016890228 -0.014060735 0.42699999 1.151508e-38
0.018315945 -0.014027806 0.426 1.1130814e-38
0.019781217 -0.014027806 0.426 1.0116662e-38
0.021246517 -0.014027806 0.426 7.5348155e-39
0.022765102 -0.014060735 0.42699999 8.0879808e-39
0.024347322 -0.014126593 0.42899999 7.1667925e-39
0.026003495 -0.014225381 0.43200001 8.9185094e-39
0.027489405 -0.014225381 0.43200001 6.8948369e-39
0.028975314 -0.014225381 0.43200001 5.6963119e-39
0.030602247 -0.014291239 0.43399999 4.3177032e-39
0.032169018 -0.014324169 0.435 7.9133272e-39
0.033820029 -0.014390027 0.43700001 1.5761114e-38
0.0096360706 -0.015686382 0.43099999 1.235236e-38
0.011118541 -0.015686382 0.43099999 1.1706991e-38
0.012571802 -0.015649987 0.43000001 1.0690705e-38
0.014018157 -0.01561359 0.42899999 8.3858142e-39
0.015493749 -0.01561359 0.42899999 6.820973e-39
0.016890228 -0.0155408 0.42699999 7.5585381e-39
0.018315945 -0.015504405 0.426 1.0045333e-38
0.019781217 -0.015504405 0.426 9.8609415e-39
0.021246517 -0.015504405 0.426 1.0966549e-38
0.022765102 -0.0155408 0.42699999 7.6475065e-39
0.026725814 -0.016159521 0.44400001 9.6665015e-39
0.027489405 -0.015722778 0.43200001 9.6750985e-39
0.028975314 -0.015722778 0.43200001 1.8157096e-38
0.0096360706 -0.017180333 0.43099999 1.2721157e-38
0.011118541 -0.017180333 0.43099999 1.1799201e-38
0.012601039 -0.017180333 0.43099999 1.1244229e-38
0.014018157 -0.01710061 0.42899999 8.9393383e-39
0.015493749 -0.01710061 0.42899999 7.9251528e-39
0.01696934 -0.01710061 0.42899999 9.3080872e-39
0.018616911 -0.017260056 0.433 9.4017346e-39
0.020152694 -0.017299917 0.43399999 1.0692473e-38
0.021645512 -0.017299917 0.43399999 1.0413368e-38
0.023191616 -0.017339779 0.435 4.3284652e-39
0.024687845 -0.017339779 0.435 5.7139458e-39
0.026725814 -0.017698534 0.44400001 7.6500541e-39
0.028252998 -0.017698534 0.44400001 8.2953842e-39
0.029780183 -0.017698534 0.44400001 1.788373e-38
0.031448394 -0.017778257 0.44600001 1.7609706e-38
0.0096360706 -0.018674262 0.43099999 1.253641e-38
0.011118541 -0.018674262 0.43099999 1.2075432e-38
0.012601039 -0.018674262 0.43099999 1.1798119e-38
0.014018157 -0.018587606 0.42899999 9.6776194e-39
0.015493749 -0.018587606 0.42899999 8.0184316e-39
0.017008895 -0.018630935 0.43000001 8.9403879e-39
0.018616911 -0.018760918 0.433 9.4928582e-39
0.020152694 -0.018804245 0.43399999 1.050701e-38
0.021695387 -0.018847574 0.435 8.2028355e-39
0.023191616 -0.018847574 0.435 7.1886835e-39
0.024687845 -0.018847574 0.435 9.2162882e-39
0.026725814 -0.019237524 0.44400001 9.1240925e-39
0.028252998 -0.019237524 0.44400001 7.190459e-39
0.029847255 -0.019280853 0.44499999 1.6133435e-38
0.031448394 -0.01932418 0.44600001 1.7425315e-38
0.0096360706 -0.020168213 0.43099999 1.2904111e-38
0.011092744 -0.02012142 0.43000001 1.2443132e-38
0.012571802 -0.02012142 0.43000001 1.1983222e-38
0.014018157 -0.020074626 0.42899999 1.0784679e-38
0.015493749 -0.020074626 0.42899999 7.0982606e-39
0.017008895 -0.02012142 0.43000001 8.5733906e-39
0.018659905 -0.020308595 0.43399999 9.5857699e-39
0.020199129 -0.02035539 0.435 1.0138944e-38
0.021695387 -0.02035539 0.435 8.9404061e-39
0.023191616 -0.02035539 0.435 9.4935799e-39
0.025198627 -0.020776536 0.44400001 8.8489139e-39
0.026725814 -0.020776536 0.44400001 8.6645227e-39
0.028252998 -0.020776536 0.44400001 8.0191533e-39
0.029847255 -0.02082333 0.44499999 1.5671391e-38
0.031448394 -0.020870125 0.44600001 1.7701539e-38
0.033204343 -0.021010507 0.449 1.7148365e-38
0.0096137132 -0.021611884 0.43000001 1.2996299e-38
0.011092744 -0.021611884 0.43000001 1.2535321e-38
0.012571802 -0.021611884 0.43000001 1.1798465e-38
0.014018157 -0.021561623 0.42899999 1.0692117e-38
0.015493749 -0.021561623 0.42899999 7.7422006e-39
0.01696934 -0.021561623 0.42899999 9.0329395e-39
0.018659905 -0.021812923 0.43399999 1.0413729e-38
0.020199129 -0.021863185 0.435 1.0690315e-38
0.021745261 -0.021913445 0.43599999 9.6772369e-39
0.02324493 -0.021913445 0.43599999 9.7694325e-39
0.025198627 -0.022315528 0.44400001 9.7683591e-39
0.026725814 -0.022315528 0.44400001 9.9527504e-39
0.028252998 -0.022315528 0.44400001 9.2176937e-39
0.029847255 -0.022365788 0.44499999 1.4933823e-38
0.031518903 -0.022466308 0.447 1.7702255e-38
0.033204343 -0.022566829 0.449 1.696469e-38
0.0096137132 -0.023102369 0.43000001 1.2904104e-38
0.011092744 -0.023102369 0.43000001 1.2627517e-38
0.012571802 -0.023102369 0.43000001 1.1799903e-38
0.014018157 -0.023048641 0.42899999 1.0785751e-38
0.015493749 -0.023048641 0.42899999 9.1237128e-39
0.01696934 -0.023048641 0.42899999 9.9534734e-39
0.018745895 -0.023424728 0.43599999 1.0323701e-38
0.020245565 -0.023424728 0.43599999 9.3095488e-39
0.021745261 -0.023424728 0.43599999 9.4921281e-39
0.023298245 -0.023478454 0.43700001 9.4921281e-39
0.025255382 -0.023908267 0.44499999 9.308104e-39
0.026786007 -0.023908267 0.44499999 9.9534734e-39
0.028316632 -0.023908267 0.44499999 9.586479e-39
0.029914329 -0.023961993 0.44600001 1.3550891e-38
0.031589419 -0.024069445 0.44800001 1.8068876e-38
0.033204343 -0.024123173 0.449 1.7331311e-38
0.0096137132 -0.024592834 0.43000001 1.2627161e-38
0.011092744 -0.024592834 0.43000001 1.2534965e-38
0.012571802 -0.024592834 0.43000001 1.1707339e-38
0.014018157 -0.024535639 0.42899999 1.0877578e-38
0.015493749 -0.024535639 0.42899999 9.4925149e-39
0.01696934 -0.024535639 0.42899999 9.6769062e-39
0.018745895 -0.024935989 0.43599999 9.3116998e-39
0.020245565 -0.024935989 0.43599999 8.2975478e-39
0.021795137 -0.024993181 0.43700001 9.0325961e-39
0.02377807 -0.025507916 0.44600001 9.1247918e-39
0.025255382 -0.025450723 0.44499999 9.4013815e-39
0.026786007 -0.025450723 0.44499999 9.9545552e-39
0.028316632 -0.025450723 0.44499999 9.5864734e-39
0.029914329 -0.025507916 0.44600001 1.2352342e-38
0.031589419 -0.025622301 0.44800001 1.8160709e-38
0.033130392 -0.025622301 0.44800001 1.7330948e-38
0.034748726 -0.025679493 0.449 1.7239819e-38
0.0096137132 -0.026083319 0.43000001 1.2351303e-38
0.011092744 -0.026083319 0.43000001 1.2351303e-38
0.012571802 -0.026083319 0.43000001 1.2167969e-38
0.014018157 -0.026022658 0.42899999 1.1153817e-38
0.015493749 -0.026022658 0.42899999 9.8609415e-39
0.01696934 -0.026022658 0.42899999 9.7687459e-39
0.018788893 -0.026507931 0.43700001 9.4942833e-39
0.020292001 -0.026507931 0.43700001 8.2957402e-39
0.021795137 -0.026507931 0.43700001 8.9411096e-39
0.02377807 -0.027053861 0.44600001 8.9411096e-39
0.025312135 -0.027053861 0.44600001 9.7701612e-39
0.0268462 -0.027053861 0.44600001 9.9545524e-39
0.028380264 -0.027053861 0.44600001 9.8627099e-39
0.029981401 -0.02711452 0.447 1.1983209e-38
0.031589419 -0.027175177 0.44800001 1.7884835e-38
0.033130392 -0.027175177 0.44800001 1.714727e-38
0.034748726 -0.027235838 0.449 1.678028e-38
0.036293108 -0.027235838 0.449 1.6872476e-38
0.0096137132 -0.027573803 0.43000001 1.225946e-38
0.011092744 -0.027573803 0.43000001 1.2351656e-38
0.012571802 -0.027573803 0.43000001 1.216832e-38
0.014050834 -0.027573803 0.43000001 1.152295e-38
0.015493749 -0.027509676 0.42899999 9.8609415e-39
0.01696934 -0.027509676 0.42899999 9.5843546e-39
0.018917877 -0.028215054 0.44 9.4020877e-39
0.02038487 -0.028150931 0.43900001 8.9411096e-39
0.021894885 -0.028150931 0.43900001 9.3084572e-39
0.02377807 -0.028599806 0.44600001 9.4928484e-39
0.025312135 -0.028599806 0.44600001 9.5857699e-39
0.0268462 -0.028599806 0.44600001 9.9545524e-39
0.028380264 -0.028599806 0.44600001 9.8619813e-39
0.029981401 -0.028663931 0.447 1.1982481e-38
0.031589419 -0.028728055 0.44800001 1.7516056e-38
0.033204343 -0.028792182 0.449 1.7055077e-38
0.034748726 -0.028792182 0.449 1.6780283e-38
0.036293108 -0.028792182 0.449 1.6780283e-38
0.011118541 -0.029131858 0.43099999 1.2352711e-38
0.012601039 -0.029131858 0.43099999 1.216832e-38
0.014050834 -0.029064268 0.43000001 1.1707341e-38
0.015493749 -0.028996674 0.42899999 1.0600292e-38
0.01696934 -0.028996674 0.42899999 9.8627268e-39
0.018444931 -0.028996674 0.42899999 9.4939302e-39
0.020431304 -0.029740181 0.44 8.9407564e-39
0.021944759 -0.029740181 0.44 9.1247918e-39
0.023724757 -0.030078137 0.44499999 9.309183e-39
0.025312135 -0.030145729 0.44600001 9.6779655e-39
0.0268462 -0.030145729 0.44600001 1.0046748e-38
0.028380264 -0.030145729 0.44600001 1.0415524e-38
0.030048475 -0.03028091 0.44800001 1.2351632e-38
0.031659931 -0.030348502 0.449 1.7516056e-38
0.033204343 -0.030348502 0.449 1.7055077e-38
0.034748726 -0.030348502 0.449 1.6962882e-38
0.036293108 -0.030348502 0.449 1.6962882e-38
0.011118541 -0.030625809 0.43099999 1.2352711e-38
0.012601039 -0.030625809 0.43099999 1.244384e-38
0.014050834 -0.030554753 0.43000001 1.2075058e-38
0.015529864 -0.030554753 0.43000001 1.096907e-38
0.01696934 -0.030483693 0.42899999 9.9549182e-39
0.018444931 -0.030483693 0.42899999 9.6779655e-39
0.02047774 -0.031336386 0.44100001 9.2169874e-39
0.021994635 -0.031336386 0.44100001 9.2169902e-39
0.023724757 -0.031620614 0.44499999 9.2169902e-39
0.025255382 -0.031620614 0.44499999 9.9552741e-39
0.0268462 -0.031691674 0.44600001 1.0139665e-38
0.028380264 -0.031691674 0.44600001 9.5857699e-39
0.030048475 -0.031833787 0.44800001 1.4195551e-38
0.031659931 -0.031904846 0.449 1.6872854e-38
0.033204343 -0.031904846 0.449 1.6411876e-38
0.034748726 -0.031904846 0.449 1.6595538e-38
0.036212277 -0.031833787 0.44800001 1.6503343e-38
0.037753221 -0.031833787 0.44800001 1.6594825e-38
0.0082292724 -0.032417834 0.435 1.3459772e-38
0.0097031426 -0.032343309 0.43399999 1.2443837e-38
0.011144338 -0.032194264 0.43200001 1.2259446e-38
0.012601039 -0.03211974 0.43099999 1.2259809e-38
0.014050834 -0.032045215 0.43000001 1.2167613e-38
0.015493749 -0.031970691 0.42899999 1.115418e-38
0.01696934 -0.031970691 0.42899999 1.0232224e-38
0.018444931 -0.031970691 0.42899999 9.4013815e-39
0.020524174 -0.032939501 0.442 9.1247946e-39
0.022194132 -0.033163071 0.44499999 9.2173405e-39
0.023724757 -0.033163071 0.44499999 9.6783187e-39
0.025255382 -0.033163071 0.44499999 1.004747e-38
0.0268462 -0.033237599 0.44600001 1.0231861e-38
0.028380264 -0.033237599 0.44600001 8.9443732e-39
0.030048475 -0.033386644 0.44800001 1.5305872e-38
0.031659931 -0.033461168 0.449 1.6688103e-38
0.033204343 -0.033461168 0.449 1.6503711e-38
0.034748726 -0.033461168 0.449 1.6503343e-38
0.036212277 -0.033386644 0.44800001 1.6411147e-38
0.037753221 -0.033386644 0.44800001 1.6779216e-38
0.0082292724 -0.033925653 0.435 1.3640926e-38
0.0097031426 -0.03384766 0.43399999 1.2351293e-38
0.011170136 -0.033769671 0.433 1.2166901e-38
0.012630276 -0.033691682 0.43200001 1.2260165e-38
0.014083509 -0.033613689 0.43099999 1.235236e-38
0.015493749 -0.033457708 0.42899999 1.1338569e-38
0.01696934 -0.033457708 0.42899999 1.0508808e-38
0.018444931 -0.033457708 0.42899999 9.1244428e-39
0.020524174 -0.034471583 0.442 9.2166385e-39
0.022194132 -0.034705549 0.44499999 9.1262365e-39
0.023724757 -0.034705549 0.44499999 9.495019e-39
0.025255382 -0.034705549 0.44499999 1.0231505e-38
0.0268462 -0.034783542 0.44600001 1.0139309e-38
0.028380264 -0.034783542 0.44600001 1.1155636e-38
0.030048475 -0.03493952 0.44800001 1.6871765e-38
0.031659931 -0.035017513 0.449 1.6687018e-38
0.033204343 -0.035017513 0.449 1.6502627e-38
0.0082292724 -0.035433445 0.435 1.3638765e-38
0.0097031426 -0.035351988 0.43399999 1.2351644e-38
0.011170136 -0.035270534 0.433 1.2259449e-38
0.012630276 -0.035189077 0.43200001 1.2259449e-38
0.014083509 -0.03510762 0.43099999 1.2259449e-38
0.015529864 -0.035026167 0.43000001 1.1615512e-38
0.01696934 -0.034944706 0.42899999 1.1523316e-38
0.018444931 -0.034944706 0.42899999 8.9404005e-39
0.019966956 -0.035026167 0.43000001 9.1247918e-39
0.022194132 -0.036248006 0.44499999 9.4939302e-39
0.023724757 -0.036248006 0.44499999 9.9549084e-39
0.025255382 -0.036248006 0.44499999 1.0323701e-38
0.0268462 -0.036329467 0.44600001 9.7705269e-39
0.028380264 -0.036329467 0.44600001 1.4289619e-38
0.029981401 -0.03641092 0.447 1.6225727e-38
0.031659931 -0.036573835 0.449 1.6318952e-38
0.033204343 -0.036573835 0.449 1.6503343e-38
0.0067485217 -0.037026182 0.43599999 1.3734563e-38
0.0082292724 -0.03694126 0.435 1.2904803e-38
0.0097255008 -0.03694126 0.435 1.2904818e-38
0.011195932 -0.036856338 0.43399999 1.2075058e-38
0.012630276 -0.036686495 0.43200001 1.2536036e-38
0.014083509 -0.03660157 0.43099999 1.2259449e-38
0.015529864 -0.036516652 0.43000001 1.1614795e-38
0.017008895 -0.036516652 0.43000001 1.15226e-38
0.018487925 -0.036516652 0.43000001 9.4010325e-39
0.019966956 -0.036516652 0.43000001 9.2166413e-39
0.022194132 -0.037790485 0.44499999 9.7701612e-39
0.023724757 -0.037790485 0.44499999 1.0046748e-38
0.025255382 -0.037790485 0.44499999 9.9549084e-39
0.0268462 -0.03787541 0.44600001 9.5861258e-39
0.028380264 -0.03787541 0.44600001 2.2861642e-38
0.029981401 -0.037960332 0.447 2.1478708e-38
0.031659931 -0.038130179 0.449 1.603982e-38
0.0052488535 -0.038537443 0.43599999 1.5489572e-38
0.0067485217 -0.038537443 0.43599999 1.382567e-38
0.0082292724 -0.038449056 0.435 1.2719323e-38
0.0097255008 -0.038449056 0.435 1.2720414e-38
0.011195932 -0.038360666 0.43399999 1.2536023e-38
0.012630276 -0.03818389 0.43200001 1.2351644e-38
0.014116187 -0.03818389 0.43200001 1.2628231e-38
0.015529864 -0.038007114 0.43000001 1.1430048e-38
0.017008895 -0.038007114 0.43000001 1.1522244e-38
0.018487925 -0.038007114 0.43000001 1.0599209e-38
0.019966956 -0.038007114 0.43000001 9.1240785e-39
0.022194132 -0.039332941 0.44499999 9.8627099e-39
0.023724757 -0.039332941 0.44499999 1.0139297e-38
0.025312135 -0.039421335 0.44600001 1.0230776e-38
0.0268462 -0.039421335 0.44600001 1.078395e-38
0.028380264 -0.039421335 0.44600001 2.2587198e-38
0.029981401 -0.039509721 0.447 2.3509514e-38
0.031659931 -0.039686497 0.449 2.2864138e-38
0.0052488535 -0.040048726 0.43599999 1.4291026e-38
0.0067485217 -0.040048726 0.43599999 1.3274292e-38
0.0082481895 -0.040048726 0.43599999 1.2721118e-38
0.0097255008 -0.039956871 0.435 1.2444906e-38
0.011221729 -0.039956871 0.435 1.1799537e-38
0.012659513 -0.039773162 0.433 1.2444204e-38
0.014116187 -0.039681308 0.43200001 1.2259813e-38
0.01556598 -0.039589453 0.43099999 1.1429334e-38
0.01704845 -0.039589453 0.43099999 1.1429334e-38
0.01853092 -0.039589453 0.43099999 1.1246373e-38
0.02001339 -0.039589453 0.43099999 8.8492867e-39
0.02149589 -0.039589453 0.43099999 1.0506277e-38
0.02377807 -0.040967278 0.44600001 1.0598473e-38
0.025312135 -0.040967278 0.44600001 1.023113e-38
0.0268462 -0.040967278 0.44600001 1.106089e-38
0.028380264 -0.040967278 0.44600001 2.221768e-38
0.029981401 -0.041059133 0.447 2.3508418e-38
0.031659931 -0.041242842 0.449 2.2864867e-38
0.0052488535 -0.041560009 0.43599999 1.4105193e-38
0.0067485217 -0.041560009 0.43599999 1.3275017e-38
0.0082481895 -0.041560009 0.43599999 1.2537452e-38
0.0097255008 -0.04146469 0.435 1.2628947e-38
0.011195932 -0.041369367 0.43399999 1.2628947e-38
0.012688749 -0.041369367 0.43399999 1.2720791e-38
0.014116187 -0.041178726 0.43200001 1.2259813e-38
0.01556598 -0.041083403 0.43099999 1.1244945e-38
0.01704845 -0.041083403 0.43099999 1.1337141e-38
0.01853092 -0.041083403 0.43099999 1.1429685e-38
0.02001339 -0.041083403 0.43099999 9.9545552e-39
0.02149589 -0.041083403 0.43099999 1.0506277e-38
0.023831384 -0.042608544 0.447 1.0506277e-38
0.025312135 -0.042513225 0.44600001 1.0782867e-38
0.0268462 -0.042513225 0.44600001 1.0690671e-38
0.028443897 -0.042608544 0.447 2.1573036e-38
0.029981401 -0.042608544 0.447 2.3232557e-38
0.0037405859 -0.042972483 0.435 2.240316e-38
0.0052368147 -0.042972483 0.435 1.3552379e-38
0.0067330436 -0.042972483 0.435 1.3551241e-38
0.0082481895 -0.04307127 0.43599999 1.2813676e-38
0.0097255008 -0.042972483 0.435 1.2812268e-38
0.011195932 -0.042873695 0.43399999 1.2812268e-38
0.012688749 -0.042873695 0.43399999 1.3088841e-38
0.014116187 -0.042676121 0.43200001 1.2627863e-38
0.01556598 -0.042577334 0.43099999 1.1060914e-38
0.01704845 -0.042577334 0.43099999 1.1245305e-38
0.01853092 -0.042577334 0.43099999 1.1338193e-38
0.02001339 -0.042577334 0.43099999 1.0047454e-38
0.02149589 -0.042577334 0.43099999 1.0321533e-38
0.023084989 -0.042774908 0.433 1.0229337e-38
0.025368888 -0.044157933 0.447 1.0414079e-38
0.026906392 -0.044157933 0.447 9.6765138e-39
0.028443897 -0.044157933 0.447 2.1204972e-38
0.030115547 -0.044355508 0.449 2.3233276e-38
0.0037405859 -0.044480301 0.435 2.2126929e-38
0.0052368147 -0.044480301 0.435 1.3183953e-38
0.0067330436 -0.044480301 0.435 1.3274299e-38
0.0082481895 -0.044582553 0.43599999 1.2721125e-38
0.0097255008 -0.044480301 0.435 1.2720424e-38
0.011195932 -0.044378046 0.43399999 1.281262e-38
0.012688749 -0.044378046 0.43399999 1.2905529e-38
0.014116187 -0.044173539 0.43200001 1.1891377e-38
0.01556598 -0.044071283 0.43099999 1.1705553e-38
0.01704845 -0.044071283 0.43099999 1.1428966e-38
0.01853092 -0.044071283 0.43099999 1.1614417e-38
0.02001339 -0.044071283 0.43099999 9.8627001e-39
0.02149589 -0.044071283 0.43099999 1.0137498e-38
0.023084989 -0.044275794 0.433 1.0137498e-38
0.025425643 -0.045809597 0.44800001 1.0415505e-38
0.026966587 -0.045809597 0.44800001 1.0046723e-38
0.028507531 -0.045809597 0.44800001 2.2587551e-38
0.0052488535 -0.046093814 0.43599999 1.281553e-38
