# .PCD v0.7 - Point Cloud Data file format
VERSION 0.7
FIELDS x y z rgb
SIZE 4 4 4 4
TYPE F F F F
COUNT 1 1 1 1
WIDTH 657
HEIGHT 1
VIEWPOINT 0 0 0 1 0 0 0
POINTS 657
DATA ascii
-0.0072232005 0.082981341 0.83999997 1.5947648e-38
-0.004333931 0.082981341 0.83999997 1.5672879e-38
-0.01297081 0.079879098 0.838 1.2720058e-38
-0.010088393 0.079879098 0.838 1.1798116e-38
-0.0071888044 0.07968846 0.83600003 1.1244942e-38
-0.0043132934 0.07968846 0.83600003 1.5949466e-38
-0.0014274637 0.079116531 0.82999998 1.5949466e-38
0.0014274094 0.079116531 0.82999998 1.5857623e-38
-0.018556729 0.076239593 0.82999998 8.5709187e-39
-0.015701856 0.076239593 0.82999998 1.2070765e-38
-0.012846983 0.076239593 0.82999998 1.197857e-38
-0.010016161 0.076423302 0.83200002 1.0876514e-38
-0.0071544084 0.076423302 0.83200002 1.0876514e-38
-0.0042926557 0.076423302 0.83200002 9.3073838e-39
-0.0014205844 0.075872168 0.82599998 1.2718622e-38
0.0014205304 0.075872168 0.82599998 1.3088507e-38
0.004261699 0.075872168 0.82599998 1.4287051e-38
0.0071200118 0.076055884 0.82800001 1.1336408e-38
0.0099920826 0.076239593 0.82999998 1.0045669e-38
0.012877913 0.076423302 0.83200002 9.6743432e-39
0.0157775 0.076607011 0.83399999 8.3836044e-39
-0.018556729 0.073362611 0.82999998 4.79123e-39
-0.015701856 0.073362611 0.82999998 7.3760035e-39
-0.012846983 0.073362611 0.82999998 8.3901554e-39
-0.0099920826 0.073362611 0.82999998 1.0318999e-38
-0.0071372096 0.073362611 0.82999998 8.1984999e-39
-0.0042513805 0.072832279 0.824 8.8373728e-39
-0.0014171447 0.072832279 0.824 8.2842075e-39
0.0014170909 0.072832279 0.824 6.346335e-39
0.0042513805 0.072832279 0.824 8.6512159e-39
0.007102814 0.073009051 0.82599998 8.6584186e-39
0.0099439286 0.073009051 0.82599998 1.0686722e-38
0.012816 0.073185831 0.82800001 1.1151671e-38
0.015739666 0.073539384 0.83200002 6.3574978e-39
0.018646132 0.073716164 0.83399999 1.345947e-38
0.030120714 0.073716164 0.83399999 1.4935316e-38
-0.018556729 0.070485629 0.82999998 1.5578868e-38
-0.015701856 0.070485629 0.82999998 1.6127376e-38
-0.012846983 0.070485629 0.82999998 1.0780029e-38
-0.0099680061 0.070315786 0.82800001 9.3930493e-39
-0.007102814 0.070145935 0.82599998 9.1164667e-39
-0.0042513805 0.069976091 0.824 9.4859638e-39
-0.0014137051 0.069806248 0.82200003 8.5640187e-39
0.0014136513 0.069806248 0.82200003 7.3626239e-39
0.0042410614 0.069806248 0.82200003 8.3767674e-39
0.0070856158 0.069976091 0.824 8.7520492e-39
0.0099198511 0.069976091 0.824 1.2163287e-38
0.012816 0.070315786 0.82800001 1.4835918e-38
0.015701829 0.070485629 0.82999998 1.289981e-38
0.018601418 0.070655473 0.83200002 1.5577799e-38
-0.0184673 0.067282856 0.82599998 1.6318604e-38
-0.012785071 0.067282856 0.82599998 6.8195409e-39
-0.0099439286 0.067282856 0.82599998 8.3789254e-39
-0.0070856158 0.067119949 0.824 8.8399036e-39
-0.0042410614 0.066957042 0.82200003 9.2079672e-39
-0.0014102653 0.06679412 0.81999999 8.1016197e-39
0.0014102117 0.06679412 0.81999999 7.3626477e-39
0.0042307423 0.06679412 0.81999999 8.284604e-39
0.0070512192 0.06679412 0.81999999 8.1030644e-39
0.0098957745 0.066957042 0.82200003 8.9328251e-39
0.012754087 0.067119949 0.824 8.8442546e-39
0.015701829 0.067608684 0.82999998 1.0780363e-38
0.018556703 0.067608684 0.82999998 1.3921881e-38
-0.015626185 0.064419739 0.82599998 8.6648226e-39
-0.012785071 0.064419739 0.82599998 5.3458303e-39
-0.0099439286 0.064419739 0.82599998 8.1916545e-39
-0.007068418 0.064107783 0.82200003 7.2697122e-39
-0.0042307423 0.063951805 0.81999999 6.0704698e-39
-0.0014068257 0.063795827 0.81800002 5.9782756e-39
0.0014067723 0.063795827 0.81800002 6.8108935e-39
0.0042307423 0.063951805 0.81999999 6.4421166e-39
0.0070512192 0.063951805 0.81999999 4.8769671e-39
0.0098957745 0.064107783 0.82200003 5.9833062e-39
0.012754087 0.064263761 0.824 9.0264627e-39
0.015588323 0.064263761 0.824 1.5295765e-38
0.018556703 0.064731702 0.82999998 1.5489219e-38
-0.018556729 0.061854761 0.82999998 1.2075795e-38
-0.012785071 0.061556663 0.82599998 7.091781e-39
-0.0099439286 0.061556663 0.82599998 7.3637141e-39
-0.007068418 0.061258573 0.82200003 3.675931e-39
-0.0042204238 0.060960475 0.81800002 5.2454217e-39
-0.0014068257 0.060960475 0.81800002 1.013179e-38
0.0014067723 0.060960475 0.81800002 1.0502331e-38
0.0042307423 0.06110952 0.81999999 7.4598754e-39
0.0070512192 0.06110952 0.81999999 7.8350969e-39
0.0098957745 0.061258573 0.82200003 3.59414e-39
0.012754087 0.061407618 0.824 2.4928539e-39
0.015588323 0.061407618 0.824 1.0790461e-38
0.018467274 0.061556663 0.82599998 1.4842768e-38
-0.018556729 0.058977779 0.82999998 9.9578287e-39
-0.015701856 0.058977779 0.82999998 9.5818463e-39
-0.012785071 0.058693547 0.82599998 3.7735216e-39
-0.0098355804 0.058054026 0.81699997 4.4185071e-39
-0.0070254221 0.058054026 0.81699997 8.9360901e-39
-0.0042204238 0.05812509 0.81800002 1.5575298e-38
-0.0014068257 0.05812509 0.81800002 1.4284559e-38
0.0014067723 0.05812509 0.81800002 1.2717175e-38
0.0042307423 0.058267202 0.81999999 9.7669144e-39
0.0070512192 0.058267202 0.81999999 1.0964405e-38
0.0098957745 0.058409318 0.82200003 8.1985363e-39
0.01272313 0.058409318 0.82200003 1.0418131e-38
0.015550487 0.058409318 0.82200003 1.5212304e-38
0.018467274 0.058693547 0.82599998 1.4934598e-38
-0.02295085 0.053059187 0.78500003 1.5857639e-38
-0.020328149 0.053261958 0.78799999 1.5578878e-38
-0.018556729 0.056100793 0.82999998 1.3919357e-38
-0.015701856 0.056100793 0.82999998 1.0223989e-38
-0.012490982 0.054546189 0.80699998 6.6283589e-39
-0.0097151939 0.054546189 0.80699998 1.0676636e-38
-0.0070082243 0.055086922 0.815 1.7775699e-38
-0.0042152638 0.055222102 0.81699997 1.5203619e-38
-0.0014068257 0.055289701 0.81800002 1.391288e-38
0.0014067723 0.055289701 0.81800002 1.0966527e-38
0.0042307423 0.05542488 0.81999999 9.7679836e-39
0.0070512192 0.05542488 0.81999999 1.1059125e-38
0.0098957745 0.055560067 0.82200003 1.0598146e-38
0.01272313 0.055560067 0.82200003 1.5027535e-38
0.015550487 0.055560067 0.82200003 1.4843143e-38
-0.025650941 0.050338224 0.78500003 1.53887e-38
-0.02295085 0.050338224 0.78500003 1.391357e-38
-0.020328149 0.050530594 0.78799999 1.2886493e-38
-0.017707145 0.050787095 0.792 1.1780146e-38
-0.015058648 0.0510436 0.796 1.4914055e-38
-0.012367156 0.051235974 0.79900002 1.417649e-38
-0.0096670389 0.051492475 0.80299997 6.4317133e-39
-0.0069566299 0.051877223 0.80900002 7.9990334e-39
-0.0042152638 0.052390222 0.81699997 4.8762496e-39
-0.0014068257 0.052454352 0.81800002 8.8406519e-39
0.0014067723 0.052454352 0.81800002 8.3850645e-39
0.0042307423 0.052582603 0.81999999 7.8318907e-39
0.007068418 0.052710854 0.82200003 6.2631091e-39
0.0098957745 0.052710854 0.82200003 1.4099733e-38
0.01272313 0.052710854 0.82200003 1.6131711e-38
0.015550487 0.052710854 0.82200003 1.5301951e-38
-0.033665247 0.047495943 0.78299999 1.5673232e-38
-0.031051148 0.04761726 0.78500003 1.6593008e-38
-0.028351057 0.04761726 0.78500003 1.3827139e-38
-0.025650941 0.04761726 0.78500003 8.2906647e-39
-0.02295085 0.04761726 0.78500003 7.7374993e-39
-0.020302353 0.047738578 0.787 1.5190684e-38
-0.017707145 0.048041869 0.792 1.2701402e-38
-0.015020813 0.04816319 0.79400003 8.274184e-39
-0.012367156 0.048466485 0.79900002 9.9337053e-39
-0.0096429624 0.048587799 0.801 3.8588845e-39
-0.0069566299 0.049073074 0.80900002 8.0998793e-39
-0.0042049452 0.049437024 0.815 6.1615878e-39
-0.0014051058 0.049558342 0.81699997 7.5445181e-39
0.0014050524 0.049558342 0.81699997 8.0940919e-39
0.0042204238 0.049619004 0.81800002 8.2784832e-39
0.007068418 0.049861643 0.82200003 4.7815443e-39
0.0098957745 0.049861643 0.82200003 7.1786264e-39
0.012754087 0.049982958 0.824 1.2072593e-38
0.0157775 0.050589547 0.83399999 1.465407e-38
0.018780276 0.050953496 0.83999997 1.474948e-38
0.021746937 0.051135477 0.84299999 1.5302654e-38
0.024763528 0.051378112 0.847 1.4843121e-38
-0.033665247 0.044781871 0.78299999 1.6777032e-38
-0.030972036 0.044781871 0.78299999 1.7601025e-38
-0.028206594 0.04466749 0.78100002 1.538833e-38
-0.025520235 0.04466749 0.78100002 1.3269622e-38
-0.02295085 0.04489626 0.78500003 5.0642254e-39
-0.020302353 0.045010645 0.787 5.975047e-39
-0.017707145 0.045296606 0.792 1.2520935e-38
-0.015020813 0.045410994 0.79400003 1.0680265e-38
-0.012367156 0.045696955 0.79900002 9.4817221e-39
-0.0096429624 0.045811336 0.801 8.0955451e-39
-0.0069222338 0.04604011 0.80500001 9.3862839e-39
-0.0042049452 0.046612035 0.815 6.3489036e-39
-0.0014016661 0.046612035 0.815 6.5332948e-39
0.0014050524 0.046726421 0.81699997 7.4469443e-39
0.0042204238 0.046783619 0.81800002 1.0581596e-38
0.0070512192 0.046898 0.81999999 9.2062086e-39
0.0098957745 0.047012389 0.82200003 4.1354672e-39
0.012754087 0.047126774 0.824 6.1598278e-39
0.015739666 0.047584314 0.83200002 8.095936e-39
0.018735562 0.047927469 0.838 8.5597518e-39
0.021746937 0.048213433 0.84299999 1.5474424e-38
0.024763528 0.048442204 0.847 1.4382153e-38
0.027742226 0.048556589 0.84899998 1.4750935e-38
0.030662451 0.048556589 0.84899998 1.4566165e-38
-0.033665247 0.042067803 0.78299999 9.4953623e-39
-0.030972036 0.042067803 0.78299999 8.7534295e-39
-0.028206594 0.041960351 0.78100002 1.0320737e-38
-0.025520235 0.041960351 0.78100002 9.3944843e-39
-0.02295085 0.042175259 0.78500003 7.1818228e-39
-0.020328149 0.042336434 0.78799999 6.530006e-39
-0.01766243 0.04244389 0.79000002 9.6646574e-39
-0.015020813 0.042658795 0.79400003 9.299472e-39
-0.012351678 0.042873699 0.79799998 7.9165376e-39
-0.0096188849 0.042927425 0.79900002 8.7412662e-39
-0.0069222338 0.043249782 0.80500001 6.805158e-39
-0.0041946266 0.043679595 0.81300002 4.1358427e-39
-0.0014016661 0.043787047 0.815 5.057799e-39
0.0014050524 0.0438945 0.81699997 3.859602e-39
0.0042152638 0.0438945 0.81699997 8.0083997e-39
0.0070512192 0.044055682 0.81999999 7.3691386e-39
0.0098957745 0.044163138 0.82200003 9.0286599e-39
0.012754087 0.044270586 0.824 1.1604026e-38
0.015663994 0.044485494 0.82800001 5.5191149e-39
0.018690847 0.044915304 0.83600003 3.6752135e-39
0.021746937 0.04529139 0.84299999 9.5757324e-39
0.024763528 0.045506295 0.847 8.7412662e-39
0.027742226 0.045613747 0.84899998 1.667009e-38
0.030879151 0.045936108 0.85500002 1.5026058e-38
0.0340969 0.046312191 0.86199999 1.4841666e-38
0.037147835 0.046419647 0.86400002 1.4382496e-38
0.040119652 0.046419647 0.86400002 1.4382496e-38
0.043390773 0.046742003 0.87 1.4381774e-38
-0.033665247 0.039353773 0.78299999 1.1707378e-38
-0.030972036 0.039353773 0.78299999 1.0044908e-38
-0.028278824 0.039353773 0.78299999 8.1087999e-39
-0.025585586 0.039353773 0.78299999 8.1945244e-39
-0.023009323 0.039554816 0.787 4.2301725e-39
-0.020328149 0.03960507 0.78799999 5.5176926e-39
-0.01766243 0.039705593 0.79000002 6.4396489e-39
-0.015020813 0.039906636 0.79400003 6.8055251e-39
-0.012351678 0.040107675 0.79799998 7.1743076e-39
-0.0096188849 0.040157937 0.79900002 6.5278536e-39
-0.0069222338 0.040459495 0.80500001 7.0810246e-39
-0.0041946266 0.040861581 0.81300002 6.5286005e-39
-0.0014016661 0.0409621 0.815 7.8193393e-39
0.0014050524 0.041062616 0.81699997 6.8977207e-39
0.0042152638 0.041062616 0.81699997 8.7416333e-39
0.0070512192 0.041213401 0.81999999 5.3318496e-39
0.0098957745 0.041313924 0.82200003 5.1474583e-39
0.012754087 0.041414443 0.824 5.9804588e-39
0.015626159 0.041514963 0.82599998 5.9804588e-39
0.018601418 0.041816521 0.83200002 7.6424884e-39
0.021798532 0.042469908 0.84500003 5.3375977e-39
0.024822 0.042670947 0.84899998 5.3296874e-39
0.027872933 0.042871989 0.85299999 1.1414593e-38
0.030879151 0.042972513 0.85500002 1.6037698e-38
0.0340969 0.043324329 0.86199999 1.5300133e-38
0.037147835 0.043424852 0.86400002 1.4658361e-38
0.040398259 0.043726414 0.87 1.447397e-38
0.043390773 0.043726414 0.87 1.42903e-38
-0.03113026 0.036826879 0.787 1.5118253e-38
-0.028423289 0.036826879 0.787 7.0050378e-39
-0.025748968 0.036873672 0.78799999 3.6748548e-39
-0.023038559 0.036873672 0.78799999 4.0436317e-39
-0.020379744 0.036967263 0.79000002 6.6153843e-39
-0.017707145 0.037060849 0.792 7.9061175e-39
-0.015020813 0.03715444 0.79400003 9.7539958e-39
-0.012351678 0.03734161 0.79799998 8.0944745e-39
-0.0096429624 0.037481993 0.801 5.1481688e-39
-0.0069394317 0.037762757 0.80699998 5.793534e-39
-0.0041946266 0.038043521 0.81300002 4.2280201e-39
-0.0014016661 0.038137108 0.815 5.7031432e-39
0.0014050524 0.038230695 0.81699997 5.7906949e-39
0.0042152638 0.038230695 0.81699997 8.279977e-39
0.0070512192 0.038371082 0.81999999 7.6367529e-39
0.0098957745 0.038464673 0.82200003 7.1757748e-39
0.012754087 0.03855826 0.824 7.4552357e-39
0.015626159 0.038651846 0.82599998 5.0581494e-39
0.018601418 0.038932607 0.83200002 7.823979e-39
0.021798532 0.039540932 0.84500003 7.9161746e-39
0.024880476 0.039821696 0.85100001 6.9013585e-39
0.027872933 0.039915282 0.85299999 5.6106197e-39
0.030951381 0.040102459 0.85699999 7.9273444e-39
0.034176014 0.040430017 0.86400002 9.5868657e-39
0.037319809 0.04061719 0.86799997 1.5207938e-38
0.040398259 0.040710781 0.87 1.5207938e-38
0.043390773 0.040710781 0.87 1.4382493e-38
-0.023827951 0.035312161 0.815 1.4287767e-38
-0.021024672 0.035312161 0.815 9.5811456e-39
-0.017863648 0.034618918 0.79900002 4.7869729e-39
-0.015115402 0.034618918 0.79900002 7.8110548e-39
-0.012367156 0.034618918 0.79900002 7.4422723e-39
-0.0096670389 0.03479223 0.80299997 8.8378171e-39
-0.0069566299 0.035052195 0.80900002 9.1144039e-39
-0.0041946266 0.035225507 0.81300002 7.0857343e-39
-0.0014016661 0.035312161 0.815 7.6389081e-39
0.0014050524 0.035398815 0.81699997 7.1754217e-39
0.0042152638 0.035398815 0.81699997 9.1115299e-39
0.0070512192 0.035528801 0.81999999 4.5971712e-39
0.0098957745 0.035615459 0.82200003 4.9659537e-39
0.012754087 0.035702113 0.824 5.5184114e-39
0.015663994 0.035875425 0.82800001 3.5823032e-39
0.018601418 0.036048733 0.83200002 5.6156293e-39
0.021850126 0.036698651 0.847 5.4312381e-39
0.024938948 0.03695862 0.85299999 5.2418119e-39
0.027938288 0.037045278 0.85500002 6.9013333e-39
0.03113196 0.037348568 0.86199999 1.7502554e-39
0.034176014 0.037435226 0.86400002 3.7785537e-39
0.037319809 0.037608534 0.86799997 1.4749483e-38
0.040305387 0.037608534 0.86799997 1.4657288e-38
-0.021024672 0.032487173 0.815 1.4834862e-38
-0.018221367 0.032487173 0.815 9.1187326e-39
-0.015342416 0.032327726 0.81099999 8.0876319e-39
-0.012552896 0.032327726 0.81099999 7.9954363e-39
-0.0097874263 0.032407451 0.81300002 9.8537767e-39
-0.0069910265 0.032407451 0.81300002 9.3006029e-39
-0.0042049452 0.032487173 0.815 6.9935387e-39
-0.0014016661 0.032487173 0.815 6.8091475e-39
0.0014050524 0.032566894 0.81699997 7.6410493e-39
0.0042204238 0.032606758 0.81800002 8.5630056e-39
0.0070512192 0.032686479 0.81999999 6.9910206e-39
0.0098957745 0.032766204 0.82200003 8.7427376e-39
0.012785044 0.03292565 0.82599998 5.8879352e-39
0.015663994 0.033005375 0.82800001 3.8596314e-39
0.018601418 0.033164818 0.83200002 3.0316476e-39
0.022004908 0.034001913 0.85299999 2.4795584e-39
0.024997422 0.034081638 0.85500002 1.7950633e-42
0.028003637 0.034161359 0.85699999 1.1341858e-38
0.03113196 0.034360666 0.86199999 1.2078671e-38
0.034176014 0.034440391 0.86400002 1.4567953e-38
0.037147835 0.034440391 0.86400002 1.4934228e-38
-0.021024672 0.029662183 0.815 1.1615214e-38
-0.018221367 0.029662183 0.815 4.3317597e-39
-0.015380253 0.029589394 0.81300002 1.1220491e-38
-0.012583853 0.029589394 0.81300002 8.1780353e-39
-0.0097874263 0.029589394 0.81300002 7.9130119e-39
-0.0069910265 0.029589394 0.81300002 6.1612949e-39
-0.0041946266 0.029589394 0.81300002 4.5031777e-39
-0.0014016661 0.029662183 0.815 5.2407428e-39
0.0014050524 0.029734973 0.81699997 6.8113111e-39
0.0042204238 0.029771371 0.81800002 7.9176586e-39
0.0070512192 0.029844161 0.81999999 6.3474434e-39
0.0098957745 0.029916953 0.82200003 7.453791e-39
0.012785044 0.030062532 0.82599998 1.2438151e-38
0.015663994 0.030135324 0.82800001 1.1147412e-38
0.018556703 0.030208115 0.82999998 9.8605758e-39
0.021411575 0.030208115 0.82999998 9.5839889e-39
0.025114371 0.031263579 0.85900003 1.3090332e-38
0.028068991 0.031263579 0.85900003 1.5303027e-38
-0.021024672 0.026837233 0.815 1.419488e-38
-0.018221367 0.026837233 0.815 7.6489905e-39
-0.015380253 0.026771378 0.81300002 1.1309807e-38
-0.012583853 0.026771378 0.81300002 9.5580901e-39
-0.0097633488 0.026705517 0.81099999 1.0957616e-38
-0.0069738282 0.026705517 0.81099999 8.929312e-39
-0.0041946266 0.026771378 0.81300002 6.7151722e-39
-0.0014016661 0.026837233 0.815 5.9776071e-39
0.0014050524 0.026903091 0.81699997 7.1743609e-39
0.0042204238 0.026936024 0.81800002 5.8836221e-39
0.0070512192 0.02700188 0.81999999 4.503528e-39
0.0099198511 0.027133597 0.824 4.0425555e-39
0.012785044 0.027199455 0.82599998 1.3551323e-38
0.015663994 0.027265314 0.82800001 1.5487431e-38
0.018556703 0.027331172 0.82999998 1.4751994e-38
-0.015380253 0.02395336 0.81300002 1.1591792e-38
-0.012583853 0.02395336 0.81300002 6.8898146e-39
-0.0097633488 0.023894433 0.81099999 7.1793747e-39
-0.0069738282 0.023894433 0.81099999 6.2574184e-39
-0.0041946266 0.02395336 0.81300002 5.881799e-39
-0.0014016661 0.024012286 0.815 6.5271684e-39
0.0014050524 0.024071211 0.81699997 7.5424343e-39
0.0042204238 0.024100676 0.81800002 8.372195e-39
0.0070512192 0.024159601 0.81999999 7.2690242e-39
0.0099198511 0.024277452 0.824 7.3612198e-39
0.012754087 0.024277452 0.824 1.5025344e-38
0.015663994 0.024395306 0.82800001 1.5209736e-38
0.018556703 0.02445423 0.82999998 1.4474689e-38
-0.015380253 0.021135304 0.81300002 1.1225509e-38
-0.012583853 0.021135304 0.81300002 1.14099e-38
-0.0097633488 0.02108331 0.81099999 1.1697314e-38
-0.0069738282 0.02108331 0.81099999 1.0222184e-38
-0.0041946266 0.021135304 0.81300002 6.7119128e-39
-0.0014016661 0.021187296 0.815 6.158739e-39
0.0014050524 0.02123929 0.81699997 6.6262262e-39
0.0042204238 0.021265289 0.81800002 4.5979223e-39
0.007068418 0.021369275 0.82200003 4.5968209e-39
0.0099198511 0.021421269 0.824 3.9514515e-39
0.012754087 0.021421269 0.824 1.5301938e-38
0.015663994 0.021525254 0.82800001 1.4933156e-38
-0.015418088 0.018362308 0.815 1.0020477e-38
-0.012583853 0.018317247 0.81300002 1.3155128e-38
-0.0097633488 0.018272186 0.81099999 1.3262857e-38
-0.0069738282 0.018272186 0.81099999 7.4545323e-39
-0.0041946266 0.018317247 0.81300002 7.4548574e-39
-0.0014016661 0.018362308 0.815 7.3626618e-39
0.0014050524 0.018407367 0.81699997 8.5659021e-39
0.0042204238 0.0184299 0.81800002 6.353207e-39
0.007068418 0.018520022 0.82200003 7.2729829e-39
0.0099198511 0.018565083 0.824 8.0105479e-39
0.012754087 0.018565083 0.824 1.5394134e-38
-0.018266082 0.015575487 0.81699997 4.5143363e-39
-0.015418088 0.015537359 0.815 9.0066945e-39
-0.012583853 0.01549923 0.81300002 1.0205234e-38
-0.0097633488 0.015461101 0.81099999 7.6396424e-39
-0.0069738282 0.015461101 0.81099999 4.1362085e-39
-0.0041946266 0.01549923 0.81300002 6.5329137e-39
-0.0014016661 0.015537359 0.815 6.8095006e-39
0.0014050524 0.015575487 0.81699997 7.9216089e-39
0.0042307423 0.015632682 0.81999999 5.6167181e-39
0.007068418 0.01567081 0.82200003 7.3655386e-39
0.0099198511 0.015708938 0.824 9.9470163e-39
0.012754087 0.015708938 0.824 1.5487048e-38
-0.018266082 0.012743565 0.81699997 1.0133944e-38
-0.015418088 0.01271237 0.815 9.9358437e-39
-0.012583853 0.012681174 0.81300002 1.4269038e-38
-0.0097633488 0.012649978 0.81099999 8.3825898e-39
-0.0069738282 0.012649978 0.81099999 4.6947646e-39
-0.0042049452 0.01271237 0.815 6.8055251e-39
-0.0014051058 0.012743565 0.81699997 6.4367426e-39
0.0014067723 0.012759165 0.81800002 6.160534e-39
0.0042307423 0.01279036 0.81999999 5.0541865e-39
0.0070856158 0.012852753 0.824 4.228739e-39
0.0099198511 0.012852753 0.824 1.2249759e-38
0.012754087 0.012852753 0.824 1.4659806e-38
-0.018288441 0.0099238176 0.81800002 9.3981711e-39
-0.015455923 0.0099116843 0.81699997 7.350427e-39
-0.012614809 0.0098874215 0.815 1.1130439e-38
-0.0097874263 0.0098631578 0.81300002 6.8998675e-39
-0.0069910265 0.0098631578 0.81300002 5.4247515e-39
-0.0042152638 0.0099116843 0.81699997 6.5289606e-39
-0.0014051058 0.0099116843 0.81699997 8.8338514e-39
0.0014067723 0.0099238176 0.81800002 7.6403164e-39
0.0042410614 0.0099723451 0.82200003 6.9027514e-39
0.0070856158 0.0099966079 0.824 6.7147574e-39
0.0099439286 0.010020872 0.82599998 1.5012364e-38
0.012816 0.010045135 0.82800001 1.4199556e-38
-0.015455923 0.0070797629 0.81699997 1.1612298e-38
-0.012614809 0.0070624324 0.815 8.0166688e-39
-0.0098115029 0.0070624324 0.815 7.7325023e-39
-0.0070082243 0.0070624324 0.815 6.7183503e-39
-0.0042152638 0.0070797629 0.81699997 5.9761428e-39
-0.0014068257 0.0070884293 0.81800002 5.6995559e-39
0.0014102117 0.0071057603 0.81999999 4.2280384e-39
0.0042410614 0.0071230917 0.82200003 5.057799e-39
0.0070856158 0.0071404227 0.824 5.550277e-40
0.0099680061 0.0071750851 0.82800001 1.2632655e-38
0.012877913 0.0072097466 0.83200002 1.4382496e-38
-0.015455923 0.0042478419 0.81699997 1.3088157e-38
-0.012645765 0.0042478419 0.81699997 5.9890936e-39
-0.0098355804 0.0042478419 0.81699997 4.9727486e-39
-0.0070254221 0.0042478419 0.81699997 9.2137434e-39
-0.0042307423 0.0042634401 0.81999999 6.8170368e-39
-0.0014102653 0.0042634401 0.81999999 2.9448343e-39
0.0014136513 0.0042738388 0.82200003 3.3182986e-39
0.0042513805 0.0042842375 0.824 5.3466024e-39
0.0071200118 0.0043050349 0.82800001 1.53016e-38
0.0099920826 0.0043154331 0.82999998 1.4656231e-38
-0.015455923 0.0014159607 0.81699997 1.3181063e-38
-0.012645765 0.0014159607 0.81699997 8.2024992e-39
-0.0098476196 0.0014176939 0.81800002 4.0554699e-39
-0.0070340219 0.0014176939 0.81800002 7.2823113e-39
-0.0042307423 0.0014211602 0.81999999 6.0837877e-39
-0.0014137051 0.0014246264 0.82200003 4.7930489e-39
0.0014136513 0.0014246264 0.82200003 5.8993965e-39
0.004261699 0.0014315589 0.82599998 4.6086577e-39
0.0071372096 0.0014384914 0.82999998 1.3644915e-38
0.010016161 0.0014419575 0.83200002 1.4566872e-38
-0.015455923 -0.0014159607 0.81699997 1.336617e-38
-0.012645765 -0.0014159607 0.81699997 8.9407803e-39
-0.0098476196 -0.0014176939 0.81800002 4.5164424e-39
-0.0070340219 -0.0014176939 0.81800002 6.2681594e-39
-0.0042204238 -0.0014176939 0.81800002 6.5433169e-39
-0.0014171447 -0.0014280927 0.824 6.26673e-39
0.0014239699 -0.0014350251 0.82800001 6.1756274e-39
0.0042823367 -0.0014384914 0.82999998 6.6366056e-39
0.0071544084 -0.0014419575 0.83200002 1.2444916e-38
0.010016161 -0.0014419575 0.83200002 1.5026394e-38
-0.015474843 -0.0042530415 0.81800002 1.2536036e-38
-0.012645765 -0.0042478419 0.81699997 1.0415536e-38
-0.0098355804 -0.0042478419 0.81699997 3.965819e-39
-0.0070254221 -0.0042478419 0.81699997 5.5331447e-39
-0.0042204238 -0.0042530415 0.81800002 6.3589229e-39
-0.0014171447 -0.0042842375 0.824 5.9901404e-39
0.0014239699 -0.0043050349 0.82800001 6.1756274e-39
0.0042823367 -0.0043154331 0.82999998 5.1614755e-39
0.0071544084 -0.0043258318 0.83200002 1.1153461e-38
0.010016161 -0.0043258318 0.83200002 1.5117873e-38
0.012908869 -0.0043362305 0.83399999 1.4380698e-38
-0.015474843 -0.0070884293 0.81800002 1.2167248e-38
-0.012645765 -0.0070797629 0.81699997 1.1798465e-38
-0.0098355804 -0.0070797629 0.81699997 5.0707344e-39
-0.0070254221 -0.0070797629 0.81699997 6.177082e-39
-0.0042204238 -0.0070884293 0.81800002 6.1756274e-39
-0.0014171447 -0.0071404227 0.824 5.8990405e-39
0.0014239699 -0.0071750851 0.82800001 6.2678231e-39
0.0042823367 -0.0071924161 0.82999998 5.6224537e-39
0.0071544084 -0.0072097466 0.83200002 8.757454e-39
0.010016161 -0.0072097466 0.83200002 1.4657974e-38
0.012908869 -0.0072270781 0.83399999 1.4014076e-38
-0.015455923 -0.0099116443 0.81699997 1.1429688e-38
-0.012645765 -0.0099116443 0.81699997 1.2259449e-38
-0.0098355804 -0.0099116443 0.81699997 6.6369545e-39
-0.0070254221 -0.0099116443 0.81699997 6.4525632e-39
-0.0042204238 -0.0099237766 0.81800002 6.2678231e-39
-0.0014171447 -0.0099965669 0.824 5.8990405e-39
0.0014205304 -0.010020831 0.82599998 6.0827283e-39
0.0042823367 -0.010069357 0.82999998 5.8983371e-39
0.0071544084 -0.010093621 0.83200002 7.3749091e-39
0.010016161 -0.010093621 0.83200002 1.4658364e-38
0.012877913 -0.010093621 0.83200002 1.3830038e-38
-0.015455923 -0.012743565 0.81699997 1.1705923e-38
-0.012645765 -0.012743565 0.81699997 1.262788e-38
-0.0098355804 -0.012743565 0.81699997 7.5592667e-39
-0.0070254221 -0.012743565 0.81699997 6.6373104e-39
-0.0042152638 -0.012743565 0.81699997 6.082336e-39
-0.0014171447 -0.012852753 0.824 6.3589229e-39
0.0014205304 -0.012883948 0.82599998 6.8202668e-39
0.0042823367 -0.01294634 0.82999998 8.2953968e-39
0.0071544084 -0.012977536 0.83200002 8.1139189e-39
0.010016161 -0.012977536 0.83200002 1.419883e-38
0.012877913 -0.012977536 0.83200002 1.3828966e-38
-0.015455923 -0.015575446 0.81699997 1.225946e-38
-0.012645765 -0.015575446 0.81699997 1.2720438e-38
-0.0098355804 -0.015575446 0.81699997 7.7440111e-39
-0.0070254221 -0.015575446 0.81699997 7.4674242e-39
-0.0042152638 -0.015575446 0.81699997 6.9128323e-39
-0.0014137051 -0.015670769 0.82200003 7.3738105e-39
0.0014239699 -0.015785154 0.82800001 9.4935883e-39
0.0042823367 -0.015823282 0.82999998 8.6638276e-39
0.0071372096 -0.015823282 0.82999998 9.2209699e-39
0.010016161 -0.015861411 0.83200002 1.4107338e-38
0.012877913 -0.015861411 0.83200002 1.373677e-38
-0.015455923 -0.018407367 0.81699997 1.2352005e-38
-0.012645765 -0.018407367 0.81699997 1.2997374e-38
-0.0098355804 -0.018407367 0.81699997 7.6496519e-39
-0.0070254221 -0.018407367 0.81699997 8.5716082e-39
-0.0042152638 -0.018407367 0.81699997 6.6366056e-39
-0.0014102653 -0.018474961 0.81999999 6.5444099e-39
0.0014205304 -0.018610142 0.82599998 7.004658e-39
0.0042823367 -0.018700264 0.82999998 6.8202668e-39
0.0071372096 -0.018700264 0.82999998 1.1616258e-38
0.0099920826 -0.018700264 0.82999998 1.4197736e-38
0.012846956 -0.018700264 0.82999998 1.3828956e-38
-0.015455923 -0.021239249 0.81699997 1.2997364e-38
-0.012645765 -0.021239249 0.81699997 1.2536386e-38
-0.0098355804 -0.021239249 0.81699997 7.3738049e-39
-0.0070254221 -0.021239249 0.81699997 8.4801524e-39
-0.0042152638 -0.021239249 0.81699997 7.4638425e-39
-0.0014102653 -0.02131724 0.81999999 6.7262775e-39
0.0014205304 -0.02147322 0.82599998 6.5433169e-39
0.0042823367 -0.021577207 0.82999998 8.3872295e-39
0.0071372096 -0.021577207 0.82999998 1.1891396e-38
0.0099920826 -0.021577207 0.82999998 1.4472874e-38
0.012846956 -0.021577207 0.82999998 1.3736758e-38
-0.015474843 -0.024100635 0.81800002 1.2258715e-38
-0.012645765 -0.02407117 0.81699997 1.3088475e-38
-0.0098355804 -0.02407117 0.81699997 7.3748727e-39
-0.0070254221 -0.02407117 0.81699997 7.8358508e-39
-0.0042152638 -0.02407117 0.81699997 7.6514469e-39
-0.0014068257 -0.024100635 0.81800002 5.7153387e-39
0.0014205304 -0.024336338 0.82599998 6.9095813e-39
0.0042720181 -0.024395265 0.82800001 6.6329944e-39
0.0071372096 -0.024454189 0.82999998 7.9258506e-39
0.0099920826 -0.024454189 0.82999998 1.4932718e-38
0.012877913 -0.024513114 0.83200002 1.346089e-38
-0.015474843 -0.026936024 0.81800002 1.2442772e-38
-0.012645765 -0.026903091 0.81699997 1.3733511e-38
-0.0098355804 -0.026903091 0.81699997 7.9283968e-39
-0.0070254221 -0.026903091 0.81699997 7.8362011e-39
-0.0042152638 -0.026903091 0.81699997 6.9128127e-39
-0.0014068257 -0.026936024 0.81800002 5.7142695e-39
0.0014205304 -0.027199455 0.82599998 5.8997426e-39
0.0042720181 -0.027265314 0.82800001 6.2685251e-39
0.0071544084 -0.027397029 0.83200002 6.6340384e-39
0.010016161 -0.027397029 0.83200002 1.5116036e-38
0.012877913 -0.027397029 0.83200002 1.3276859e-38
-0.015455923 -0.029734973 0.81699997 1.3088142e-38
-0.012645765 -0.029734973 0.81699997 1.3733511e-38
-0.0098355804 -0.029734973 0.81699997 9.4942833e-39
-0.0070254221 -0.029734973 0.81699997 8.2957402e-39
-0.0042152638 -0.029734973 0.81699997 6.6355266e-39
-0.0014102653 -0.029844161 0.81999999 5.6213747e-39
0.0014205304 -0.030062532 0.82599998 5.8054002e-39
0.0042823367 -0.030208115 0.82999998 6.4507696e-39
0.0071544084 -0.030280903 0.83200002 4.8845005e-39
0.010016161 -0.030280903 0.83200002 1.4196255e-38
0.012877913 -0.030280903 0.83200002 1.3184666e-38
-0.015455923 -0.032566894 0.81699997 1.437888e-38
-0.012645765 -0.032566894 0.81699997 1.3456924e-38
-0.0098355804 -0.032566894 0.81699997 7.6525287e-39
-0.0070254221 -0.032566894 0.81699997 8.7588763e-39
-0.0042152638 -0.032566894 0.81699997 5.9901404e-39
-0.0014137051 -0.032766204 0.82200003 5.8979447e-39
0.0014239699 -0.033005375 0.82800001 5.8993965e-39
0.0042823367 -0.033085097 0.82999998 7.3745265e-39
0.0071544084 -0.033164818 0.83200002 6.271451e-39
0.010016161 -0.033164818 0.83200002 1.3093928e-38
0.012877913 -0.033164818 0.83200002 1.3276143e-38
-0.018266082 -0.035398774 0.81699997 1.428849e-38
-0.015455923 -0.035398774 0.81699997 1.3364738e-38
-0.012645765 -0.035398774 0.81699997 1.2258391e-38
-0.0098355804 -0.035398774 0.81699997 8.2953842e-39
-0.0070254221 -0.035398774 0.81699997 8.7563624e-39
-0.0042152638 -0.035398774 0.81699997 4.8845005e-39
-0.0014137051 -0.035615418 0.82200003 5.8986482e-39
0.0014239699 -0.035875384 0.82800001 6.6359021e-39
0.0042823367 -0.035962038 0.82999998 6.174924e-39
0.0071544084 -0.036048692 0.83200002 9.5869008e-39
0.010016161 -0.036048692 0.83200002 1.4012291e-38
0.012877913 -0.036048692 0.83200002 1.3184666e-38
-0.015455923 -0.038230695 0.81699997 1.3549486e-38
-0.012645765 -0.038230695 0.81699997 1.1613377e-38
-0.0098355804 -0.038230695 0.81699997 7.7422006e-39
-0.0070254221 -0.038230695 0.81699997 8.5719613e-39
-0.0042152638 -0.038230695 0.81699997 4.3320567e-39
-0.0014171447 -0.03855826 0.824 6.6369475e-39
0.0014239699 -0.038745433 0.82800001 6.2671196e-39
0.0042823367 -0.03883902 0.82999998 6.7280978e-39
0.0071372096 -0.03883902 0.82999998 9.2202566e-39
0.0099920826 -0.03883902 0.82999998 1.3461256e-38
0.012877913 -0.038932607 0.83200002 1.3275429e-38
-0.015418088 -0.040962059 0.815 1.3182456e-38
-0.012614809 -0.040962059 0.815 1.0324392e-38
-0.0098115029 -0.040962059 0.815 7.0060439e-39
-0.0070082243 -0.040962059 0.815 8.2967687e-39
-0.0042152638 -0.041062579 0.81699997 2.9502251e-39
-0.0014171447 -0.041414402 0.824 3.7799858e-39
0.0014239699 -0.041615445 0.82800001 7.8366159e-39
0.0042720181 -0.041615445 0.82800001 7.7444203e-39
0.0071200118 -0.041615445 0.82800001 1.0787933e-38
0.0099680061 -0.041615445 0.82800001 1.3092823e-38
0.012877913 -0.04181648 0.83200002 1.3000277e-38
-0.015304581 -0.04346469 0.80900002 1.7786845e-38
-0.012521939 -0.04346469 0.80900002 1.7879041e-38
-0.0097633488 -0.043572139 0.81099999 1.5662733e-38
-0.0069738282 -0.043572139 0.81099999 1.510956e-38
-0.0041843075 -0.043572139 0.81099999 8.1127908e-39
-0.0014171447 -0.044270586 0.824 8.0205952e-39
0.0014170909 -0.044270586 0.824 1.2809046e-38
0.0042513805 -0.044270586 0.824 1.400759e-38
0.0070856158 -0.044270586 0.824 1.5389779e-38
0.0099198511 -0.044270586 0.824 1.4375627e-38
0.012754087 -0.044270586 0.824 1.31843e-38
-0.018042507 -0.046154454 0.80699998 1.7975578e-38
-0.015266744 -0.046154454 0.80699998 1.9628613e-38
-0.012490982 -0.046154454 0.80699998 1.6678352e-38
-0.0096911173 -0.046040069 0.80500001 1.6495403e-38
-0.0069222338 -0.046040069 0.80500001 1.5389056e-38
-0.0041636694 -0.046154454 0.80699998 8.8474888e-39
-0.0014171447 -0.047126733 0.824 9.4006626e-39
0.0014170909 -0.047126733 0.824 1.2440967e-38
0.0042410614 -0.047012348 0.82200003 1.2994141e-38
0.007068418 -0.047012348 0.82200003 1.3823875e-38
0.0098716961 -0.046897963 0.81999999 1.1150202e-38
0.012692173 -0.046897963 0.81999999 1.5022455e-38
0.015512651 -0.046897963 0.81999999 1.6313194e-38
-0.017997792 -0.048830397 0.80500001 1.6867044e-38
-0.015228909 -0.048830397 0.80500001 1.7413766e-38
-0.012429069 -0.04870908 0.80299997 1.2527398e-38
-0.0096670389 -0.04870908 0.80299997 1.1516853e-38
-0.0069050356 -0.04870908 0.80299997 9.9495274e-39
-0.0041430318 -0.04870908 0.80299997 7.8315488e-39
-0.0013844678 -0.048830397 0.80500001 4.6968974e-39
0.0014050524 -0.049558301 0.81699997 4.6111464e-39
0.0042152638 -0.049558301 0.81699997 7.3770153e-39
0.0070340219 -0.049618967 0.81800002 8.384696e-39
0.0098716961 -0.049740281 0.81999999 5.5266315e-39
0.012692173 -0.049740281 0.81999999 1.0972334e-38
0.015512651 -0.049740281 0.81999999 1.4567963e-38
-0.017997792 -0.051620722 0.80500001 2.2155313e-39
-0.015228909 -0.051620722 0.80500001 5.0222537e-42
-0.012429069 -0.051492475 0.80299997 2.8698593e-42
-0.0096670389 -0.051492475 0.80299997 3.2285917e-42
-0.0069050356 -0.051492475 0.80299997 5.5349622e-39
-0.0041430318 -0.051492475 0.80299997 1.2166546e-38
-0.0013844678 -0.051620722 0.80500001 1.3180697e-38
0.0014050524 -0.052390222 0.81699997 1.2261996e-38
0.0042152638 -0.052390222 0.81699997 1.1801018e-38
0.0070340219 -0.052454352 0.81800002 1.3089952e-38
0.0098716961 -0.052582603 0.81999999 1.3919713e-38
0.012692173 -0.052582603 0.81999999 1.567361e-38
