# .PCD v0.7 - Point Cloud Data file format
VERSION 0.7
FIELDS x y z rgb
SIZE 4 4 4 4
TYPE F F F F
COUNT 1 1 1 1
WIDTH 991
HEIGHT 1
VIEWPOINT 0 0 0 1 0 0 0
POINTS 991
DATA ascii
0.043328848 0.032939523 0.442 1.1701986e-38
0.044849154 0.032939523 0.442 1.5482006e-38
0.046369459 0.032939523 0.442 1.2721491e-38
0.047889765 0.032939523 0.442 1.4657599e-38
0.049410071 0.032939523 0.442 1.4291013e-38
-0.00077736576 0.032118015 0.45199999 4.0504644e-39
0.00077733624 0.032118015 0.45199999 3.8639124e-39
0.0023320678 0.032118015 0.45199999 3.956108e-39
0.0038867698 0.032118015 0.45199999 4.2305369e-39
0.0054414719 0.032118015 0.45199999 4.3227325e-39
0.0069806958 0.032046959 0.45100001 3.956108e-39
0.0085319579 0.032046959 0.45100001 4.2326949e-39
0.01008322 0.032046959 0.45100001 4.2319858e-39
0.011634483 0.032046959 0.45100001 4.4163771e-39
0.013215011 0.032118015 0.45199999 5.2439699e-39
0.014802391 0.032189075 0.45300001 4.8751874e-39
0.016396647 0.032260131 0.454 3.956108e-39
0.017997785 0.032331191 0.45500001 6.0766075e-39
0.019605801 0.032402247 0.456 9.4871269e-39
0.020663477 0.031620614 0.44499999 6.4446711e-39
0.022194132 0.031620614 0.44499999 9.9444785e-39
0.023938013 0.031904846 0.449 8.1927615e-39
0.025482398 0.031904846 0.449 7.0810708e-39
0.02702678 0.031904846 0.449 7.8186359e-39
0.028571162 0.031904846 0.449 9.0160776e-39
0.030115547 0.031904846 0.449 5.7892306e-39
0.031589419 0.031833787 0.44800001 8.8345801e-39
0.033130392 0.031833787 0.44800001 9.848732e-39
0.03459394 0.03176273 0.447 1.1695528e-38
0.036050614 0.031691674 0.44600001 9.3906377e-39
0.037500408 0.031620614 0.44499999 9.0099666e-39
0.038943324 0.031549558 0.44400001 1.2236814e-38
0.040470511 0.031549558 0.44400001 1.3439646e-38
0.041903105 0.031478498 0.44299999 1.0765973e-38
0.043328848 0.031407442 0.442 1.3079179e-38
0.044849154 0.031407442 0.442 1.7781156e-38
0.046264555 0.031336386 0.44100001 1.455391e-38
0.047781423 0.031336386 0.44100001 1.89793e-38
0.049186498 0.031265326 0.44 1.1330239e-38
0.050699927 0.031265326 0.44 1.3174152e-38
0.052213382 0.031265326 0.44 1.4007574e-38
0.053726807 0.031265326 0.44 1.55749e-38
0.055240232 0.031265326 0.44 1.4198105e-38
0.056753661 0.031265326 0.44 1.42903e-38
0.057869814 0.031052155 0.43700001 1.4013723e-38
0.059372921 0.031052155 0.43700001 1.4013723e-38
-0.0072128847 0.031497553 0.46599999 1.5119342e-38
-0.0056100129 0.031497553 0.46599999 1.4379259e-38
-0.0040071565 0.031497553 0.46599999 1.1889977e-38
-0.0023785029 0.031159597 0.461 1.0314357e-38
-0.00079284434 0.031159597 0.461 5.2435972e-39
0.00079281419 0.031159597 0.461 3.3093163e-39
0.0023785029 0.031159597 0.461 3.6780988e-39
0.0038867698 0.030551273 0.45199999 3.7706475e-39
0.0054414719 0.030551273 0.45199999 3.9550388e-39
0.0069961739 0.030551273 0.45199999 4.0472442e-39
0.0085508758 0.030551273 0.45199999 4.1394399e-39
0.010105577 0.030551273 0.45199999 4.6915248e-39
0.01166028 0.030551273 0.45199999 4.8759161e-39
0.013215011 0.030551273 0.45199999 4.0475946e-39
0.014802391 0.030618867 0.45300001 2.7568585e-39
0.016396647 0.030686457 0.454 1.2871319e-39
0.017602229 0.030078137 0.44499999 4.4217805e-39
0.019132853 0.030078137 0.44499999 6.3424338e-39
0.020663477 0.030078137 0.44499999 7.9097595e-39
0.022194132 0.030078137 0.44499999 6.8084244e-39
0.02377807 0.030145729 0.44600001 5.8864681e-39
0.025482398 0.030348502 0.449 6.2516507e-39
0.02702678 0.030348502 0.449 8.8331283e-39
0.028571162 0.030348502 0.449 9.5707158e-39
0.030115547 0.030348502 0.449 6.8970425e-39
0.031589419 0.03028091 0.44800001 1.0499146e-38
0.033130392 0.03028091 0.44800001 1.0499146e-38
0.03459394 0.030213321 0.447 1.3263936e-38
0.035969783 0.030078137 0.44499999 9.2995239e-39
0.037500408 0.030078137 0.44499999 1.0402274e-38
0.038943324 0.030010546 0.44400001 1.19696e-38
0.040379357 0.029942954 0.44299999 1.2517717e-38
0.041808512 0.029875364 0.442 8.2767175e-39
0.043328848 0.029875364 0.442 1.4647226e-38
0.044747688 0.029807772 0.44100001 1.225014e-38
0.046159644 0.029740181 0.44 1.593293e-38
0.047673073 0.029740181 0.44 1.4826583e-38
0.049186498 0.029740181 0.44 1.0210631e-38
0.050699927 0.029740181 0.44 1.3160891e-38
0.052094713 0.029672589 0.43900001 1.4560063e-38
0.053604703 0.029672589 0.43900001 1.6219584e-38
0.05498914 0.029604997 0.43799999 1.4104104e-38
0.056366704 0.029537408 0.43700001 1.4104104e-38
0.057869814 0.029537408 0.43700001 1.3829316e-38
0.059237055 0.029469814 0.43599999 1.3644925e-38
0.060736723 0.029469814 0.43599999 1.3369761e-38
0.062236421 0.029469814 0.43599999 1.3738543e-38
0.06344372 0.029334631 0.43399999 1.3829332e-38
-0.0088157412 0.029882306 0.46599999 1.4834123e-38
-0.0072128847 0.029882306 0.46599999 1.5387297e-38
-0.0055979742 0.029818183 0.465 1.1510665e-38
-0.0039813593 0.029689932 0.463 1.07731e-38
-0.0023785029 0.029561682 0.461 7.5488537e-39
-0.00079284434 0.029561682 0.461 4.5063979e-39
0.00079281419 0.029561682 0.461 3.7670574e-39
0.0023785029 0.029561682 0.461 3.3060793e-39
0.0038867698 0.028984554 0.45199999 3.4000728e-39
0.0054414719 0.028984554 0.45199999 3.584464e-39
0.0069497391 0.028792182 0.449 3.5837367e-39
0.0084941229 0.028792182 0.449 6.5339927e-39
0.010038505 0.028792182 0.449 4.2273027e-39
0.011582889 0.028792182 0.449 8.3761004e-39
0.013068828 0.028663931 0.447 5.7910327e-39
0.014573655 0.028599806 0.44600001 7.5427496e-39
0.016107719 0.028599806 0.44600001 9.0178559e-39
0.017602229 0.028535681 0.44499999 8.8334646e-39
0.019132853 0.028535681 0.44499999 6.9845718e-39
0.020663477 0.028535681 0.44499999 1.104118e-38
0.022194132 0.028535681 0.44499999 6.5325536e-39
0.02377807 0.028599806 0.44600001 4.2276628e-39
0.025482398 0.028792182 0.449 2.5724701e-39
0.02702678 0.028792182 0.449 3.6788176e-39
0.028571162 0.028792182 0.449 5.0535083e-39
0.030115547 0.028792182 0.449 4.2244651e-39
0.031659931 0.028792182 0.449 5.1539673e-39
0.033130392 0.028728055 0.44800001 5.4305542e-39
0.03459394 0.028663931 0.447 7.5496146e-39
0.035969783 0.028535681 0.44499999 3.6773981e-39
0.037500408 0.028535681 0.44499999 6.7105003e-39
0.038943324 0.028471556 0.44400001 8.6466085e-39
0.040288206 0.028343305 0.442 9.1082901e-39
0.041808512 0.028343305 0.442 6.3424212e-39
0.043230824 0.028279182 0.44100001 1.3449412e-38
0.044646218 0.028215054 0.44 9.3928041e-39
0.046159644 0.028215054 0.44 1.4831618e-38
0.047673073 0.028215054 0.44 9.5764667e-39
0.049074713 0.028150931 0.43900001 1.0214971e-38
0.0505847 0.028150931 0.43900001 1.6023296e-38
0.052094713 0.028150931 0.43900001 1.8062788e-38
0.053482592 0.028086804 0.43799999 1.4374962e-38
0.054863598 0.02802268 0.43700001 1.5393035e-38
0.056366704 0.02802268 0.43700001 1.61306e-38
0.057737388 0.027958553 0.43599999 1.7511716e-38
0.05910119 0.027894428 0.435 1.7235129e-38
0.06059742 0.027894428 0.435 1.6682668e-38
0.061950929 0.027830303 0.43399999 1.5760712e-38
0.06344372 0.027830303 0.43399999 1.3645294e-38
-0.015521269 0.028812991 0.47499999 1.4648653e-38
-0.013858221 0.028752333 0.47400001 6.6276331e-39
-0.012227847 0.028752333 0.47400001 1.2153616e-38
-0.010597458 0.028752333 0.47400001 1.2798985e-38
-0.0088157412 0.028267059 0.46599999 1.5016719e-38
-0.0072128847 0.028267059 0.46599999 1.5293306e-38
-0.0055859354 0.028145742 0.46399999 4.2341186e-39
-0.0039813593 0.028085083 0.463 2.9433994e-39
-0.0023888217 0.028085083 0.463 9.5710689e-39
-0.00079284434 0.027963765 0.461 9.2022864e-39
0.00079109438 0.027903108 0.46000001 8.5558198e-39
0.0023423866 0.027539153 0.454 6.6197115e-39
0.0038867698 0.027417835 0.45199999 9.3823616e-39
0.0054414719 0.027417835 0.45199999 1.0396514e-38
0.0069497391 0.02723586 0.449 8.2817104e-39
0.0084752049 0.027175199 0.44800001 1.5196383e-38
0.0099937906 0.027114542 0.447 1.0398985e-38
0.011531294 0.027114542 0.447 1.2150702e-38
0.013039591 0.027053883 0.44600001 8.0047872e-39
0.014573655 0.027053883 0.44600001 9.3877216e-39
0.016071605 0.026993223 0.44499999 9.6610813e-39
0.017602229 0.026993223 0.44499999 9.2922988e-39
0.019132853 0.026993223 0.44499999 8.556561e-39
0.020663477 0.026993223 0.44499999 1.2244386e-38
0.022194132 0.026993223 0.44499999 8.5586602e-39
0.023724757 0.026993223 0.44499999 7.0835301e-39
0.025368888 0.027114542 0.447 5.5122822e-39
0.027086971 0.027296517 0.44999999 6.1576502e-39
0.028571162 0.02723586 0.449 6.799414e-39
0.030115547 0.02723586 0.449 5.8774718e-39
0.031659931 0.02723586 0.449 7.3605514e-39
0.033130392 0.027175199 0.44800001 6.4385951e-39
0.034516551 0.027053883 0.44600001 7.8204407e-39
0.035969783 0.026993223 0.44499999 4.6857893e-39
0.037500408 0.026993223 0.44499999 6.3420835e-39
0.038943324 0.026932565 0.44400001 6.6186704e-39
0.040288206 0.026811248 0.442 6.1551334e-39
0.041713927 0.026750589 0.44100001 6.1551334e-39
0.043230824 0.026750589 0.44100001 7.0940469e-39
0.044646218 0.026689928 0.44 2.9452435e-39
0.046159644 0.026689928 0.44 6.9982359e-39
0.047564723 0.026629271 0.43900001 2.3884544e-39
0.049074713 0.026629271 0.43900001 4.8719448e-39
0.050469469 0.02656861 0.43799999 1.3999305e-38
0.051976044 0.02656861 0.43799999 1.446962e-38
0.053360492 0.026507953 0.43700001 1.0413012e-38
0.054863598 0.026507953 0.43700001 1.6219909e-38
0.056237716 0.026447292 0.43599999 1.5666735e-38
0.057604961 0.026386634 0.435 1.5113876e-38
0.05910119 0.026386634 0.435 1.4652897e-38
0.060458113 0.026325975 0.43399999 1.4653283e-38
0.061950929 0.026325975 0.43399999 1.6773782e-38
0.06344372 0.026325975 0.43399999 1.5301565e-38
-0.015488594 0.027109332 0.47400001 1.5751776e-38
-0.013858221 0.027109332 0.47400001 9.4824732e-39
-0.012227847 0.027109332 0.47400001 1.3163449e-38
-0.010597458 0.027109332 0.47400001 1.4269796e-38
-0.0087968232 0.026594598 0.465 1.1693338e-38
-0.0071974061 0.026594598 0.465 7.7289261e-39
-0.0055859354 0.026537403 0.46399999 2.7604613e-39
-0.0039813593 0.026480213 0.463 2.2994831e-39
-0.0023888217 0.026480213 0.463 1.1510774e-38
-0.00078252528 0.026022671 0.45500001 1.2063948e-38
0.00078077574 0.025965478 0.454 1.0312594e-38
0.0023372273 0.025908286 0.45300001 7.085747e-39
0.0038781709 0.025793901 0.45100001 9.9362739e-39
0.0054173945 0.025736708 0.44999999 9.4752958e-39
0.0069497391 0.025679516 0.449 7.7199214e-39
0.0084752049 0.025622323 0.44800001 1.3897022e-38
0.0099937906 0.025565131 0.447 8.4603451e-39
0.011531294 0.025565131 0.447 1.205597e-38
0.013039591 0.025507938 0.44600001 5.5130136e-39
0.014540979 0.025450744 0.44499999 6.0661874e-39
0.016071605 0.025450744 0.44499999 6.8912818e-39
0.017602229 0.025450744 0.44499999 7.4444555e-39
0.019132853 0.025450744 0.44499999 6.2473319e-39
0.020663477 0.025450744 0.44499999 1.0396135e-38
0.022194132 0.025450744 0.44499999 7.6342166e-39
0.023724757 0.025450744 0.44499999 7.7264122e-39
0.025312135 0.025507938 0.44600001 7.0846329e-39
0.027086971 0.025736708 0.44999999 7.822198e-39
0.028634794 0.025736708 0.44999999 9.6618002e-39
0.030115547 0.025679516 0.449 6.2505619e-39
0.031589419 0.025622323 0.44800001 9.8516411e-39
0.033130392 0.025622323 0.44800001 8.0999241e-39
0.034516551 0.025507938 0.44600001 1.0310098e-38
0.035969783 0.025450744 0.44499999 6.7144687e-39
0.037500408 0.025450744 0.44499999 7.3540648e-39
0.038943324 0.025393553 0.44400001 7.9072386e-39
0.040288206 0.025279166 0.442 7.2585971e-39
0.041713927 0.025221976 0.44100001 8.3649447e-39
0.043132793 0.025164781 0.44 9.9416633e-39
0.044646218 0.025164781 0.44 7.4523813e-39
0.046054736 0.025107589 0.43900001 8.8352835e-39
0.047456373 0.025050396 0.43799999 4.6864802e-39
0.048962921 0.025050396 0.43799999 8.09588e-39
0.050354246 0.024993204 0.43700001 1.3812009e-38
0.051857382 0.024993204 0.43700001 1.1521853e-38
0.053360492 0.024993204 0.43700001 8.8481797e-39
0.054738048 0.024936009 0.43599999 1.3084881e-38
0.056237716 0.024936009 0.43599999 1.2716098e-38
0.057604961 0.024878819 0.435 1.1795912e-38
0.05910119 0.024878819 0.435 1.078176e-38
0.060458113 0.024821624 0.43399999 1.1150189e-38
0.061950929 0.024821624 0.43399999 1.1150189e-38
0.06344372 0.024821624 0.43399999 1.0045302e-38
-0.02548412 0.025681239 0.47799999 1.3345239e-38
-0.023790114 0.025627512 0.477 1.4912565e-38
-0.022102987 0.025573786 0.47600001 1.3156582e-38
-0.02046572 0.025573786 0.47600001 1.4908299e-38
-0.018749356 0.025466334 0.47400001 1.6583695e-38
-0.017118983 0.025466334 0.47400001 1.3910021e-38
-0.015455917 0.025412606 0.47299999 1.5935439e-38
-0.013799746 0.02535888 0.472 9.2051576e-39
-0.012176252 0.02535888 0.472 1.445274e-38
-0.010552743 0.02535888 0.472 9.8429586e-39
-0.0087968232 0.024982795 0.465 7.9151223e-39
-0.0071974061 0.024982795 0.465 5.1492534e-39
-0.0055859354 0.024929067 0.46399999 8.8331732e-39
-0.0039813593 0.024875341 0.463 6.620478e-39
-0.0023888217 0.024875341 0.463 1.0863587e-38
-0.00078252528 0.02444553 0.45500001 9.204066e-39
0.00078077574 0.024391802 0.454 9.2934254e-39
0.0023372273 0.024338078 0.45300001 5.6056002e-39
0.0038781709 0.024230624 0.45100001 7.8125374e-39
0.0054173945 0.024176897 0.44999999 7.7203418e-39
0.0069497391 0.024123173 0.449 4.5939272e-39
0.0084752049 0.024069445 0.44800001 1.0125662e-38
0.0099937906 0.024015719 0.447 3.5862563e-39
0.011505498 0.023961993 0.44600001 8.1038421e-39
0.013039591 0.023961993 0.44600001 1.5637258e-39
0.014540979 0.023908267 0.44499999 2.3012908e-39
0.016071605 0.023908267 0.44499999 5.5144458e-39
0.017602229 0.023908267 0.44499999 5.5144458e-39
0.019132853 0.023908267 0.44499999 3.3078715e-39
0.020663477 0.023908267 0.44499999 7.6410619e-39
0.022194132 0.023908267 0.44499999 6.6276359e-39
0.023724757 0.023908267 0.44499999 3.861767e-39
0.025255382 0.023908267 0.44499999 6.7072198e-39
0.02702678 0.024123173 0.449 8.3667397e-39
0.028507531 0.024069445 0.44800001 8.2749449e-39
0.029981401 0.024015719 0.447 6.7998148e-39
0.031518903 0.024015719 0.447 1.0957989e-38
0.032982487 0.023961993 0.44600001 8.376511e-39
0.034516551 0.023961993 0.44600001 1.1879222e-38
0.035969783 0.023908267 0.44499999 7.2694404e-39
0.037500408 0.023908267 0.44499999 7.6360397e-39
0.038943324 0.023854541 0.44400001 9.0189741e-39
0.040288206 0.023747087 0.442 8.1820304e-39
0.041713927 0.023693362 0.44100001 1.1869856e-38
0.043132793 0.023639634 0.44 1.1607654e-38
0.044646218 0.023639634 0.44 1.0777894e-38
0.046054736 0.023585908 0.43900001 1.0867906e-38
0.047456373 0.02353218 0.43799999 6.0737334e-39
0.048962921 0.02353218 0.43799999 8.4675436e-39
0.050354246 0.023478454 0.43700001 1.2155369e-38
0.051857382 0.023478454 0.43700001 1.0779634e-38
0.053360492 0.023478454 0.43700001 8.8435259e-39
0.054738048 0.023424728 0.43599999 1.1976728e-38
0.056237716 0.023424728 0.43599999 1.1976728e-38
0.057604961 0.023371002 0.435 1.1427142e-38
0.05910119 0.023371002 0.435 1.1058359e-38
0.060458113 0.023317274 0.43399999 1.0321498e-38
0.061950929 0.023317274 0.43399999 9.030759e-39
0.06344372 0.023317274 0.43399999 6.8242591e-39
-0.027128253 0.024024397 0.47799999 1.4090029e-38
-0.025430806 0.023974137 0.477 9.1046285e-39
-0.023740241 0.023923878 0.47600001 1.2239267e-38
-0.022056552 0.023873616 0.47499999 9.2937379e-39
-0.02037973 0.023823356 0.47400001 1.2612781e-38
-0.018709799 0.023773097 0.47299999 1.2899835e-38
-0.01704675 0.023722837 0.472 1.2899835e-38
-0.01542324 0.023722837 0.472 1.1882774e-38
-0.01377051 0.023672575 0.47099999 8.3793402e-39
-0.012124658 0.023622315 0.47 1.1960602e-38
-0.010463312 0.023521794 0.46799999 6.9820383e-39
-0.0088157412 0.023421274 0.46599999 9.296605e-39
-0.0071974061 0.023371015 0.465 7.1761055e-39
-0.0055979742 0.023371015 0.465 9.8505495e-39
-0.0039899582 0.023320753 0.46399999 8.0988325e-39
-0.0023836624 0.023220234 0.46200001 7.546002e-39
-0.00078424515 0.022918671 0.456 7.4538064e-39
0.00078077574 0.02281815 0.454 7.0911728e-39
0.0023372273 0.02276789 0.45300001 2.5735869e-39
0.0038781709 0.022667371 0.45100001 7.4462506e-39
0.0054173945 0.022617111 0.44999999 8.09162e-39
0.0069497391 0.022566851 0.449 5.6062701e-39
0.0084752049 0.02251659 0.44800001 1.3074109e-38
0.0099937906 0.02246633 0.447 8.1005827e-39
0.011505498 0.02241607 0.44600001 1.2618169e-38
0.013039591 0.02241607 0.44600001 6.354286e-39
0.014540979 0.022365808 0.44499999 6.7230685e-39
0.016071605 0.022365808 0.44499999 9.5710437e-39
0.017602229 0.022365808 0.44499999 9.7554349e-39
0.019089859 0.022315551 0.44400001 6.8055475e-39
0.020617044 0.022315551 0.44400001 1.1138742e-38
0.022144258 0.022315551 0.44400001 1.0501279e-38
0.023671443 0.022315551 0.44400001 5.983693e-39
0.025255382 0.022365808 0.44499999 3.3075142e-39
0.0268462 0.02241607 0.44600001 4.2294705e-39
0.028443897 0.02246633 0.447 4.4106318e-39
0.029981401 0.02246633 0.447 4.5028274e-39
0.031518903 0.02246633 0.447 9.0258265e-39
0.032982487 0.02241607 0.44600001 5.7067838e-39
0.034516551 0.02241607 0.44600001 1.0957253e-38
0.035969783 0.022365808 0.44499999 4.5957545e-39
0.037500408 0.022365808 0.44499999 6.7998176e-39
0.038943324 0.022315551 0.44400001 7.3529914e-39
0.040379357 0.022265289 0.44299999 7.2582818e-39
0.041713927 0.022164769 0.44100001 8.8256075e-39
0.043230824 0.022164769 0.44100001 8.8338766e-39
0.044646218 0.022114508 0.44 8.9260722e-39
0.046054736 0.022064248 0.43900001 8.0047998e-39
0.047456373 0.022013986 0.43799999 5.0545396e-39
0.048962921 0.022013986 0.43799999 6.9909842e-39
0.050354246 0.021963727 0.43700001 1.0402222e-38
0.051857382 0.021963727 0.43700001 9.303788e-39
0.053360492 0.021963727 0.43700001 9.0272011e-39
0.054738048 0.021913467 0.43599999 1.1426099e-38
0.056237716 0.021913467 0.43599999 1.1426099e-38
0.057604961 0.021863207 0.435 1.124382e-38
0.05910119 0.021863207 0.435 1.0137472e-38
0.06059742 0.021863207 0.435 7.9266045e-39
0.061950929 0.021812946 0.43399999 9.6783215e-39
0.06344372 0.021812946 0.43399999 1.2908467e-38
-0.028772401 0.022367531 0.47799999 1.3905606e-38
-0.027014745 0.022273945 0.47600001 1.3629019e-38
-0.025377493 0.022273945 0.47600001 5.2400043e-39
-0.023740241 0.022273945 0.47600001 6.5307361e-39
-0.022056552 0.022227151 0.47499999 6.2469886e-39
-0.02037973 0.022180358 0.47400001 8.2752924e-39
-0.018670244 0.022086769 0.472 8.0062613e-39
-0.017010635 0.022039974 0.47099999 1.0034565e-38
-0.015357887 0.021993181 0.47 6.0690391e-39
-0.013741273 0.021993181 0.47 9.2036905e-39
-0.012098861 0.021946387 0.46900001 1.270031e-38
-0.010440956 0.021852799 0.46700001 7.6295503e-39
-0.0088157412 0.021806004 0.46599999 7.3605038e-39
-0.0072128847 0.021806004 0.46599999 6.3463518e-39
-0.0055979742 0.02175921 0.465 7.44555e-39
-0.0039383639 0.021431653 0.458 9.1972669e-39
-0.0023630245 0.021431653 0.458 6.7151119e-39
-0.00078596489 0.021384858 0.45699999 1.1324889e-38
0.00078077574 0.021244476 0.454 1.1425055e-38
0.0023372273 0.021197682 0.45300001 7.4606433e-39
0.0038781709 0.021104094 0.45100001 1.1231294e-38
0.0054053562 0.021010507 0.449 1.1600076e-38
0.0069342609 0.020963712 0.44800001 8.1884259e-39
0.008456286 0.020916918 0.447 1.5103098e-38
0.0099937906 0.020916918 0.447 1.0125222e-38
0.011505498 0.020870125 0.44600001 1.390524e-38
0.013039591 0.020870125 0.44600001 6.8138194e-39
0.014540979 0.02082333 0.44499999 5.2464937e-39
0.016071605 0.02082333 0.44499999 9.2915799e-39
0.017602229 0.02082333 0.44499999 9.014993e-39
0.019089859 0.020776536 0.44400001 6.8916321e-39
0.020617044 0.020776536 0.44400001 9.8418922e-39
0.022144258 0.020776536 0.44400001 9.3048965e-39
0.023671443 0.020776536 0.44400001 8.1063533e-39
0.025255382 0.02082333 0.44499999 6.6164619e-39
0.026786007 0.02082333 0.44499999 6.8930488e-39
0.028380264 0.020870125 0.44600001 5.9739946e-39
0.029981401 0.020916918 0.447 7.6335159e-39
0.031518903 0.020916918 0.447 8.6606439e-39
0.032982487 0.020870125 0.44600001 4.6040362e-39
0.034516551 0.020870125 0.44600001 8.6574139e-39
0.035969783 0.02082333 0.44499999 2.1122416e-39
0.037500408 0.02082333 0.44499999 5.2407554e-39
0.038943324 0.020776536 0.44400001 4.6875816e-39
0.040470511 0.020776536 0.44400001 4.8694645e-39
0.041997693 0.020776536 0.44400001 5.1460514e-39
0.043328848 0.02068295 0.442 6.442544e-39
0.044646218 0.020589361 0.44 6.5347396e-39
0.046054736 0.020542568 0.43900001 4.9684845e-39
0.047456373 0.020495772 0.43799999 3.4011588e-39
0.048962921 0.020495772 0.43799999 4.6861298e-39
0.050354246 0.020448979 0.43700001 8.8349332e-39
0.051857382 0.020448979 0.43700001 1.0686389e-38
0.053482592 0.020495772 0.43799999 9.5800414e-39
0.054863598 0.020448979 0.43700001 1.308923e-38
0.056237716 0.020402184 0.43599999 9.7701878e-39
0.057604961 0.02035539 0.435 9.0325709e-39
0.05910119 0.02035539 0.435 1.0138918e-38
0.06059742 0.02035539 0.435 1.2353476e-38
0.062093675 0.02035539 0.435 1.4012997e-38
-0.028652014 0.020624036 0.47600001 8.2799027e-39
-0.027014745 0.020624036 0.47600001 1.0492585e-38
-0.025377493 0.020624036 0.47600001 1.0109079e-39
-0.023690365 0.020580707 0.47499999 3.3157959e-39
-0.022056552 0.020580707 0.47499999 6.98349e-39
-0.02037973 0.02053738 0.47400001 7.9976419e-39
-0.018670244 0.020450724 0.472 1.0769259e-38
-0.017010635 0.020407395 0.47099999 1.4088302e-38
-0.015292535 0.020277413 0.46799999 1.0862511e-38
-0.013682799 0.020277413 0.46799999 1.2798619e-38
-0.012047268 0.020234086 0.46700001 1.0298888e-38
-0.010440956 0.020234086 0.46700001 7.3486334e-39
-0.0088157412 0.020190757 0.46599999 4.5935713e-39
-0.0072128847 0.020190757 0.46599999 6.5296795e-39
-0.0056100129 0.020190757 0.46599999 9.4849843e-39
-0.0039383639 0.019844135 0.458 1.1328897e-38
-0.0023630245 0.019844135 0.458 9.0199732e-39
-0.00078596489 0.019800806 0.45699999 1.3814146e-38
0.00078249554 0.019714152 0.45500001 1.2066447e-38
0.0023372273 0.019627497 0.45300001 7.7332519e-39
0.0038781709 0.019540841 0.45100001 9.3834154e-39
0.0054053562 0.019454185 0.449 9.5678067e-39
0.0069342609 0.019410856 0.44800001 6.5231901e-39
0.008456286 0.019367529 0.447 1.3069073e-38
0.0099937906 0.019367529 0.447 8.0040375e-39
0.011505498 0.019324202 0.44600001 1.2521621e-38
0.013039591 0.019324202 0.44600001 7.364838e-39
0.014540979 0.019280873 0.44499999 4.875556e-39
0.016071605 0.019280873 0.44499999 9.7532867e-39
0.017602229 0.019280873 0.44499999 9.4766999e-39
0.019132853 0.019280873 0.44499999 7.9100692e-39
0.020663477 0.019280873 0.44499999 1.0399351e-38
0.022144258 0.019237546 0.44400001 1.169985e-38
0.023671443 0.019237546 0.44400001 7.8276336e-39
0.025255382 0.019280873 0.44499999 9.7644397e-39
0.026786007 0.019280873 0.44499999 4.3248975e-39
0.028380264 0.019324202 0.44600001 6.2494927e-39
0.029914329 0.019324202 0.44600001 8.9231659e-39
0.031518903 0.019367529 0.447 1.0781519e-38
0.032982487 0.019324202 0.44600001 7.9234544e-39
0.034516551 0.019324202 0.44600001 1.1147049e-38
0.035969783 0.019280873 0.44499999 4.6011593e-39
0.037500408 0.019280873 0.44499999 9.6643183e-39
0.038943324 0.019237546 0.44400001 8.8345576e-39
0.040470511 0.019237546 0.44400001 7.6363998e-39
0.041997693 0.019237546 0.44400001 7.2676173e-39
0.043328848 0.01915089 0.442 8.4766254e-39
0.044747688 0.019107563 0.44100001 5.2497783e-39
0.046159644 0.019064235 0.44 8.1056652e-39
0.047564723 0.019020908 0.43900001 2.6661231e-39
0.049074713 0.019020908 0.43900001 5.147108e-39
0.0505847 0.019020908 0.43900001 4.4095429e-39
0.052094713 0.019020908 0.43900001 1.3086034e-38
0.053604703 0.019020908 0.43900001 1.5022142e-38
-0.028652014 0.018974105 0.47600001 6.0654475e-39
-0.026957991 0.018934242 0.47499999 1.0675223e-38
-0.025324177 0.018934242 0.47499999 6.436077e-39
-0.023640493 0.018894382 0.47400001 5.5141207e-39
-0.022010118 0.018894382 0.47400001 8.8291724e-39
-0.02037973 0.018894382 0.47400001 9.8433244e-39
-0.018749356 0.018894382 0.47400001 1.0957247e-38
-0.01704675 0.018814657 0.472 1.1787008e-38
-0.015292535 0.018655211 0.46799999 7.8196868e-39
-0.013682799 0.018655211 0.46799999 6.1601655e-39
-0.012047268 0.01861535 0.46700001 6.7068611e-39
-0.010440956 0.01861535 0.46700001 6.5224726e-39
-0.0088346601 0.01861535 0.46700001 2.9398121e-39
-0.0072283633 0.01861535 0.46700001 8.5637413e-39
-0.0056220521 0.01861535 0.46700001 9.6643281e-39
-0.0039383639 0.018256595 0.458 9.2955456e-39
-0.0023630245 0.018256595 0.458 7.5355329e-39
-0.00078768481 0.018256595 0.458 1.2882872e-38
0.00078249554 0.01813701 0.45500001 1.1325667e-38
0.0023423866 0.018097149 0.454 9.8505369e-39
0.0038867698 0.018017424 0.45199999 1.0586621e-38
0.0054053562 0.017897842 0.449 1.1416381e-38
0.0069342609 0.01785798 0.44800001 8.4675309e-39
0.008456286 0.017818119 0.447 1.4275856e-38
0.0099937906 0.017818119 0.447 1.0956136e-38
0.011505498 0.017778257 0.44600001 1.3722005e-38
0.013039591 0.017778257 0.44600001 9.8548332e-39
0.014540979 0.017738394 0.44499999 5.8904212e-39
0.016071605 0.017738394 0.44499999 9.1140662e-39
0.017602229 0.017738394 0.44499999 9.2062619e-39
0.019132853 0.017738394 0.44499999 7.9125873e-39
0.020663477 0.017738394 0.44499999 9.1111305e-39
0.022144258 0.017698534 0.44400001 1.0410553e-38
0.023671443 0.017698534 0.44400001 6.2617498e-39
0.025198627 0.017698534 0.44400001 1.050168e-38
0.026786007 0.017738394 0.44499999 3.8635943e-39
0.028316632 0.017738394 0.44499999 6.157297e-39
0.029914329 0.017778257 0.44600001 5.7885145e-39
0.031448394 0.017778257 0.44600001 8.469766e-39
0.033056438 0.017818119 0.447 5.0585277e-39
0.034516551 0.017778257 0.44600001 8.6559593e-39
0.035969783 0.017738394 0.44499999 3.6773953e-39
0.037416138 0.017698534 0.44400001 8.6501496e-39
0.038943324 0.017698534 0.44400001 8.1891714e-39
0.040470511 0.017698534 0.44400001 6.9849193e-39
0.041903105 0.017658671 0.44299999 6.9849193e-39
0.043328848 0.017618811 0.442 9.491108e-39
0.044849154 0.017618811 0.442 6.0798697e-39
0.046264555 0.01757895 0.44100001 9.1226758e-39
0.047673073 0.017539088 0.44 4.7894812e-39
0.049074713 0.017499227 0.43900001 7.1887158e-39
0.0505847 0.017499227 0.43900001 1.0415563e-38
0.052213382 0.017539088 0.44 1.4378918e-38
0.053726807 0.017539088 0.44 1.4010136e-38
-0.02690124 0.017251382 0.47400001 1.1418591e-38
-0.025270866 0.017251382 0.47400001 1.1143074e-38
-0.023640493 0.017251382 0.47400001 5.5191401e-39
-0.022010118 0.017251382 0.47400001 8.461106e-39
-0.02037973 0.017251382 0.47400001 6.8937803e-39
-0.018749356 0.017251382 0.47400001 7.0745618e-39
-0.017118983 0.017251382 0.47400001 9.9326263e-39
-0.015390565 0.017142193 0.47099999 7.2719389e-39
-0.013682799 0.017033009 0.46799999 3.3075268e-39
-0.012073063 0.017033009 0.46799999 6.0676322e-39
-0.010440956 0.016996613 0.46700001 6.8973928e-39
-0.0088346601 0.016996613 0.46700001 6.8022839e-39
-0.0072438414 0.017033009 0.46799999 1.1412058e-38
-0.0056220521 0.016996613 0.46700001 1.0031707e-38
-0.0040157558 0.016996613 0.46700001 1.0400489e-38
-0.0023630245 0.016669055 0.458 1.0213892e-38
-0.00078768481 0.016669055 0.458 1.2703174e-38
0.00078421528 0.016596265 0.456 1.2343412e-38
0.0023423866 0.016523473 0.454 1.0776086e-38
0.0039039678 0.016523473 0.454 9.4795501e-39
0.0054053562 0.016341498 0.449 8.9263763e-39
0.0069342609 0.016305102 0.44800001 6.4320721e-39
0.008456286 0.016268708 0.447 1.0580866e-38
0.0099714333 0.016232312 0.44600001 6.2552478e-39
0.011505498 0.016232312 0.44600001 7.6381823e-39
0.013010355 0.016195916 0.44499999 5.1532261e-39
0.014540979 0.016195916 0.44499999 3.0327266e-39
0.016071605 0.016195916 0.44499999 5.8839822e-39
0.017602229 0.016195916 0.44499999 5.7917866e-39
0.019132853 0.016195916 0.44499999 3.95072e-39
0.020663477 0.016195916 0.44499999 4.2273069e-39
0.022144258 0.016159521 0.44400001 5.6188986e-39
0.023671443 0.016159521 0.44400001 2.2998559e-39
0.025198627 0.016159521 0.44400001 7.0890022e-39
0.026786007 0.016195916 0.44499999 3.2167857e-39
0.028316632 0.016195916 0.44499999 5.6080889e-39
0.029914329 0.016232312 0.44600001 4.3173501e-39
0.031448394 0.016232312 0.44600001 8.2886342e-39
0.033056438 0.016268708 0.447 9.4871774e-39
0.034516551 0.016232312 0.44600001 9.3070306e-39
0.035969783 0.016195916 0.44499999 3.5909114e-39
0.037416138 0.016159521 0.44400001 7.0860412e-39
0.038943324 0.016159521 0.44400001 1.0405074e-38
0.040470511 0.016159521 0.44400001 1.1609787e-38
0.041903105 0.016123125 0.44299999 1.2623939e-38
0.043328848 0.016086731 0.442 1.2351305e-38
0.044849154 0.016086731 0.442 1.2720088e-38
0.046159644 0.016013939 0.44 1.3643862e-38
0.047673073 0.016013939 0.44 1.3920448e-38
0.049186498 0.016013939 0.44 1.4105909e-38
0.050699927 0.016013939 0.44 1.42903e-38
0.052213382 0.016013939 0.44 1.373784e-38
0.053726807 0.016013939 0.44 1.3553448e-38
-0.02690124 0.015608405 0.47400001 6.9975072e-39
-0.025270866 0.015608405 0.47400001 1.0402256e-38
-0.023640493 0.015608405 0.47400001 4.7783227e-39
-0.022010118 0.015608405 0.47400001 5.697758e-39
-0.02037973 0.015608405 0.47400001 5.7899537e-39
-0.018749356 0.015608405 0.47400001 4.9630671e-39
-0.017118983 0.015608405 0.47400001 6.5303928e-39
-0.015455917 0.015575475 0.47299999 1.0316184e-38
-0.013712036 0.015443759 0.46900001 8.8410541e-39
-0.012073063 0.015410829 0.46799999 8.7430879e-39
-0.010463312 0.015410829 0.46799999 7.3601534e-39
-0.0088535771 0.015410829 0.46799999 6.9834774e-39
-0.0072438414 0.015410829 0.46799999 1.2054237e-38
-0.0056220521 0.015377901 0.46700001 1.141967e-38
-0.0040071565 0.015344971 0.46599999 8.5616057e-39
-0.002368184 0.015114467 0.45899999 8.923882e-39
-0.00078768481 0.015081538 0.458 6.4346e-39
0.00078593503 0.015048608 0.45699999 8.1931637e-39
0.0023423866 0.014949821 0.454 7.363403e-39
0.0039039678 0.014949821 0.454 5.698837e-39
0.0054053562 0.014785177 0.449 6.712989e-39
0.0069342609 0.014752246 0.44800001 4.5932097e-39
0.008456286 0.014719319 0.447 9.202987e-39
0.0099714333 0.01468639 0.44600001 6.8974054e-39
0.011505498 0.01468639 0.44600001 8.5569268e-39
0.013010355 0.01465346 0.44499999 7.7304003e-39
0.014540979 0.01465346 0.44499999 4.4113576e-39
0.016071605 0.01465346 0.44499999 7.9043547e-39
0.017602229 0.01465346 0.44499999 7.4433765e-39
0.019132853 0.01465346 0.44499999 7.0745842e-39
0.020663477 0.01465346 0.44499999 6.4292148e-39
0.022144258 0.014620531 0.44400001 8.6530979e-39
0.023671443 0.014620531 0.44400001 4.8730771e-39
0.025198627 0.014620531 0.44400001 9.9380788e-39
0.026786007 0.01465346 0.44499999 5.6970798e-39
0.028316632 0.01465346 0.44499999 6.3416883e-39
0.029914329 0.01468639 0.44600001 5.5119276e-39
0.031448394 0.01468639 0.44600001 1.4285654e-38
0.032982487 0.01468639 0.44600001 1.5299805e-38
0.03459394 0.014719319 0.447 1.4197736e-38
0.038943324 0.014620531 0.44400001 1.4474679e-38
0.040470511 0.014620531 0.44400001 1.4198102e-38
0.041903105 0.014587602 0.44299999 1.4290297e-38
0.043426879 0.014587602 0.44299999 1.4106622e-38
0.044950623 0.014587602 0.44299999 1.3830035e-38
0.046159644 0.014488814 0.44 1.3645654e-38
0.047673073 0.014488814 0.44 1.3645654e-38
0.049074713 0.014455886 0.43900001 1.364636e-38
0.0505847 0.014455886 0.43900001 1.3277578e-38
0.052213382 0.014488814 0.44 1.3644925e-38
-0.02690124 0.013965428 0.47400001 2.4874841e-39
-0.025270866 0.013965428 0.47400001 7.0878881e-39
-0.023640493 0.013965428 0.47400001 5.0595843e-39
-0.022010118 0.013965428 0.47400001 4.6875564e-39
-0.02037973 0.013965428 0.47400001 7.4534182e-39
-0.018749356 0.013965428 0.47400001 8.4661381e-39
-0.017118983 0.013965428 0.47400001 7.3597905e-39
-0.015488594 0.013965428 0.47400001 1.0774253e-38
-0.013858221 0.013965428 0.47400001 1.0036688e-38
-0.012124658 0.013847576 0.47 9.9398514e-39
-0.010508028 0.013847576 0.47 7.2661782e-39
-0.008872495 0.013818114 0.46900001 8.0008313e-39
-0.0072438414 0.01378865 0.46799999 9.0149832e-39
-0.0056100129 0.013729724 0.46599999 7.3644848e-39
-0.0040071565 0.013729724 0.46599999 5.6127679e-39
-0.0023785029 0.013582409 0.461 6.8023456e-39
-0.00078940467 0.013523484 0.45899999 5.9725849e-39
0.00078593503 0.013464557 0.45699999 9.6629142e-39
0.0023475462 0.013405632 0.45500001 9.4785229e-39
0.0039039678 0.013376169 0.454 8.9180946e-39
0.0054173945 0.013258317 0.44999999 1.0393225e-38
0.0069187824 0.013169929 0.447 7.3522207e-39
0.008437369 0.013140467 0.44600001 1.2515166e-38
0.0099714333 0.013140467 0.44600001 9.5725136e-39
0.011505498 0.013140467 0.44600001 1.0771057e-38
0.013010355 0.013111003 0.44499999 9.578266e-39
0.014540979 0.013111003 0.44499999 4.8762888e-39
0.016035488 0.01308154 0.44400001 9.3863245e-39
0.017562672 0.01308154 0.44400001 8.7409551e-39
0.019132853 0.013111003 0.44499999 9.2000891e-39
0.020663477 0.013111003 0.44499999 8.3703285e-39
0.022194132 0.013111003 0.44499999 1.1422194e-38
0.023724757 0.013111003 0.44499999 7.7343688e-39
0.025255382 0.013111003 0.44499999 1.1972834e-38
0.026786007 0.013111003 0.44499999 7.4552483e-39
0.028316632 0.013111003 0.44499999 7.4541567e-39
0.029914329 0.013140467 0.44600001 6.0712223e-39
0.031448394 0.013140467 0.44600001 1.2995959e-38
0.032982487 0.013140467 0.44600001 1.5300849e-38
0.03459394 0.013169929 0.447 1.4106985e-38
0.041997693 0.01308154 0.44400001 1.4013708e-38
0.04352491 0.01308154 0.44400001 1.3646363e-38
0.045052093 0.01308154 0.44400001 1.3646363e-38
0.046159644 0.012963688 0.44 1.3737842e-38
0.047673073 0.012963688 0.44 1.3645647e-38
0.049074713 0.012934226 0.43900001 1.3645644e-38
0.0505847 0.012934226 0.43900001 1.3553448e-38
0.052213382 0.012963688 0.44 1.3553451e-38
-0.02690124 0.012322429 0.47400001 4.1502481e-39
-0.025270866 0.012322429 0.47400001 8.9299566e-39
-0.023640493 0.012322429 0.47400001 1.307876e-38
-0.022010118 0.012322429 0.47400001 6.5361045e-39
-0.02037973 0.012322429 0.47400001 7.1814739e-39
-0.018749356 0.012322429 0.47400001 6.7997728e-39
-0.017155098 0.012348425 0.47499999 5.7856363e-39
-0.015488594 0.012322429 0.47400001 8.0040375e-39
-0.013858221 0.012322429 0.47400001 1.104649e-38
-0.012176252 0.012270435 0.472 1.2899104e-38
-0.010508028 0.012218441 0.47 1.1608365e-38
-0.008872495 0.012192445 0.46900001 9.9452044e-39
-0.0072438414 0.012166448 0.46799999 6.7183573e-39
-0.0056100129 0.012114454 0.46599999 7.6316984e-39
-0.0040071565 0.012114454 0.46599999 9.475611e-39
-0.0023991405 0.012088458 0.465 9.6567681e-39
-0.00079112442 0.011958474 0.46000001 8.0894424e-39
0.00078765483 0.011906481 0.458 1.1325301e-38
0.0023475462 0.011828491 0.45500001 1.2708236e-38
0.0039039678 0.011802494 0.454 1.0309325e-38
0.0054535107 0.011776498 0.45300001 1.1784455e-38
0.0069187824 0.011620518 0.447 8.2806552e-39
0.008437369 0.011594522 0.44600001 1.196848e-38
0.0099714333 0.011594522 0.44600001 1.0220023e-38
0.011505498 0.011594522 0.44600001 1.0220023e-38
0.013010355 0.011568524 0.44499999 9.3920698e-39
0.014540979 0.011568524 0.44499999 4.874484e-39
0.016035488 0.011542528 0.44400001 9.0150239e-39
0.017562672 0.011542528 0.44400001 7.2633069e-39
0.019132853 0.011568524 0.44499999 7.8114052e-39
0.020663477 0.011568524 0.44499999 7.1660386e-39
0.022194132 0.011568524 0.44499999 9.6690225e-39
0.023724757 0.011568524 0.44499999 5.7046104e-39
0.025255382 0.011568524 0.44499999 9.9380311e-39
0.026786007 0.011568524 0.44499999 6.8033797e-39
0.028316632 0.011568524 0.44499999 5.7910327e-39
0.029914329 0.011594522 0.44600001 4.7768807e-39
0.031448394 0.011594522 0.44600001 1.1058415e-38
0.032982487 0.011594522 0.44600001 1.5207219e-38
0.050699927 0.011438541 0.44 1.3553451e-38
0.052213382 0.011438541 0.44 1.3552735e-38
-0.022010118 0.010679428 0.47400001 1.3173863e-38
-0.02037973 0.010679428 0.47400001 1.2159711e-38
-0.018749356 0.010679428 0.47400001 1.2713974e-38
-0.017155098 0.010701959 0.47499999 1.3820322e-38
-0.015553947 0.01072449 0.47600001 1.3549493e-38
-0.00725932 0.010566777 0.46900001 7.836253e-39
-0.0056340904 0.010544245 0.46799999 9.2998742e-39
-0.0039985571 0.010476654 0.465 1.08672e-38
-0.0023991405 0.010476654 0.465 1.1047981e-38
-0.00079112442 0.010364003 0.46000001 9.7572426e-39
0.00078765483 0.010318941 0.458 1.1232736e-38
0.0023475462 0.01025135 0.45500001 1.1878105e-38
0.0039039678 0.010228819 0.454 9.1972361e-39
0.0054535107 0.010206289 0.45300001 9.3816274e-39
0.0069187824 0.010071106 0.447 7.3497096e-39
0.008437369 0.010048577 0.44600001 9.7467889e-39
0.0099714333 0.010048577 0.44600001 7.8182701e-39
0.0114797 0.010026045 0.44499999 7.357292e-39
0.013010355 0.010026045 0.44499999 7.2708445e-39
0.014540979 0.010026045 0.44499999 4.1361931e-39
0.016071605 0.010026045 0.44499999 6.8927237e-39
0.017562672 0.010003516 0.44400001 6.8927237e-39
0.019089859 0.010003516 0.44400001 5.789253e-39
0.020663477 0.010026045 0.44499999 4.9594923e-39
0.022194132 0.010026045 0.44499999 6.5408703e-39
0.023724757 0.010026045 0.44499999 2.6686538e-39
0.025255382 0.010026045 0.44499999 6.6269352e-39
0.026786007 0.010026045 0.44499999 3.4000882e-39
0.028316632 0.010026045 0.44499999 4.0439974e-39
0.029914329 0.010048577 0.44600001 3.3986308e-39
0.031518903 0.010071106 0.447 1.3089249e-38
0.033130392 0.010093637 0.44800001 1.4840966e-38
-0.0056340904 0.0089220665 0.46799999 7.3720533e-39
-0.0039813593 0.0088267447 0.463 6.7266838e-39
-0.0023836624 0.0088076815 0.46200001 9.0063372e-39
-0.00079284434 0.0087886164 0.461 9.3751197e-39
0.00078937464 0.0087504881 0.45899999 9.8469369e-39
0.002368184 0.0087504881 0.45899999 9.9391326e-39
0.0039469632 0.0087504881 0.45899999 5.7013958e-39
0.005465549 0.0086551663 0.454 6.2545696e-39
0.0069033043 0.0085026538 0.44600001 3.767049e-39
0.008437369 0.0085026538 0.44600001 6.6251121e-39
0.0099714333 0.0085026538 0.44600001 6.9960681e-39
0.0114797 0.0084835887 0.44499999 4.9677642e-39
0.013010355 0.0084835887 0.44499999 7.0907916e-39
0.014540979 0.0084835887 0.44499999 2.757597e-39
0.016071605 0.0084835887 0.44499999 6.7119128e-39
0.017562672 0.0084645245 0.44400001 6.3431302e-39
0.019089859 0.0084645245 0.44400001 6.8055251e-39
0.020663477 0.0084835887 0.44499999 4.7772395e-39
0.022144258 0.0084645245 0.44400001 9.394616e-39
0.023671443 0.0084645245 0.44400001 5.8911821e-39
0.025198627 0.0084645245 0.44400001 9.3917447e-39
0.026725814 0.0084645245 0.44400001 6.2570933e-39
0.028316632 0.0084835887 0.44499999 6.8999236e-39
0.029914329 0.0085026538 0.44600001 5.3325979e-39
0.031518903 0.008521717 0.447 1.4656559e-38
0.033130392 0.0085407812 0.44800001 1.4656559e-38
-0.0056340904 0.0072998642 0.46799999 5.4326772e-39
-0.0039727604 0.0072062761 0.46200001 5.8014597e-39
-0.0023785029 0.0071906778 0.461 5.5148017e-39
-0.00079284434 0.0071906778 0.461 6.8055405e-39
0.00079109438 0.00717508 0.46000001 9.115148e-39
0.0023423866 0.0070814919 0.454 1.0866865e-38
0.0039039678 0.0070814919 0.454 8.9264156e-39
0.005465549 0.0070814919 0.454 1.0493741e-38
0.0069033043 0.0069567086 0.44600001 8.738437e-39
0.008437369 0.0069567086 0.44600001 1.205748e-38
0.009949076 0.0069411104 0.44499999 1.1331781e-38
0.0114797 0.0069411104 0.44499999 9.5800638e-39
0.012981118 0.0069255126 0.44400001 1.1516901e-38
0.014508303 0.0069255126 0.44400001 5.3397935e-39
0.016035488 0.0069255126 0.44400001 9.5739205e-39
0.017562672 0.0069255126 0.44400001 9.3895293e-39
0.019089859 0.0069255126 0.44400001 9.572473e-39
0.020617044 0.0069255126 0.44400001 6.7144085e-39
0.022144258 0.0069255126 0.44400001 1.1332156e-38
0.023671443 0.0069255126 0.44400001 8.1975049e-39
0.025198627 0.0069255126 0.44400001 1.1326061e-38
0.026725814 0.0069255126 0.44400001 7.3616486e-39
0.028316632 0.0069411104 0.44499999 6.8970271e-39
0.029914329 0.0069567086 0.44600001 4.7765276e-39
0.031518903 0.0069723064 0.447 1.4379246e-38
0.033130392 0.0069879042 0.44800001 1.4748029e-38
0.034748726 0.0070035025 0.449 1.3922234e-38
-0.0055738972 0.0056170258 0.463 9.857364e-39
-0.0039641615 0.005592762 0.461 1.0133951e-38
-0.0023785029 0.005592762 0.461 1.1969585e-38
-0.00079284434 0.005592762 0.461 1.0402259e-38
0.00078937464 0.0055684983 0.45899999 1.4186624e-38
0.0023423866 0.0055078394 0.454 1.4186624e-38
0.0039039678 0.0055078394 0.454 1.031398e-38
0.005465549 0.0055078394 0.454 1.0867154e-38
0.0069033043 0.0054107853 0.44600001 8.2763518e-39
0.008437369 0.0054107853 0.44600001 1.0489047e-38
0.009949076 0.0053986534 0.44499999 1.0224717e-38
0.0114797 0.0053986534 0.44499999 6.3525007e-39
0.012981118 0.005386522 0.44400001 9.486799e-39
0.014508303 0.005386522 0.44400001 3.0331049e-39
0.016035488 0.005386522 0.44400001 7.6316984e-39
0.017562672 0.005386522 0.44400001 7.5395028e-39
0.019089859 0.005386522 0.44400001 7.813552e-39
0.020617044 0.005386522 0.44400001 6.0618602e-39
0.022144258 0.005386522 0.44400001 9.3924482e-39
0.023671443 0.005386522 0.44400001 5.7968186e-39
0.025198627 0.005386522 0.44400001 9.20122e-39
0.026786007 0.0053986534 0.44499999 6.4353511e-39
0.028316632 0.0053986534 0.44499999 7.0831938e-39
0.029914329 0.0054107853 0.44600001 4.1329561e-39
0.031589419 0.0054350486 0.44800001 1.3917565e-38
0.033204343 0.0054471809 0.449 1.4747325e-38
0.034748726 0.0054471809 0.449 1.3830035e-38
-0.0055738972 0.0040121549 0.463 1.0321948e-38
-0.0039641615 0.0039948234 0.461 7.002905e-39
-0.0023785029 0.0039948234 0.461 1.1780158e-38
-0.00079112442 0.0039861579 0.46000001 9.0142896e-39
0.00078593503 0.0039601615 0.45699999 1.2616058e-38
0.0023423866 0.0039341645 0.454 1.2616058e-38
0.0039039678 0.0039341645 0.454 8.8294807e-39
0.0053933174 0.0038821714 0.44800001 1.0673389e-38
0.0069033043 0.0038648406 0.44600001 8.5500548e-39
0.008437369 0.0038648406 0.44600001 1.0578359e-38
0.009949076 0.0038561746 0.44499999 1.1148831e-38
0.0114797 0.0038561746 0.44499999 7.6453975e-39
0.012981118 0.0038475094 0.44400001 1.1792774e-38
0.014508303 0.0038475094 0.44400001 4.7859065e-39
0.016035488 0.0038475094 0.44400001 9.0178671e-39
0.017562672 0.0038475094 0.44400001 9.5710409e-39
0.019089859 0.0038475094 0.44400001 9.5717457e-39
0.020617044 0.0038475094 0.44400001 7.1746593e-39
0.022144258 0.0038475094 0.44400001 1.0962998e-38
0.023671443 0.0038475094 0.44400001 8.7503032e-39
0.025198627 0.0038475094 0.44400001 1.1051231e-38
0.026786007 0.0038561746 0.44499999 8.1009709e-39
0.028380264 0.0038648406 0.44600001 6.6186381e-39
0.029914329 0.0038648406 0.44600001 9.2923114e-39
0.031589419 0.0038821714 0.44800001 1.4932796e-38
0.033130392 0.0038821714 0.44800001 1.4471817e-38
-0.0055738972 0.0024072838 0.463 1.2164425e-38
-0.0039641615 0.0023968851 0.461 8.4766001e-39
-0.0023785029 0.0023968851 0.461 1.3256005e-38
-0.00079112442 0.0023916857 0.46000001 1.2426244e-38
0.00078249554 0.0023656893 0.45500001 1.4096218e-38
0.0023423866 0.0023604899 0.454 1.3543044e-38
0.0038867698 0.0023500912 0.45199999 9.9430394e-39
0.0053933174 0.0023292939 0.44800001 1.1049387e-38
0.0069187824 0.0023240948 0.447 9.2012144e-39
0.008437369 0.0023188954 0.44600001 9.3856056e-39
0.009949076 0.0023136961 0.44499999 1.1057362e-38
0.0114797 0.0023136961 0.44499999 6.263189e-39
0.012981118 0.0023084967 0.44400001 1.050168e-38
0.014508303 0.0023084967 0.44400001 3.8635943e-39
0.016035488 0.0023084967 0.44400001 7.4490882e-39
0.017562672 0.0023084967 0.44400001 7.9100664e-39
0.019089859 0.0023084967 0.44400001 7.4512827e-39
0.020617044 0.0023084967 0.44400001 4.6854138e-39
0.022144258 0.0023084967 0.44400001 7.641785e-39
0.023671443 0.0023084967 0.44400001 6.6276331e-39
0.025198627 0.0023084967 0.44400001 6.7173176e-39
0.026786007 0.0023136961 0.44499999 4.6890137e-39
0.028380264 0.0023188954 0.44600001 2.9398121e-39
0.029914329 0.0023188954 0.44600001 1.1514001e-38
0.031589419 0.0023292939 0.44800001 1.465908e-38
0.033130392 0.0023292939 0.44800001 1.3921515e-38
-0.0039727604 0.00080070243 0.46200001 7.2758765e-39
-0.002368184 0.00079550303 0.45899999 1.0581615e-38
-0.00078768481 0.0007937699 0.458 9.7518546e-39
0.00078249554 0.00078857056 0.45500001 9.7612181e-39
0.0023423866 0.00078683742 0.454 9.2080443e-39
0.0038867698 0.00078337116 0.45199999 5.2410805e-39
0.0054053562 0.00077817187 0.449 6.1630284e-39
0.0069187824 0.00077470561 0.447 5.5130389e-39
0.008437369 0.00077297253 0.44600001 4.5918e-39
0.009949076 0.00077123934 0.44499999 6.5415961e-39
0.0114797 0.00077123934 0.44499999 2.1162059e-39
0.012981118 0.00076950627 0.44400001 7.1830181e-39
0.014508303 0.00076950627 0.44400001 2.0204216e-39
0.016035488 0.00076950627 0.44400001 3.9514487e-39
0.017562672 0.00076950627 0.44400001 5.0577962e-39
0.019089859 0.00076950627 0.44400001 6.1583985e-39
0.020617044 0.00076950627 0.44400001 4.5917902e-39
0.022144258 0.00076950627 0.44400001 5.7971563e-39
0.023671443 0.00076950627 0.44400001 6.0737432e-39
0.025198627 0.00076950627 0.44400001 6.7130044e-39
0.026786007 0.00077123934 0.44499999 6.1598306e-39
0.028380264 0.00077297253 0.44600001 4.5932097e-39
0.029914329 0.00077297253 0.44600001 1.4273747e-38
0.031518903 0.00077470561 0.447 1.42903e-38
0.033130392 0.00077643868 0.44800001 1.3921518e-38
-0.0039727604 -0.00080070243 0.46200001 4.2334236e-39
-0.002368184 -0.00079550303 0.45899999 7.7207019e-39
-0.00078596489 -0.00079203676 0.45699999 8.2738757e-39
0.00078249554 -0.00078857056 0.45500001 8.0077089e-39
0.0023320678 -0.00078337116 0.45199999 8.7452739e-39
0.0038781709 -0.00078163808 0.45100001 6.9838025e-39
0.0054053562 -0.00077817187 0.449 8.1823373e-39
0.0069187824 -0.00077470561 0.447 7.9029156e-39
0.008437369 -0.00077297253 0.44600001 6.796568e-39
0.0099714333 -0.00077297253 0.44600001 9.8509376e-39
0.0114797 -0.00077123934 0.44499999 5.0567649e-39
0.012981118 -0.00076950627 0.44400001 1.0768581e-38
0.014508303 -0.00076950627 0.44400001 5.3290386e-39
0.016035488 -0.00076950627 0.44400001 6.0665405e-39
0.017562672 -0.00076950627 0.44400001 8.18704e-39
0.019089859 -0.00076950627 0.44400001 7.7224325e-39
0.020617044 -0.00076950627 0.44400001 6.8004902e-39
0.022144258 -0.00076950627 0.44400001 7.6410493e-39
0.023671443 -0.00076950627 0.44400001 8.5630056e-39
0.025198627 -0.00076950627 0.44400001 8.2860628e-39
0.026786007 -0.00077123934 0.44499999 8.3782584e-39
0.028380264 -0.00077297253 0.44600001 5.9761232e-39
0.029914329 -0.00077297253 0.44600001 1.0954677e-38
0.031518903 -0.00077470561 0.447 1.5024623e-38
0.033204343 -0.00077817187 0.449 1.4379253e-38
-0.0039469632 -0.0023864864 0.45899999 7.9165796e-39
-0.0023630245 -0.002381287 0.458 1.0854239e-38
-0.00078596489 -0.0023760877 0.45699999 1.0854239e-38
0.00078249554 -0.0023656893 0.45500001 1.123419e-38
0.0023320678 -0.0023500912 0.45199999 1.1971755e-38
0.0038781709 -0.0023448919 0.45100001 7.7271171e-39
0.0054053562 -0.0023344934 0.449 9.6632253e-39
0.0069187824 -0.0023240948 0.447 1.0119899e-38
0.008437369 -0.0023188954 0.44600001 8.2759861e-39
0.0099714333 -0.0023188954 0.44600001 1.0035697e-38
0.0114797 -0.0023136961 0.44499999 8.3761761e-39
0.012981118 -0.0023084967 0.44400001 1.0585985e-38
0.014508303 -0.0023084967 0.44400001 8.7420719e-39
0.016035488 -0.0023084967 0.44400001 7.6389081e-39
0.017562672 -0.0023084967 0.44400001 9.2984295e-39
0.019089859 -0.0023084967 0.44400001 9.572096e-39
0.020617044 -0.0023084967 0.44400001 7.1750097e-39
0.022144258 -0.0023084967 0.44400001 8.1060001e-39
0.023671443 -0.0023084967 0.44400001 9.5811302e-39
0.025255382 -0.0023136961 0.44499999 9.1172654e-39
0.026786007 -0.0023136961 0.44499999 8.5640916e-39
0.028380264 -0.0023188954 0.44600001 5.0545396e-39
0.029914329 -0.0023188954 0.44600001 9.295533e-39
0.031589419 -0.0023292939 0.44800001 1.4933865e-38
0.033204343 -0.0023344934 0.449 1.41963e-38
-0.0039469632 -0.0039774925 0.45899999 9.8569786e-39
-0.0023630245 -0.003968827 0.458 1.1692272e-38
-0.00078596489 -0.0039601615 0.45699999 1.1600076e-38
0.00078249554 -0.0039428305 0.45500001 1.2250863e-38
0.0023320678 -0.0039168335 0.45199999 1.2250863e-38
0.0038781709 -0.0039081681 0.45100001 7.4523393e-39
0.0054053562 -0.0038908371 0.449 9.2040562e-39
0.0069342609 -0.0038821714 0.44800001 9.5660116e-39
0.008456286 -0.0038735059 0.447 7.0767296e-39
0.0099714333 -0.0038648406 0.44600001 1.0311162e-38
0.0114797 -0.0038561746 0.44499999 7.1765105e-39
0.012981118 -0.0038475094 0.44400001 1.086182e-38
0.014508303 -0.0038475094 0.44400001 7.3583864e-39
0.016035488 -0.0038475094 0.44400001 6.4320721e-39
0.017562672 -0.0038475094 0.44400001 8.1837876e-39
0.019089859 -0.0038475094 0.44400001 7.5344581e-39
0.020617044 -0.0038475094 0.44400001 7.0734856e-39
0.022144258 -0.0038475094 0.44400001 6.2516731e-39
0.023671443 -0.0038475094 0.44400001 7.6346075e-39
0.025255382 -0.0038561746 0.44499999 6.8044713e-39
0.026786007 -0.0038561746 0.44499999 7.3576451e-39
0.028380264 -0.0038648406 0.44600001 4.8701512e-39
0.029981401 -0.0038735059 0.447 9.8487096e-39
0.031659931 -0.0038908371 0.449 1.4749473e-38
