# .PCD v0.7 - Point Cloud Data file format
VERSION 0.7
FIELDS x y z rgb
SIZE 4 4 4 4
TYPE F F F F
COUNT 1 1 1 1
WIDTH 697
HEIGHT 1
VIEWPOINT 0 0 0 1 0 0 0
POINTS 697
DATA ascii
-0.0041069156 0.078634709 0.796 1.4747698e-38
-0.0013689892 0.078634709 0.796 1.5208676e-38
0.0013723767 0.078832276 0.79799998 1.5950194e-38
0.0041172346 0.078832276 0.79799998 1.6226781e-38
0.0068706395 0.078931063 0.79900002 1.5949834e-38
-0.02610841 0.076161578 0.79900002 1.6591591e-38
-0.023360165 0.076161578 0.79900002 1.2719375e-38
-0.02058612 0.076066256 0.79799998 1.4290325e-38
-0.017841289 0.076066256 0.79799998 1.6318629e-38
-0.015096484 0.076066256 0.79799998 1.7329892e-38
-0.012320722 0.075875618 0.796 1.6223544e-38
-0.0095827691 0.075875618 0.796 9.6768263e-39
-0.0068448423 0.075875618 0.796 1.2442695e-38
-0.0041069156 0.075875618 0.796 1.1700535e-38
-0.0013689892 0.075875618 0.796 9.5800358e-39
0.0013723767 0.076066256 0.79799998 7.556757e-39
0.0041172346 0.076066256 0.79799998 1.1889952e-38
0.0068620401 0.076066256 0.79799998 1.6775279e-38
-0.031565368 0.073300228 0.79799998 1.0687715e-38
-0.028820563 0.073300228 0.79799998 9.3969954e-39
-0.026075732 0.073300228 0.79799998 8.4682442e-39
-0.023360165 0.073392086 0.79900002 8.7448311e-39
-0.02058612 0.073300228 0.79799998 8.472563e-39
-0.017841289 0.073300228 0.79799998 8.7491499e-39
-0.015020813 0.072932817 0.79400003 1.1609061e-38
-0.012289765 0.072932817 0.79400003 7.7368449e-39
-0.0095586926 0.072932817 0.79400003 9.6747454e-39
-0.0068448423 0.073116526 0.796 1.0043528e-38
-0.0041069156 0.073116526 0.796 1.3086719e-38
-0.001372429 0.073300228 0.79799998 1.4285263e-38
0.0013723767 0.073300228 0.79799998 1.2259083e-38
0.0041172346 0.073300228 0.79799998 8.1102797e-39
0.0068620401 0.073300228 0.79799998 1.5667827e-38
-0.031565368 0.07053417 0.79799998 3.7813983e-39
-0.028820563 0.07053417 0.79799998 8.39117e-39
-0.026075732 0.07053417 0.79799998 9.304881e-39
-0.023360165 0.070622556 0.79900002 7.829751e-39
-0.020611919 0.070622556 0.79900002 9.1197275e-39
-0.017751861 0.070180617 0.79400003 6.1694799e-39
-0.015020813 0.070180617 0.79400003 6.9016528e-39
-0.012289765 0.070180617 0.79400003 5.3343509e-39
-0.0095586926 0.070180617 0.79400003 4.3230842e-39
-0.0068276445 0.070180617 0.79400003 7.6421227e-39
-0.0041069156 0.07035739 0.796 1.1240953e-38
-0.001372429 0.07053417 0.79799998 1.1609735e-38
0.0013723767 0.07053417 0.79799998 9.2155385e-39
0.0041172346 0.07053417 0.79799998 1.0137495e-38
-0.031604927 0.067853026 0.79900002 1.2996295e-38
-0.028856682 0.067853026 0.79900002 1.3826056e-38
-0.02610841 0.067853026 0.79900002 1.2809746e-38
-0.023360165 0.067853026 0.79900002 8.5687467e-39
-0.02058612 0.067768104 0.79799998 7.1793131e-39
-0.017707145 0.067258574 0.792 7.2715087e-39
-0.014982977 0.067258574 0.792 6.7183405e-39
-0.012258808 0.067258574 0.792 5.2432329e-39
-0.0095346142 0.067258574 0.792 4.8730294e-39
-0.0068104463 0.067258574 0.792 5.1496163e-39
-0.0040965974 0.067428418 0.79400003 6.3574557e-39
-0.0013689892 0.067598261 0.796 1.5116031e-38
0.0013740966 0.067853026 0.79900002 1.6779226e-38
-0.031604927 0.065083541 0.79900002 1.4653309e-38
-0.028856682 0.065083541 0.79900002 1.1149875e-38
-0.026075732 0.065002084 0.79799998 9.857996e-39
-0.023272453 0.064839169 0.796 5.9858089e-39
-0.020482935 0.064676262 0.79400003 7.5495375e-39
-0.017707145 0.064513348 0.792 6.3509985e-39
-0.014982977 0.064513348 0.792 5.42798e-39
-0.012258808 0.064513348 0.792 4.4138435e-39
-0.0095346142 0.064513348 0.792 4.4159959e-39
-0.0068104463 0.064513348 0.792 4.3238017e-39
-0.0040965974 0.064676262 0.79400003 5.7085214e-39
-0.0013689892 0.064839169 0.796 5.8929127e-39
0.0013740966 0.065083541 0.79900002 1.5021016e-38
0.0041430318 0.065409362 0.80299997 1.7602493e-38
-0.028748332 0.062080041 0.796 1.0508109e-38
-0.026010379 0.062080041 0.796 8.2878088e-39
-0.023213983 0.061924063 0.79400003 6.2595218e-39
-0.020431338 0.061768081 0.792 6.7151119e-39
-0.017707145 0.061768081 0.792 6.7151119e-39
-0.014982977 0.061768081 0.792 3.7720713e-39
-0.012258808 0.061768081 0.792 4.4174365e-39
-0.0095346142 0.061768081 0.792 4.6904262e-39
-0.0068104463 0.061768081 0.792 4.2294551e-39
-0.0040965974 0.061924063 0.79400003 3.4940606e-39
-0.0013689892 0.062080041 0.796 5.2457776e-39
0.0013723767 0.062236018 0.79799998 1.032082e-38
0.0041327132 0.062469989 0.801 1.5207188e-38
-0.028748332 0.059320949 0.796 9.0336948e-39
-0.026010379 0.059320949 0.796 7.82503e-39
-0.023213983 0.059171904 0.79400003 6.8108935e-39
-0.020431338 0.059022855 0.792 5.42798e-39
-0.017707145 0.059022855 0.792 4.598232e-39
-0.014982977 0.059022855 0.792 4.4163547e-39
-0.012258808 0.059022855 0.792 4.6007431e-39
-0.0095346142 0.059022855 0.792 4.5071238e-39
-0.0068104463 0.059022855 0.792 3.8617544e-39
-0.0040862779 0.059022855 0.792 3.5862563e-39
-0.0013655497 0.059171904 0.79400003 3.8628432e-39
0.0013723767 0.059469994 0.79799998 9.4892723e-39
0.0041327132 0.059693567 0.801 1.3269293e-38
-0.02594503 0.056419708 0.79400003 5.1625181e-39
-0.023213983 0.056419708 0.79400003 4.0561873e-39
-0.020431338 0.056277588 0.792 4.6897172e-39
-0.017707145 0.056277588 0.792 5.2428909e-39
-0.014945141 0.056135476 0.79000002 4.7851316e-39
-0.012227852 0.056135476 0.79000002 4.6007431e-39
-0.0095346142 0.056277588 0.792 4.6958072e-39
-0.0068104463 0.056277588 0.792 3.2206995e-39
-0.0040862779 0.056277588 0.792 2.1168897e-39
-0.0013655497 0.056419708 0.79400003 3.9608023e-39
0.0013723767 0.056703933 0.79799998 8.5698369e-39
0.0041223941 0.056774992 0.79900002 1.4470357e-38
-0.025748968 0.053261958 0.78799999 1.3087075e-38
-0.023213983 0.053667508 0.79400003 3.5909254e-39
-0.020482935 0.053667508 0.79400003 4.8719448e-39
-0.017707145 0.053532325 0.792 6.070481e-39
-0.014945141 0.053397141 0.79000002 4.322008e-39
-0.012227852 0.053397141 0.79000002 5.4283486e-39
-0.0095105376 0.053397141 0.79000002 5.5219679e-39
-0.0068104463 0.053532325 0.792 4.6000257e-39
-0.0040862779 0.053532325 0.792 3.1263529e-39
-0.0013655497 0.053667508 0.79400003 4.9702599e-39
0.0013723767 0.053937871 0.79799998 1.0407269e-38
0.0041223941 0.054005463 0.79900002 1.7690723e-38
0.0071200118 0.055965614 0.82800001 1.613279e-38
0.0099680061 0.055965614 0.82800001 1.5856204e-38
0.012877913 0.056235977 0.83200002 1.5304096e-38
0.015815336 0.056506343 0.83600003 1.5396292e-38
-0.028351057 0.050338224 0.78500003 1.6226771e-38
-0.025748968 0.050530594 0.78799999 1.787874e-38
-0.023038559 0.050530594 0.78799999 1.3637741e-38
-0.020328149 0.050530594 0.78799999 8.561921e-39
-0.017707145 0.050787095 0.792 4.2287376e-39
-0.014982977 0.050787095 0.792 2.4817108e-39
-0.012227852 0.050658848 0.79000002 3.5880541e-39
-0.0095105376 0.050658848 0.79000002 4.4159959e-39
-0.0068104463 0.050787095 0.792 5.4301437e-39
-0.0040965974 0.050915349 0.79400003 3.95395e-39
-0.0013689892 0.0510436 0.796 7.6417752e-39
0.0013740966 0.051235974 0.79900002 7.27225e-39
0.0041223941 0.051235974 0.79900002 1.2619597e-38
0.0071200118 0.053095605 0.82800001 1.2162248e-38
0.0099680061 0.053095605 0.82800001 1.6311051e-38
0.012877913 0.053352103 0.83200002 1.6315024e-38
0.015815336 0.053608604 0.83600003 1.6038437e-38
0.018735562 0.053736851 0.838 1.5488125e-38
-0.031051148 0.04761726 0.78500003 1.5942256e-38
-0.028351057 0.04761726 0.78500003 1.2715409e-38
-0.025650941 0.04761726 0.78500003 1.0130315e-38
-0.02295085 0.04761726 0.78500003 1.2158618e-38
-0.020250758 0.04761726 0.78500003 9.5804268e-39
-0.017617714 0.047799233 0.78799999 5.8004059e-39
-0.014945141 0.047920555 0.79000002 7.8178736e-39
-0.012258808 0.048041869 0.792 5.7895823e-39
-0.0095346142 0.048041869 0.792 3.6784519e-39
-0.0068104463 0.048041869 0.792 3.4940606e-39
-0.0040965974 0.04816319 0.79400003 3.0320063e-39
-0.0013689892 0.048284508 0.796 5.152503e-39
0.0013740966 0.048466485 0.79900002 7.4523393e-39
0.0041327132 0.048587799 0.801 6.9913611e-39
0.0071372096 0.050346911 0.82999998 8.1928036e-39
0.0099920826 0.050346911 0.82999998 1.0774281e-38
0.012877913 0.050468229 0.83200002 1.3545558e-38
0.015815336 0.050710864 0.83600003 1.6403622e-38
0.018735562 0.050832178 0.838 1.5762907e-38
0.021669546 0.050953496 0.83999997 1.5947298e-38
-0.035940573 0.044267137 0.77399999 1.5292178e-38
-0.03327829 0.044267137 0.77399999 1.3724852e-38
-0.030616036 0.044267137 0.77399999 6.7086547e-39
-0.028098246 0.044495907 0.778 6.800849e-39
-0.025585586 0.044781871 0.78299999 9.1990101e-39
-0.02295085 0.04489626 0.78500003 1.2610248e-38
-0.020250758 0.04489626 0.78500003 1.1695166e-38
-0.017595356 0.045010645 0.787 5.7946452e-39
-0.014907304 0.045067832 0.78799999 4.7783255e-39
-0.012258808 0.045296606 0.792 6.0690643e-39
-0.0095346142 0.045296606 0.792 7.0843204e-39
-0.0068276445 0.045410994 0.79400003 6.2545598e-39
-0.0040965974 0.045410994 0.79400003 9.7529112e-39
-0.001372429 0.045639761 0.79799998 1.2979758e-38
0.0013740966 0.045696955 0.79900002 1.1324568e-38
0.0041327132 0.045811336 0.801 6.2538087e-39
0.0071372096 0.047469929 0.82999998 3.6752275e-39
0.0099920826 0.047469929 0.82999998 3.7674232e-39
0.012877913 0.047584314 0.83200002 6.3506987e-39
0.015853172 0.047927469 0.838 9.5775457e-39
0.018735562 0.047927469 0.838 1.3362571e-38
0.021669546 0.04804185 0.83999997 1.6589418e-38
-0.043246295 0.040939547 0.76200002 1.6133494e-38
-0.040838569 0.041154452 0.76599997 1.6030447e-38
-0.038203832 0.041154452 0.76599997 1.1973839e-38
-0.03556909 0.041154452 0.76599997 1.2425543e-38
-0.033149306 0.041423086 0.77100003 1.3716282e-38
-0.030576481 0.041530538 0.773 1.4914411e-38
-0.027953781 0.041584261 0.77399999 1.3992454e-38
-0.025487557 0.041906621 0.77999997 9.47669e-39
-0.022892375 0.042067803 0.78299999 7.8171687e-39
-0.020250758 0.042175259 0.78500003 7.085384e-39
-0.017595356 0.042282708 0.787 4.6882976e-39
-0.014907304 0.042336434 0.78799999 6.3424338e-39
-0.012258808 0.042551339 0.792 6.3424338e-39
-0.0095346142 0.042551339 0.792 8.1935393e-39
-0.0068276445 0.042658795 0.79400003 5.9808441e-39
-0.0040965974 0.042658795 0.79400003 6.5278536e-39
-0.001372429 0.042873699 0.79799998 7.0810218e-39
0.0013740966 0.042927425 0.79900002 6.9903199e-39
0.0041327132 0.043034878 0.801 8.7420369e-39
0.0071544084 0.044700395 0.83200002 6.0665756e-39
0.010016161 0.044700395 0.83200002 5.4212062e-39
0.012908869 0.044807851 0.83399999 9.2084072e-39
0.015853172 0.045022756 0.838 6.4425384e-39
0.018780276 0.045130204 0.83999997 5.2539948e-39
0.021746937 0.04529139 0.84299999 1.4750135e-38
0.02464658 0.04529139 0.84299999 1.5303733e-38
-0.048742808 0.038499348 0.76599997 1.6133857e-38
-0.046108071 0.038499348 0.76599997 1.7147261e-38
-0.043246295 0.038298305 0.76200002 1.4934565e-38
-0.040625315 0.038298305 0.76200002 1.391389e-38
-0.038104083 0.038398828 0.764 1.1332413e-38
-0.03556909 0.038499348 0.76599997 1.5657413e-38
-0.032977324 0.038549609 0.76700002 1.0310066e-38
-0.030418258 0.038650129 0.76899999 6.340954e-39
-0.027917666 0.038851168 0.773 1.2333662e-38
-0.025422206 0.039102469 0.778 1.0124554e-38
-0.022833904 0.039253253 0.78100002 8.1884455e-39
-0.020199163 0.039353773 0.78299999 7.1696385e-39
-0.017595356 0.039554816 0.787 5.3264588e-39
-0.014907304 0.03960507 0.78799999 5.1489101e-39
-0.012258808 0.039806113 0.792 3.9503669e-39
-0.0095346142 0.039806113 0.792 5.7020964e-39
-0.0068276445 0.039906636 0.79400003 6.1630746e-39
-0.0040965974 0.039906636 0.79400003 6.2548582e-39
-0.001372429 0.040107675 0.79799998 8.559742e-39
0.0013740966 0.040157937 0.79900002 1.0408383e-38
0.0041327132 0.040258456 0.801 7.8269049e-39
0.0071544084 0.041816521 0.83200002 6.9960302e-39
0.010016161 0.041816521 0.83200002 3.1238418e-39
0.012908869 0.041917045 0.83399999 7.3578259e-40
0.015853172 0.042118084 0.838 4.1470209e-39
0.018780276 0.042218603 0.83999997 1.2443864e-38
0.021746937 0.042369388 0.84299999 1.6039493e-38
0.024822 0.042670947 0.84899998 1.5211538e-38
-0.051243402 0.035750616 0.764 1.6224598e-38
-0.048615541 0.035750616 0.764 1.7330946e-38
-0.045987684 0.035750616 0.764 1.7787193e-38
-0.043246295 0.03565703 0.76200002 1.7787193e-38
-0.040625315 0.03565703 0.76200002 1.446781e-38
-0.038104083 0.035750616 0.764 1.1240963e-38
-0.03556909 0.035844203 0.76599997 8.8366666e-39
-0.03293433 0.035844203 0.76599997 9.3898404e-39
-0.030418258 0.035984587 0.76899999 3.767049e-39
-0.027845435 0.036078177 0.77100003 6.5329137e-39
-0.025422206 0.036405731 0.778 1.0127431e-38
-0.022804664 0.036499318 0.77999997 1.1141583e-38
-0.020199163 0.036639702 0.78299999 7.3554899e-39
-0.017550642 0.036733292 0.78500003 7.7242724e-39
-0.014907304 0.036873672 0.78799999 7.3601408e-39
-0.012258808 0.037060849 0.792 6.7147714e-39
-0.0095346142 0.037060849 0.792 8.2864131e-39
-0.0068276445 0.03715444 0.79400003 8.563e-39
-0.0041069156 0.037248023 0.796 6.7187245e-39
-0.001372429 0.03734161 0.79799998 7.825072e-39
0.0013740966 0.037388407 0.79900002 1.0958667e-38
0.0041327132 0.037481993 0.801 8.5615805e-39
0.0068878378 0.037481993 0.801 4.9624112e-39
0.010040238 0.039026197 0.83399999 7.0829107e-39
0.012908869 0.039026197 0.83399999 9.4021564e-39
0.015853172 0.039213371 0.838 1.5579264e-38
0.018780276 0.039306957 0.83999997 1.5673598e-38
0.021746937 0.039447341 0.84299999 1.5120424e-38
0.024822 0.039728105 0.84899998 1.5119345e-38
-0.051243402 0.033102445 0.764 1.4748731e-38
-0.048615541 0.033102445 0.764 1.2812623e-38
-0.045867302 0.033015788 0.76200002 1.0228178e-38
-0.043189537 0.032972459 0.76099998 1.1057926e-38
-0.040571999 0.032972459 0.76099998 1.0686287e-38
-0.038004335 0.033015788 0.76200002 1.0317504e-38
-0.035476223 0.033102445 0.764 7.8236063e-39
-0.03293433 0.033189099 0.76599997 8.1923888e-39
-0.030418258 0.033319082 0.76899999 7.5409644e-39
-0.027845435 0.03340574 0.77100003 7.8175513e-39
-0.025356853 0.033622377 0.77600002 7.0864308e-39
-0.022804664 0.033795685 0.77999997 4.8737385e-39
-0.020199163 0.033925671 0.78299999 6.9910206e-39
-0.017550642 0.034012329 0.78500003 8.1895638e-39
-0.014907304 0.034142312 0.78799999 6.7162288e-39
-0.012258808 0.034315623 0.792 6.0708593e-39
-0.0095346142 0.034315623 0.792 7.8290377e-39
-0.0068276445 0.034402277 0.79400003 8.2900159e-39
-0.0041069156 0.034488935 0.796 5.8867988e-39
-0.001372429 0.034575589 0.79799998 6.1633815e-39
0.0013740966 0.034618918 0.79900002 7.6403459e-39
0.0041327132 0.034705572 0.801 4.0447163e-39
0.0069566299 0.035052195 0.80900002 1.576043e-38
0.0098115029 0.035312161 0.815 1.6497995e-38
0.012645738 0.035398815 0.81699997 1.6041664e-38
-0.048615541 0.030454235 0.764 1.2168356e-38
-0.045867302 0.03037451 0.76200002 1.1519312e-38
-0.043189537 0.030334648 0.76099998 9.859791e-39
-0.040571999 0.030334648 0.76099998 1.0317892e-38
-0.038004335 0.03037451 0.76200002 8.7505666e-39
-0.035476223 0.030454235 0.764 5.2435916e-39
-0.032977324 0.030573819 0.76700002 9.3923865e-39
-0.030418258 0.03065354 0.76899999 7.268346e-39
-0.027917666 0.030812988 0.773 8.005911e-39
-0.025356853 0.030932572 0.77600002 7.6370906e-39
-0.022804664 0.031092016 0.77999997 5.9775693e-39
-0.020199163 0.031211603 0.78299999 6.8084244e-39
-0.017595356 0.03137105 0.787 7.2694025e-39
-0.014945141 0.031490635 0.79000002 5.7006447e-39
-0.012289765 0.031650081 0.79400003 4.9630797e-39
-0.0095586926 0.031650081 0.79400003 5.058162e-39
-0.0068448423 0.031729802 0.796 5.9801183e-39
-0.0041172346 0.031809524 0.79799998 4.5939272e-39
-0.0013741488 0.031849388 0.79900002 6.6222255e-39
0.0013775361 0.031929109 0.801 9.2051352e-39
0.0041430318 0.032008834 0.80299997 8.7441571e-39
0.0069394317 0.032168277 0.80699998 1.6406491e-38
0.0097392714 0.032248002 0.80900002 1.6037708e-38
0.012614782 0.032487173 0.815 1.5303736e-38
-0.035708398 0.027988 0.76899999 1.3778912e-39
-0.033063315 0.027988 0.76899999 2.115452e-39
-0.030576481 0.02813358 0.773 3.5866066e-39
-0.027917666 0.02813358 0.773 1.0316888e-38
-0.025585586 0.028497534 0.78299999 1.0311162e-38
-0.022892375 0.028497534 0.78299999 4.041859e-39
-0.020302353 0.028643116 0.787 6.7169574e-39
-0.017617714 0.028679509 0.78799999 7.5467181e-39
-0.014982977 0.028825091 0.792 7.2625754e-39
-0.012289765 0.028897883 0.79400003 6.8937929e-39
-0.0095827691 0.028970672 0.796 7.9169426e-39
-0.0068448423 0.028970672 0.796 8.562312e-39
-0.0041172346 0.029043462 0.79799998 6.5296571e-39
-0.0013741488 0.029079858 0.79900002 6.8984396e-39
0.0013740966 0.029079858 0.79900002 7.4534042e-39
0.0041430318 0.029225441 0.80299997 5.2407217e-39
0.0069394317 0.029371019 0.80699998 1.5670361e-38
0.0097392714 0.029443812 0.80900002 1.5670361e-38
0.012614782 0.029662183 0.815 1.5028228e-38
-0.031328037 0.026079865 0.792 1.5212257e-38
-0.028603869 0.026079865 0.792 1.6687387e-38
-0.025748968 0.025948148 0.78799999 1.2713273e-38
-0.023038559 0.025948148 0.78799999 4.1390797e-39
-0.020328149 0.025948148 0.78799999 7.2676173e-39
-0.017707145 0.026079865 0.792 7.4520085e-39
-0.014982977 0.026079865 0.792 5.6974077e-39
-0.012289765 0.026145725 0.79400003 5.4208208e-39
-0.0095827691 0.026211582 0.796 5.5158933e-39
-0.0068448423 0.026211582 0.796 5.7002846e-39
-0.0041172346 0.02627744 0.79799998 3.8599607e-39
-0.0013741488 0.026310369 0.79900002 5.1506981e-39
0.0013740966 0.026310369 0.79900002 7.2715311e-39
0.0041430318 0.026442086 0.80299997 9.0232481e-39
0.0069394317 0.0265738 0.80699998 1.6222453e-38
0.0097392714 0.026639661 0.80900002 1.585367e-38
-0.028603869 0.023334639 0.792 1.6226769e-38
-0.025879676 0.023334639 0.792 8.6616977e-39
-0.023155507 0.023334639 0.792 2.3001992e-39
-0.020431338 0.023334639 0.792 7.9176937e-39
-0.017707145 0.023334639 0.792 7.1801286e-39
-0.015020813 0.023393566 0.79400003 6.3449379e-39
-0.012289765 0.023393566 0.79400003 7.4512855e-39
-0.0095586926 0.023393566 0.79400003 7.5488537e-39
-0.0068448423 0.023452491 0.796 9.208375e-39
-0.0041172346 0.023511415 0.79799998 7.8268797e-39
-0.0013741488 0.023540879 0.79900002 7.1815103e-39
0.0013740966 0.023540879 0.79900002 7.6413996e-39
0.0041327132 0.023599803 0.801 8.7477472e-39
0.0069566299 0.023835508 0.80900002 1.6130257e-38
0.0097392714 0.023835508 0.80900002 1.585367e-38
-0.028603869 0.020589372 0.792 1.6226055e-38
-0.025879676 0.020589372 0.792 1.4283839e-38
-0.023155507 0.020589372 0.792 4.6032977e-39
-0.020431338 0.020589372 0.792 1.1971768e-38
-0.017707145 0.020589372 0.792 1.0220051e-38
-0.015020813 0.020641368 0.79400003 7.6356893e-39
-0.012289765 0.020641368 0.79400003 8.2810588e-39
-0.0095586926 0.020641368 0.79400003 8.4639562e-39
-0.0068276445 0.020641368 0.79400003 1.1322021e-38
-0.0041069156 0.02069336 0.796 9.4828137e-39
-0.001372429 0.020745352 0.79799998 5.7027929e-39
0.0013740966 0.020771351 0.79900002 7.2719011e-39
0.0041327132 0.020823343 0.801 6.4421404e-39
0.0069566299 0.021031316 0.80900002 1.5669998e-38
0.0097392714 0.021031316 0.80900002 1.5669998e-38
-0.028603869 0.017844107 0.792 1.6133141e-38
-0.025879676 0.017844107 0.792 1.2166576e-38
-0.023155507 0.017844107 0.792 4.8831216e-39
-0.020431338 0.017844107 0.792 1.0867906e-38
-0.017707145 0.017844107 0.792 9.4849717e-39
-0.014982977 0.017844107 0.792 6.0733957e-39
-0.012258808 0.017844107 0.792 5.1514394e-39
-0.0095586926 0.01788917 0.79400003 4.6868389e-39
-0.0068276445 0.01788917 0.79400003 6.6229415e-39
-0.0041069156 0.017934229 0.796 4.7858911e-39
-0.001372429 0.01797929 0.79799998 3.310761e-39
0.0013740966 0.018001821 0.79900002 5.7906823e-39
0.0041327132 0.018046882 0.801 7.5423993e-39
0.0069566299 0.018227125 0.80900002 1.6037696e-38
0.0097392714 0.018227125 0.80900002 1.5853304e-38
-0.025879676 0.015098881 0.792 1.5116118e-38
-0.023155507 0.015098881 0.792 1.1336097e-38
-0.020431338 0.015098881 0.792 8.7380166e-39
-0.017707145 0.015098881 0.792 9.8443641e-39
-0.014982977 0.015098881 0.792 7.9994272e-39
-0.012258808 0.015098881 0.792 7.6306447e-39
-0.0095586926 0.01513701 0.79400003 7.5395e-39
-0.0068276445 0.01513701 0.79400003 1.0213173e-38
-0.0041069156 0.015175139 0.796 8.378634e-39
-0.001372429 0.015213267 0.79799998 5.7971563e-39
0.0013740966 0.015232331 0.79900002 6.8959859e-39
0.0041327132 0.015270459 0.801 6.8959859e-39
0.0069394317 0.015384845 0.80699998 1.4931341e-38
0.0097392714 0.015422974 0.80900002 1.5853297e-38
-0.02594503 0.012384812 0.79400003 1.4564729e-38
-0.023213983 0.012384812 0.79400003 1.2259838e-38
-0.020431338 0.012353616 0.792 1.0862143e-38
-0.017707145 0.012353616 0.792 1.1784099e-38
-0.014982977 0.012353616 0.792 9.2040814e-39
-0.012258808 0.012353616 0.792 5.7928431e-39
-0.0095586926 0.012384812 0.79400003 5.8821493e-39
-0.0068276445 0.012384812 0.79400003 7.7260619e-39
-0.0041069156 0.012416008 0.796 5.890061e-39
-0.001372429 0.012447204 0.79799998 3.6773659e-39
0.0013775361 0.012493998 0.801 4.7794269e-39
0.0041430318 0.012525194 0.80299997 6.7155351e-39
0.0069394317 0.012587585 0.80699998 1.4562565e-38
0.0097392714 0.012618782 0.80900002 1.59455e-38
-0.02594503 0.0096326536 0.79400003 1.5211903e-38
-0.023213983 0.0096326536 0.79400003 8.8504049e-39
-0.020482935 0.0096326536 0.79400003 7.8124744e-39
-0.017751861 0.0096326536 0.79400003 1.0854929e-38
-0.014982977 0.0096083898 0.792 6.8998675e-39
-0.012258808 0.0096083898 0.792 6.1623053e-39
-0.0095586926 0.0096326536 0.79400003 5.8821493e-39
-0.0068276445 0.0096326536 0.79400003 9.3855832e-39
-0.0041172346 0.0096811801 0.79799998 8.0101948e-39
-0.0013741488 0.0096933125 0.79900002 6.4428691e-39
0.0013775361 0.0097175753 0.801 7.1761307e-39
0.0041430318 0.00974184 0.80299997 6.5307613e-39
0.0069566299 0.0098146303 0.80900002 1.3365817e-38
0.0097392714 0.0098146303 0.80900002 1.5578512e-38
-0.023213983 0.0068804557 0.79400003 1.3089962e-38
-0.020482935 0.0068804557 0.79400003 1.1779783e-38
-0.017751861 0.0068804557 0.79400003 1.35315e-38
-0.014982977 0.0068631242 0.792 8.0116241e-39
-0.012258808 0.0068631242 0.792 5.8911246e-39
-0.0095586926 0.0068804557 0.79400003 6.5300396e-39
-0.0068448423 0.0068977866 0.796 8.0973653e-39
-0.0041172346 0.0069151176 0.79799998 6.4446501e-39
-0.0013741488 0.0069237831 0.79900002 5.4304982e-39
0.0013809756 0.0069584455 0.80299997 5.5216148e-39
0.0041533508 0.0069757765 0.80500001 1.2067505e-38
0.0069566299 0.0070104389 0.80900002 1.5486332e-38
0.0097633488 0.0070277699 0.81099999 1.511755e-38
-0.020534527 0.0041386564 0.796 1.2527443e-38
-0.017796574 0.0041386564 0.796 9.8537697e-39
-0.015020813 0.0041282577 0.79400003 8.1063266e-39
-0.012289765 0.0041282577 0.79400003 6.8155878e-39
-0.0095827691 0.0041386564 0.796 6.3549992e-39
-0.0068620401 0.0041490546 0.79799998 6.4471949e-39
-0.0041223941 0.0041542542 0.79900002 5.6235116e-39
-0.0013775885 0.0041646529 0.801 5.4391204e-39
0.0013844152 0.0041854503 0.80500001 4.2398583e-39
0.0041843075 0.0042166458 0.81099999 1.1431115e-38
0.0069738282 0.0042166458 0.81099999 1.5304109e-38
-0.017863648 0.0013847646 0.79900002 8.6638655e-39
-0.015096484 0.0013830314 0.79799998 6.9121135e-39
-0.012351678 0.0013830314 0.79799998 6.7277222e-39
-0.0096188849 0.0013847646 0.79900002 6.6319e-39
-0.0068706395 0.0013847646 0.79900002 6.8162913e-39
-0.0041223941 0.0013847646 0.79900002 5.6217138e-39
-0.0013775885 0.0013882307 0.801 5.6217138e-39
0.0013844152 0.0013951632 0.80500001 4.7004833e-39
0.0042049452 0.0014124945 0.815 1.0877591e-38
0.0070082243 0.0014124945 0.815 1.5212619e-38
0.0098355804 0.0014159607 0.81699997 1.4382859e-38
-0.020663513 -0.0013882307 0.801 1.4288495e-38
-0.017908363 -0.0013882307 0.801 7.9269969e-39
-0.015153238 -0.0013882307 0.801 7.8347956e-39
-0.012398113 -0.0013882307 0.801 7.3738175e-39
-0.0096429624 -0.0013882307 0.801 7.0993522e-39
-0.0068878378 -0.0013882307 0.801 4.7944614e-39
-0.0041327132 -0.0013882307 0.801 5.8997426e-39
-0.0013844678 -0.0013951632 0.80500001 6.0841339e-39
0.0014016129 -0.0014124945 0.815 4.0594201e-39
0.0042152638 -0.0014159607 0.81699997 9.5911579e-39
0.0070254221 -0.0014159607 0.81699997 1.5119342e-38
0.0098355804 -0.0014159607 0.81699997 1.4658364e-38
-0.017908363 -0.0041646529 0.801 8.0191925e-39
-0.015153238 -0.0041646529 0.801 8.2028411e-39
-0.012398113 -0.0041646529 0.801 7.9262542e-39
-0.0096429624 -0.0041646529 0.801 6.4532695e-39
-0.0068878378 -0.0041646529 0.801 2.9498566e-39
-0.0041430318 -0.0041750516 0.80299997 5.6245948e-39
-0.0013982266 -0.0042270445 0.81300002 6.5465511e-39
0.0014016129 -0.0042374432 0.815 7.8362011e-39
0.0042152638 -0.0042478419 0.81699997 1.1708418e-38
0.0070254221 -0.0042478419 0.81699997 1.4843837e-38
0.0098476196 -0.0042530415 0.81800002 1.4290663e-38
-0.020611919 -0.0069237831 0.79900002 1.3458735e-38
-0.017863648 -0.0069237831 0.79900002 8.5723663e-39
-0.015115402 -0.0069237831 0.79900002 8.1131776e-39
-0.012398113 -0.0069411141 0.801 7.2834169e-39
-0.0096429624 -0.0069411141 0.801 6.1756274e-39
-0.0068878378 -0.0069411141 0.801 3.5019542e-39
-0.0041533508 -0.0069757765 0.80500001 6.5433169e-39
-0.0013982266 -0.0070451014 0.81300002 7.1886863e-39
0.0014016129 -0.0070624324 0.815 7.190459e-39
0.0042152638 -0.0070797629 0.81699997 1.244561e-38
0.0070254221 -0.0070797629 0.81699997 1.4659806e-38
0.0098476196 -0.0070884293 0.81800002 1.4198828e-38
-0.017863648 -0.0096932733 0.79900002 8.8489504e-39
-0.015115402 -0.0096932733 0.79900002 8.3886785e-39
-0.012398113 -0.0097175362 0.801 7.5589178e-39
-0.0096670389 -0.0097417999 0.80299997 5.16293e-39
-0.0069394317 -0.0097903265 0.80699998 3.9643869e-39
-0.0041739885 -0.0098145902 0.80900002 5.8097078e-39
-0.0013982266 -0.0098631177 0.81300002 6.7316641e-39
0.0014016129 -0.0098873805 0.815 6.3596319e-39
0.0042152638 -0.0099116443 0.81699997 1.3643087e-38
0.0070254221 -0.0099116443 0.81699997 1.4751651e-38
-0.017908363 -0.012493998 0.801 8.480165e-39
-0.015153238 -0.012493998 0.801 7.9266045e-39
-0.012429069 -0.012525194 0.80299997 7.4656264e-39
-0.0096911173 -0.01255639 0.80500001 5.7150052e-39
-0.0069394317 -0.012587585 0.80699998 5.6228096e-39
-0.0041843075 -0.012649978 0.81099999 5.7149912e-39
-0.0013982266 -0.012681174 0.81300002 7.0979256e-39
0.0014016129 -0.01271237 0.815 6.2685279e-39
0.0042152638 -0.012743565 0.81699997 1.1800266e-38
0.0070254221 -0.012743565 0.81699997 1.4751291e-38
-0.017908363 -0.015270419 0.801 7.2808988e-39
-0.015153238 -0.015270419 0.801 8.1106454e-39
-0.012460027 -0.015346677 0.80500001 6.4511241e-39
-0.0097151939 -0.015384804 0.80699998 5.9897914e-39
-0.0069566299 -0.015422934 0.80900002 6.1741827e-39
-0.0041739885 -0.015422934 0.80900002 4.5164424e-39
-0.0013982266 -0.01549919 0.81300002 7.4667026e-39
0.0014016129 -0.015537319 0.815 6.1788406e-39
0.0042152638 -0.015575446 0.81699997 1.0327644e-38
0.0070254221 -0.015575446 0.81699997 1.4843474e-38
-0.017908363 -0.018046882 0.801 4.4257153e-39
-0.015153238 -0.018046882 0.801 6.7248271e-39
-0.012460027 -0.018137002 0.80500001 6.1716533e-39
-0.0097151939 -0.018182063 0.80699998 4.7941447e-39
-0.0069394317 -0.018182063 0.80699998 6.9146442e-39
-0.0041739885 -0.018227125 0.80900002 3.8725416e-39
-0.0013982266 -0.018317247 0.81300002 7.007193e-39
0.0014016129 -0.018362308 0.815 6.9142504e-39
0.0042152638 -0.018407367 0.81699997 1.0141097e-38
0.0070254221 -0.018407367 0.81699997 1.4842752e-38
-0.020715106 -0.020875297 0.80299997 1.2814804e-38
-0.017953077 -0.020875297 0.80299997 6.8220885e-39
-0.015191073 -0.020875297 0.80299997 7.8336928e-39
-0.012460027 -0.02092729 0.80500001 8.0180841e-39
-0.0097151939 -0.020979283 0.80699998 8.9400544e-39
-0.0069394317 -0.020979283 0.80699998 1.0138598e-38
-0.0041636694 -0.020979283 0.80699998 4.9763416e-39
-0.0013982266 -0.021135263 0.81300002 7.1890367e-39
0.0014016129 -0.021187257 0.815 6.4532695e-39
0.0042152638 -0.021239249 0.81699997 8.8503559e-39
0.0070254221 -0.021239249 0.81699997 1.5118619e-38
-0.017953077 -0.023658691 0.80299997 1.0141481e-38
-0.015191073 -0.023658691 0.80299997 9.1262505e-39
-0.012460027 -0.023717616 0.80500001 8.8496636e-39
-0.0096911173 -0.023717616 0.80500001 9.4031933e-39
-0.0069394317 -0.023776541 0.80699998 8.8500196e-39
-0.0041636694 -0.023776541 0.80699998 3.965428e-39
-0.0013947869 -0.023894394 0.81099999 7.0078824e-39
0.0014016129 -0.024012245 0.815 7.0053769e-39
0.0042152638 -0.02407117 0.81699997 7.6507463e-39
0.0070254221 -0.02407117 0.81699997 1.5026776e-38
-0.017953077 -0.026442086 0.80299997 1.1153829e-38
-0.015191073 -0.026442086 0.80299997 8.5741529e-39
-0.012460027 -0.026507944 0.80500001 7.7443923e-39
-0.0096911173 -0.026507944 0.80500001 1.0784365e-38
-0.0069394317 -0.0265738 0.80699998 9.032648e-39
-0.0041636694 -0.0265738 0.80699998 4.7030043e-39
-0.0013947869 -0.026705517 0.81099999 6.6391125e-39
0.0014016129 -0.026837233 0.815 7.3745237e-39
0.0042152638 -0.026903091 0.81699997 7.2823281e-39
0.0070254221 -0.026903091 0.81699997 1.4842029e-38
0.0098716961 -0.02700188 0.81999999 1.4288855e-38
-0.018042507 -0.029371019 0.80699998 1.2076134e-38
-0.015266744 -0.029371019 0.80699998 8.2049865e-39
-0.012490982 -0.029371019 0.80699998 9.8645078e-39
-0.0097151939 -0.029371019 0.80699998 1.3180728e-38
-0.0069394317 -0.029371019 0.80699998 8.2021642e-39
-0.0041636694 -0.029371019 0.80699998 5.3473213e-39
-0.0013947869 -0.029516602 0.81099999 5.9004951e-39
0.0014016129 -0.029662183 0.815 7.5592779e-39
0.0042152638 -0.029734973 0.81699997 7.2826911e-39
0.0070254221 -0.029734973 0.81699997 1.4657641e-38
0.0098476196 -0.029771371 0.81800002 1.4196663e-38
-0.02086989 -0.032248002 0.80900002 1.2260176e-38
-0.018042507 -0.032168277 0.80699998 1.1799198e-38
-0.015266744 -0.032168277 0.80699998 1.0413026e-38
-0.012490982 -0.032168277 0.80699998 1.3455482e-38
-0.0097151939 -0.032168277 0.80699998 1.170482e-38
-0.0069394317 -0.032168277 0.80699998 8.4779734e-39
-0.0041636694 -0.032168277 0.80699998 5.8057883e-39
-0.0013982266 -0.032407451 0.81300002 5.2526146e-39
0.0014016129 -0.032487173 0.815 7.5592667e-39
0.0042204238 -0.032606758 0.81800002 7.4670711e-39
0.0070340219 -0.032606758 0.81800002 1.4197386e-38
0.0098476196 -0.032606758 0.81800002 1.4012994e-38
-0.023652531 -0.035052154 0.80900002 1.4474691e-38
-0.02086989 -0.035052154 0.80900002 1.4011543e-38
-0.018042507 -0.034965497 0.80699998 1.2813e-38
-0.015266744 -0.034965497 0.80699998 1.1890327e-38
-0.012490982 -0.034965497 0.80699998 1.2074718e-38
-0.0097151939 -0.034965497 0.80699998 8.6648282e-39
-0.0069394317 -0.034965497 0.80699998 8.4804369e-39
-0.0041636694 -0.034965497 0.80699998 5.0682233e-39
-0.0013982266 -0.035225466 0.81300002 5.3448102e-39
0.0014050524 -0.035398774 0.81699997 7.8340459e-39
0.0042204238 -0.035442106 0.81800002 7.3730678e-39
0.0070254221 -0.035398774 0.81699997 1.3921512e-38
0.0098355804 -0.035398774 0.81699997 1.3829316e-38
-0.02086989 -0.037856348 0.80900002 1.4104104e-38
-0.018087223 -0.037856348 0.80900002 1.355093e-38
-0.015266744 -0.037762757 0.80699998 1.2351665e-38
-0.012490982 -0.037762757 0.80699998 1.0692144e-38
-0.0097151939 -0.037762757 0.80699998 8.0191407e-39
-0.0069394317 -0.037762757 0.80699998 8.2957275e-39
-0.0041739885 -0.037856348 0.80900002 4.9767367e-39
-0.0014016661 -0.038137108 0.815 5.3455192e-39
0.0014050524 -0.038230695 0.81699997 7.8318978e-39
0.0042204238 -0.038277496 0.81800002 7.3709196e-39
0.0070254221 -0.038230695 0.81699997 1.4013348e-38
0.0098355804 -0.038230695 0.81699997 1.3921152e-38
-0.02086989 -0.040660497 0.80900002 1.3458732e-38
-0.018087223 -0.040660497 0.80900002 1.1246037e-38
-0.015304581 -0.040660497 0.80900002 1.2351293e-38
-0.012490982 -0.040559974 0.80699998 1.115275e-38
-0.0097151939 -0.040559974 0.80699998 8.3882833e-39
-0.0069394317 -0.040559974 0.80699998 8.2960877e-39
-0.0041739885 -0.040660497 0.80900002 3.5980888e-39
-0.0014051058 -0.041062579 0.81699997 4.4278495e-39
0.0014067723 -0.041112844 0.81800002 7.1865087e-39
0.0042307423 -0.04121336 0.81999999 7.7396825e-39
0.0070340219 -0.041112844 0.81800002 1.3828603e-38
0.0098476196 -0.041112844 0.81800002 1.3828603e-38
-0.02086989 -0.04346469 0.80900002 1.5854359e-38
-0.018087223 -0.04346469 0.80900002 1.2904099e-38
-0.015304581 -0.04346469 0.80900002 1.2721137e-38
-0.012490982 -0.043357234 0.80699998 1.0785029e-38
-0.0097151939 -0.043357234 0.80699998 7.5599576e-39
-0.0069394317 -0.043357234 0.80699998 9.6804571e-39
-0.0041739885 -0.04346469 0.80900002 5.7106612e-39
-0.0014016661 -0.043787047 0.815 5.0653016e-39
0.0014067723 -0.043948229 0.81800002 5.1654146e-39
0.0042307423 -0.044055682 0.81999999 1.032837e-38
0.0070340219 -0.043948229 0.81800002 1.4656909e-38
0.0098476196 -0.043948229 0.81800002 1.4103736e-38
-0.023827951 -0.046611995 0.815 1.7518927e-38
-0.02086989 -0.046268839 0.80900002 1.8801004e-38
-0.018042507 -0.046154454 0.80699998 1.7141483e-38
-0.015266744 -0.046154454 0.80699998 1.6128425e-38
-0.012490982 -0.046154454 0.80699998 1.2717187e-38
-0.0097151939 -0.046154454 0.80699998 1.1794868e-38
-0.0069394317 -0.046154454 0.80699998 1.3269998e-38
-0.0041739885 -0.046268839 0.80900002 1.2810427e-38
-0.0014016661 -0.046611995 0.815 1.0321145e-38
0.0014067723 -0.046783578 0.81800002 1.1335711e-38
0.0042204238 -0.046783578 0.81800002 1.1243516e-38
0.0070512192 -0.046897963 0.81999999 1.2904084e-38
0.0098716961 -0.046897963 0.81999999 1.6407518e-38
0.01272313 -0.047012348 0.82200003 1.5119705e-38
-0.023827951 -0.049436986 0.815 1.82511e-38
-0.02086989 -0.049073033 0.80900002 1.9075423e-38
-0.018042507 -0.048951712 0.80699998 1.9720793e-38
-0.015228909 -0.048830397 0.80500001 1.7692489e-38
-0.012460027 -0.048830397 0.80500001 1.5018816e-38
-0.0096911173 -0.048830397 0.80500001 1.2626767e-38
-0.0069394317 -0.048951712 0.80699998 1.2903354e-38
-0.0041636694 -0.048951712 0.80699998 6.2616742e-39
-0.0014016661 -0.049436986 0.815 6.999228e-39
0.0014050524 -0.049558301 0.81699997 6.815585e-39
0.0042204238 -0.049618967 0.81800002 7.1843675e-39
0.0070340219 -0.049618967 0.81800002 8.2971849e-39
0.0098716961 -0.049740281 0.81999999 1.7516748e-38
0.012692173 -0.049740281 0.81999999 1.6870709e-38
-0.02086989 -0.051877223 0.80900002 1.6681577e-38
-0.018042507 -0.051748972 0.80699998 1.6036207e-38
-0.015228909 -0.051620722 0.80500001 1.1061155e-38
-0.012460027 -0.051620722 0.80500001 8.6641051e-39
-0.0096911173 -0.051620722 0.80500001 7.1893562e-39
-0.0069394317 -0.051748972 0.80699998 9.955211e-39
-0.0041636694 -0.051748972 0.80699998 1.115311e-38
-0.0014016661 -0.052261975 0.815 1.1337501e-38
0.0014050524 -0.052390222 0.81699997 1.0970169e-38
0.0042204238 -0.052454352 0.81800002 1.1615538e-38
0.0070340219 -0.052454352 0.81800002 1.3642422e-38
0.0098716961 -0.052582603 0.81999999 1.5117553e-38
0.012692173 -0.052582603 0.81999999 1.5210812e-38
