# .PCD v0.7 - Point Cloud Data file format
VERSION 0.7
FIELDS x y z rgb
SIZE 4 4 4 4
TYPE F F F F
COUNT 1 1 1 1
WIDTH 394
HEIGHT 1
VIEWPOINT 0 0 0 1 0 0 0
POINTS 394
DATA ascii
-0.021205254 0.084052436 0.82200003 1.3090288e-38
-0.01837787 0.084052436 0.82200003 1.6409331e-38
-0.015550514 0.084052436 0.82200003 1.5581046e-38
-0.021205254 0.081203185 0.82200003 1.2442711e-38
-0.01837787 0.081203185 0.82200003 1.7329079e-38
-0.015550514 0.081203185 0.82200003 1.5765077e-38
-0.024091084 0.078544609 0.824 1.1614029e-38
-0.021205254 0.078353971 0.82200003 9.4002772e-39
-0.01837787 0.078353971 0.82200003 1.271932e-38
-0.01558835 0.078544609 0.824 1.6685594e-38
-0.012754114 0.078544609 0.824 1.6224616e-38
-0.0071200118 0.078925893 0.82800001 1.6318238e-38
-0.0042513805 0.078544609 0.824 1.585727e-38
-0.0014137051 0.078353971 0.82200003 1.6041661e-38
0.0014102117 0.078163326 0.81999999 1.5765427e-38
0.0042307423 0.078163326 0.81999999 1.5765427e-38
-0.026925318 0.075688466 0.824 1.1058697e-38
-0.024091084 0.075688466 0.824 1.290261e-38
-0.021256847 0.075688466 0.824 1.271468e-38
-0.018422585 0.075688466 0.824 5.1546386e-39
-0.01558835 0.075688466 0.824 1.5207941e-38
-0.012754114 0.075688466 0.824 1.5392332e-38
-0.0099439286 0.075872168 0.82599998 1.1985744e-38
-0.007102814 0.075872168 0.82599998 1.1616962e-38
-0.0042513805 0.075688466 0.824 1.2349861e-38
-0.0014137051 0.075504757 0.82200003 1.0690339e-38
0.0014102117 0.075321041 0.81999999 1.2166887e-38
0.0042307423 0.075321041 0.81999999 1.5024952e-38
-0.02975958 0.072832279 0.824 5.3490897e-39
-0.026925318 0.072832279 0.824 6.9099036e-39
-0.024091084 0.072832279 0.824 7.0020978e-39
-0.021308441 0.073009051 0.82599998 7.2768869e-39
-0.0184673 0.073009051 0.82599998 6.2627504e-39
-0.015664021 0.073185831 0.82800001 9.9473301e-39
-0.012785071 0.073009051 0.82599998 7.6424394e-39
-0.0099198511 0.072832279 0.824 7.9175844e-39
-0.0070856158 0.072832279 0.824 7.0878349e-39
-0.0042410614 0.072655506 0.82200003 7.2732995e-39
-0.0014137051 0.072655506 0.82200003 7.457688e-39
0.0014136513 0.072655506 0.82200003 1.0688132e-38
0.0042410614 0.072655506 0.82200003 1.3638392e-38
0.0070856158 0.072832279 0.824 1.4471817e-38
-0.027056023 0.070315786 0.82800001 1.6132393e-38
-0.02420803 0.070315786 0.82800001 1.5948001e-38
-0.021308441 0.070145935 0.82599998 9.8601792e-39
-0.0184673 0.070145935 0.82599998 8.2006579e-39
-0.01558835 0.069976091 0.824 6.5317997e-39
-0.012723157 0.069806248 0.82200003 9.7586355e-39
-0.0098716961 0.069636405 0.81999999 9.02249e-39
-0.0070512192 0.069636405 0.81999999 9.2068812e-39
-0.0042307423 0.069636405 0.81999999 9.02249e-39
-0.0014137051 0.069806248 0.82200003 8.1927307e-39
0.0014170909 0.069976091 0.824 1.2899064e-38
0.0042513805 0.069976091 0.824 1.5480542e-38
0.0070856158 0.069976091 0.824 1.5672541e-38
-0.027056023 0.067445777 0.82800001 1.5858339e-38
-0.02420803 0.067445777 0.82800001 1.5581752e-38
-0.021360036 0.067445777 0.82800001 7.186845e-39
-0.0184673 0.067282856 0.82599998 7.4634277e-39
-0.01558835 0.067119949 0.824 6.6239939e-39
-0.0126922 0.06679412 0.81999999 8.1913098e-39
-0.0098476196 0.066631213 0.81800002 8.472563e-39
-0.0070340219 0.066631213 0.81800002 8.0115849e-39
-0.0042307423 0.06679412 0.81999999 8.3792758e-39
-0.0014137051 0.066957042 0.82200003 9.3012321e-39
0.0014170909 0.067119949 0.824 7.9230144e-39
0.0042513805 0.067119949 0.824 1.3639143e-38
0.0071200118 0.067445777 0.82800001 1.5855834e-38
-0.024091084 0.064263761 0.824 1.585691e-38
-0.018422585 0.064263761 0.824 6.9070338e-39
-0.01558835 0.064263761 0.824 5.2400043e-39
-0.012661245 0.063795827 0.81800002 8.7434312e-39
-0.0098355804 0.063717827 0.81699997 6.9942057e-39
-0.0070254221 0.063717827 0.81699997 7.3629827e-39
-0.0042204238 0.063795827 0.81800002 5.9779168e-39
-0.0014102653 0.063951805 0.81999999 6.9920603e-39
0.0014136513 0.064107783 0.82200003 4.3194969e-39
0.0042513805 0.064263761 0.824 1.3446857e-38
0.007102814 0.064419739 0.82599998 1.5673247e-38
-0.021256847 0.061407618 0.824 7.7389384e-39
-0.018422585 0.061407618 0.824 6.0794381e-39
-0.015550514 0.061258573 0.82200003 6.5346695e-39
-0.012661245 0.060960475 0.81800002 6.4424753e-39
-0.0098355804 0.060885947 0.81699997 7.4576978e-39
-0.0070254221 0.060885947 0.81699997 5.0606381e-39
-0.0042152638 0.060885947 0.81699997 3.7720713e-39
-0.0014068257 0.060960475 0.81800002 7.8286748e-39
0.0014136513 0.061258573 0.82200003 5.9029824e-39
0.0042513805 0.061407618 0.824 1.3924002e-38
0.007102814 0.061556663 0.82599998 1.5305178e-38
-0.021256847 0.058551434 0.824 6.5422029e-39
-0.01837787 0.058409318 0.82200003 5.9890375e-39
-0.015550514 0.058409318 0.82200003 6.0704698e-39
-0.012645765 0.058054026 0.81699997 4.964139e-39
-0.0098115029 0.05791191 0.815 3.5862563e-39
-0.0070082243 0.05791191 0.815 5.5223645e-39
-0.0042152638 0.058054026 0.81699997 8.7513724e-39
-0.0014068257 0.05812509 0.81800002 9.3967418e-39
0.0014136513 0.058409318 0.82200003 1.0872935e-38
0.0042513805 0.058551434 0.824 1.6496869e-38
0.007102814 0.058693547 0.82599998 1.5397008e-38
-0.018333154 0.05542488 0.81999999 5.6134447e-39
-0.015512677 0.05542488 0.81999999 2.1136513e-39
-0.012645765 0.055222102 0.81699997 5.5248854e-39
-0.0097874263 0.054951742 0.81300002 1.1881383e-38
-0.0069910265 0.054951742 0.81300002 9.7608832e-39
-0.0042049452 0.055086922 0.815 8.1956874e-39
-0.0014102653 0.05542488 0.81999999 7.9191006e-39
0.0014136513 0.055560067 0.82200003 7.0990046e-39
0.0042513805 0.055695247 0.824 1.2815134e-38
0.0070856158 0.055695247 0.824 1.5120421e-38
-0.018333154 0.052582603 0.81999999 4.6003844e-39
-0.015455923 0.052390222 0.81699997 7.2737283e-39
-0.012645765 0.052390222 0.81699997 1.2989857e-38
-0.0097633488 0.052005474 0.81099999 1.6852003e-38
-0.0069738282 0.052005474 0.81099999 1.7589568e-38
-0.0042049452 0.052261975 0.815 1.0679863e-38
-0.0014102653 0.052582603 0.81999999 6.0701111e-39
0.0014136513 0.052710854 0.82200003 1.1242472e-38
0.0042513805 0.052839104 0.824 1.6497623e-38
0.0070856158 0.052839104 0.824 1.4936393e-38
-0.015342416 0.049194388 0.81099999 9.2073437e-39
-0.012552896 0.049194388 0.81099999 1.0313691e-38
-0.0097633488 0.049194388 0.81099999 1.5011635e-38
-0.0069738282 0.049194388 0.81099999 1.5288222e-38
-0.0014137051 0.049861643 0.82200003 6.6250701e-39
0.0014136513 0.049861643 0.82200003 1.1518924e-38
0.0042513805 0.049982958 0.824 1.751164e-38
-0.015342416 0.046383265 0.81099999 1.4915529e-38
-0.012552896 0.046383265 0.81099999 1.3071616e-38
-0.0097633488 0.046383265 0.81099999 1.2339057e-38
-0.0069738282 0.046383265 0.81099999 1.9253729e-38
-0.015304581 0.04346469 0.80900002 9.659652e-39
-0.012521939 0.04346469 0.80900002 1.0950391e-38
-0.0097633488 0.043572139 0.81099999 1.1504614e-38
-0.0069738282 0.043572139 0.81099999 1.9249047e-38
-0.015304581 0.040660538 0.80900002 1.4829451e-38
-0.012521939 0.040660538 0.80900002 9.389909e-39
-0.0097392714 0.040660538 0.80900002 5.6970294e-39
-0.0069566299 0.040660538 0.80900002 1.2058521e-38
-0.0014051058 0.041062616 0.81699997 1.059489e-38
0.0014050524 0.041062616 0.81699997 3.6734198e-40
-0.015304581 0.037856348 0.80900002 1.6117675e-38
-0.012521939 0.037856348 0.80900002 1.1046915e-38
-0.0097151939 0.037762757 0.80699998 1.3809171e-38
-0.0069394317 0.037762757 0.80699998 7.8164554e-39
-0.0041739885 0.037856348 0.80900002 6.253782e-39
-0.0013947869 0.037949935 0.81099999 5.0552571e-39
0.0014050524 0.038230695 0.81699997 5.0538235e-39
0.0042307423 0.038371082 0.81999999 1.7961212e-38
0.0070856158 0.03855826 0.824 1.5304096e-38
-0.018266082 0.035398815 0.81699997 8.7470437e-39
-0.015304581 0.035052195 0.80900002 1.0399407e-38
-0.012521939 0.035052195 0.80900002 8.3711034e-39
-0.0097151939 0.034965537 0.80699998 9.6581708e-39
-0.0069394317 0.034965537 0.80699998 9.5659752e-39
-0.0041739885 0.035052195 0.80900002 1.0587739e-38
-0.0013947869 0.035138849 0.81099999 1.0495543e-38
0.0013981734 0.035225507 0.81300002 7.826151e-39
0.0042152638 0.035398815 0.81699997 1.7045714e-38
0.007068418 0.035615459 0.82200003 1.493567e-38
-0.021076266 0.032566894 0.81699997 1.362839e-38
-0.018221367 0.032487173 0.815 1.4273759e-38
-0.015342416 0.032327726 0.81099999 1.4639324e-38
-0.012521939 0.032248002 0.80900002 1.0582717e-38
-0.0097151939 0.032168277 0.80699998 8.3659999e-39
-0.0069394317 0.032168277 0.80699998 7.7206389e-39
-0.0041636694 0.032168277 0.80699998 1.1327449e-38
-0.0013913471 0.032248002 0.80900002 9.8523193e-39
0.0013947338 0.032327726 0.81099999 7.8261763e-39
0.0042049452 0.032487173 0.815 1.7045739e-38
0.007068418 0.032766204 0.82200003 1.4751273e-38
-0.021076266 0.029734973 0.81699997 9.478848e-39
-0.018221367 0.029662183 0.815 1.0124217e-38
-0.015380253 0.029589394 0.81300002 9.5728934e-39
-0.012521939 0.029443812 0.80900002 4.686525e-39
-0.0097151939 0.029371019 0.80699998 8.274226e-39
-0.0069394317 0.029371019 0.80699998 6.8912916e-39
-0.0041636694 0.029371019 0.80699998 7.6338424e-39
-0.0013913471 0.029443812 0.80900002 7.4494512e-39
0.0013947338 0.029516602 0.81099999 6.5361605e-39
0.0042049452 0.029662183 0.815 1.6954267e-38
-0.021024672 0.026837233 0.815 1.3259229e-38
-0.018221367 0.026837233 0.815 1.4826555e-38
-0.015380253 0.026771378 0.81300002 1.418588e-38
-0.012521939 0.026639661 0.80900002 7.2712074e-39
-0.0097151939 0.0265738 0.80699998 1.0949662e-38
-0.0069394317 0.0265738 0.80699998 7.4462282e-39
-0.0041636694 0.0265738 0.80699998 8.4664884e-39
-0.0013913471 0.026639661 0.80900002 9.8494228e-39
0.0013947338 0.026705517 0.81099999 9.0276033e-39
0.0041946266 0.026771378 0.81300002 1.6587645e-38
0.0070340219 0.026936024 0.81800002 1.4566894e-38
-0.021024672 0.024012286 0.815 1.325743e-38
-0.018176652 0.02395336 0.81300002 1.5285734e-38
-0.015380253 0.02395336 0.81300002 1.4827652e-38
-0.012521939 0.023835508 0.80900002 8.7427404e-39
-0.0097392714 0.023835508 0.80900002 1.1224804e-38
-0.0069566299 0.023835508 0.80900002 7.3525878e-39
-0.0041739885 0.023835508 0.80900002 5.3318496e-39
-0.0013913471 0.023835508 0.80900002 6.0694146e-39
0.0013947338 0.023894433 0.81099999 9.2141554e-39
0.0041946266 0.02395336 0.81300002 1.6313219e-38
0.0070340219 0.024100676 0.81800002 1.4566887e-38
-0.020973079 0.021135304 0.81300002 8.9264001e-39
-0.018131938 0.02108331 0.81099999 1.0032748e-38
-0.015342416 0.02108331 0.81099999 9.8523599e-39
-0.012521939 0.021031316 0.80900002 3.3064702e-39
-0.0097392714 0.021031316 0.80900002 8.7388041e-39
-0.0069566299 0.021031316 0.80900002 6.2495221e-39
-0.0041739885 0.021031316 0.80900002 8.1952965e-39
-0.0013947869 0.02108331 0.81099999 8.1952965e-39
0.0013981734 0.021135304 0.81300002 9.6744273e-39
0.0042049452 0.021187296 0.815 1.594373e-38
0.0070512192 0.021317281 0.81999999 1.4566894e-38
-0.020973079 0.018317247 0.81300002 1.2612796e-38
-0.018131938 0.018272186 0.81099999 1.3534752e-38
-0.015342416 0.018272186 0.81099999 1.5103545e-38
-0.012521939 0.018227125 0.80900002 7.912286e-39
-0.0097392714 0.018227125 0.80900002 1.0767474e-38
-0.0069566299 0.018227125 0.80900002 6.5264747e-39
-0.0041739885 0.018227125 0.80900002 8.1034862e-39
-0.0013947869 0.018272186 0.81099999 6.904943e-39
0.0013981734 0.018317247 0.81300002 1.1335021e-38
0.0042049452 0.018362308 0.815 1.5760411e-38
0.0070512192 0.018474961 0.81999999 1.4566887e-38
-0.021024672 0.015537359 0.815 9.7554447e-39
-0.018176652 0.01549923 0.81300002 8.188119e-39
-0.015342416 0.015461101 0.81099999 1.0959809e-38
-0.012521939 0.015422974 0.80900002 4.6905061e-39
-0.0097392714 0.015422974 0.80900002 8.6458756e-39
-0.0069566299 0.015422974 0.80900002 6.064398e-39
-0.0041739885 0.015422974 0.80900002 6.6226388e-39
-0.0013947869 0.015461101 0.81099999 4.3177481e-39
0.0013981734 0.01549923 0.81300002 1.2258772e-38
0.0042049452 0.015537359 0.815 1.5393423e-38
-0.021024672 0.01271237 0.815 1.1506458e-38
-0.018176652 0.012681174 0.81300002 1.0400111e-38
-0.015342416 0.012649978 0.81099999 1.6116984e-38
-0.012521939 0.012618782 0.80900002 1.1599398e-38
-0.0097392714 0.012618782 0.80900002 9.3787435e-39
-0.0069566299 0.012618782 0.80900002 7.995809e-39
-0.0041739885 0.012618782 0.80900002 9.4864389e-39
-0.0013982266 0.012681174 0.81300002 3.5859186e-39
0.0014016129 0.01271237 0.815 1.3087454e-38
0.0042049452 0.01271237 0.815 1.548454e-38
-0.021024672 0.0098874215 0.815 1.1048332e-38
-0.018176652 0.0098631578 0.81300002 8.743441e-39
-0.015342416 0.009838894 0.81099999 1.381315e-38
-0.012552896 0.009838894 0.81099999 1.0770694e-38
-0.0097392714 0.0098146303 0.80900002 7.6313159e-39
-0.0069566299 0.0098146303 0.80900002 5.6952357e-39
-0.0041843075 0.009838894 0.81099999 6.3503483e-39
-0.0013982266 0.0098631578 0.81300002 3.4922838e-39
0.0014016129 0.0098874215 0.815 1.5023922e-38
-0.023827951 0.0070624324 0.815 1.5028225e-38
-0.018221367 0.0070624324 0.815 1.0783617e-38
-0.015342416 0.0070277699 0.81099999 1.1243175e-38
-0.012552896 0.0070277699 0.81099999 9.1226758e-39
-0.0097392714 0.0070104389 0.80900002 7.2776478e-39
-0.0069566299 0.0070104389 0.80900002 4.972757e-39
-0.0041946266 0.0070451014 0.81300002 6.1699045e-39
-0.0014016661 0.0070624324 0.815 6.538687e-39
0.0014016129 0.0070624324 0.815 1.4842402e-38
-0.015342416 0.0042166458 0.81099999 1.1891789e-38
-0.012552896 0.0042166458 0.81099999 1.0508854e-38
-0.0097392714 0.0042062472 0.80900002 9.6772789e-39
-0.0069566299 0.0042062472 0.80900002 3.3157805e-39
-0.0041946266 0.0042270445 0.81300002 5.4384155e-39
-0.0014016661 0.0042374432 0.815 1.5579935e-38
0.0014050524 0.0042478419 0.81699997 1.4567613e-38
-0.018131938 0.0014055619 0.81099999 1.465873e-38
-0.015342416 0.0014055619 0.81099999 1.263007e-38
-0.012552896 0.0014055619 0.81099999 1.0048592e-38
-0.0097392714 0.0014020958 0.80900002 9.3102943e-39
-0.0069566299 0.0014020958 0.80900002 5.2536865e-39
-0.0041843075 0.0014055619 0.81099999 6.548349e-39
-0.0014016661 0.0014124945 0.815 1.5214738e-38
0.0014050524 0.0014159607 0.81699997 1.4198468e-38
-0.012521939 -0.0014020958 0.80900002 1.0509914e-38
-0.0097392714 -0.0014020958 0.80900002 9.4010325e-39
-0.0069566299 -0.0014020958 0.80900002 7.0039462e-39
-0.0041739885 -0.0014020958 0.80900002 6.2685279e-39
-0.0013947869 -0.0014055619 0.81099999 1.5395895e-38
-0.012521939 -0.0042062472 0.80900002 1.0508475e-38
-0.0097392714 -0.0042062472 0.80900002 8.2968318e-39
-0.0069566299 -0.0042062472 0.80900002 8.2968318e-39
-0.0041739885 -0.0042062472 0.80900002 5.7161038e-39
-0.0013947869 -0.0042166458 0.81099999 1.4843471e-38
-0.015266744 -0.0069931075 0.80699998 1.2998843e-38
-0.012490982 -0.0069931075 0.80699998 1.1800299e-38
-0.0097392714 -0.0070104389 0.80900002 7.8355047e-39
-0.0069566299 -0.0070104389 0.80900002 8.2042872e-39
-0.0041739885 -0.0070104389 0.80900002 7.8366131e-39
-0.0013947869 -0.0070277699 0.81099999 1.4474698e-38
-0.018042507 -0.0097903265 0.80699998 1.4566165e-38
-0.015266744 -0.0097903265 0.80699998 1.4196297e-38
-0.012490982 -0.0097903265 0.80699998 1.2813362e-38
-0.0097392714 -0.0098145902 0.80900002 7.8355047e-39
-0.0069566299 -0.0098145902 0.80900002 7.9277003e-39
-0.0041739885 -0.0098145902 0.80900002 9.4032102e-39
-0.0013947869 -0.009838854 0.81099999 1.4842752e-38
-0.018042507 -0.012587585 0.80699998 1.4381774e-38
-0.015266744 -0.012587585 0.80699998 1.511789e-38
-0.012490982 -0.012587585 0.80699998 1.2813e-38
-0.0097392714 -0.012618782 0.80900002 7.9276933e-39
-0.0069566299 -0.012618782 0.80900002 7.9276933e-39
-0.0041739885 -0.012618782 0.80900002 9.495389e-39
-0.0013947869 -0.012649978 0.81099999 1.4934931e-38
-0.018042507 -0.015384804 0.80699998 1.4198102e-38
-0.015266744 -0.015384804 0.80699998 1.4104104e-38
-0.012490982 -0.015384804 0.80699998 1.2260191e-38
-0.0097392714 -0.015422934 0.80900002 9.0343968e-39
-0.0069566299 -0.015422934 0.80900002 8.2968318e-39
-0.0041739885 -0.015422934 0.80900002 8.1127908e-39
-0.0013947869 -0.015461061 0.81099999 1.4843072e-38
-0.012521939 -0.018227125 0.80900002 1.179886e-38
-0.0097392714 -0.018227125 0.80900002 9.8641715e-39
-0.0069566299 -0.018227125 0.80900002 7.9280633e-39
-0.0041739885 -0.018227125 0.80900002 7.4681403e-39
-0.0013947869 -0.018272186 0.81099999 1.4475008e-38
0.0014016129 -0.018362308 0.815 1.3921149e-38
-0.015304581 -0.021031277 0.80900002 1.4288495e-38
-0.012521939 -0.021031277 0.80900002 1.2167996e-38
-0.0097392714 -0.021031277 0.80900002 1.0140756e-38
-0.0069566299 -0.021031277 0.80900002 8.8500168e-39
-0.0041739885 -0.021031277 0.80900002 8.1109804e-39
-0.0013947869 -0.021083269 0.81099999 1.4011501e-38
0.0014016129 -0.021187257 0.815 1.4014429e-38
-0.015304581 -0.023835469 0.80900002 1.4748757e-38
-0.012521939 -0.023835469 0.80900002 1.2259475e-38
-0.0097392714 -0.023835469 0.80900002 9.309539e-39
-0.0069566299 -0.023835469 0.80900002 9.2173433e-39
-0.0041739885 -0.023835469 0.80900002 8.1124377e-39
-0.0013947869 -0.023894394 0.81099999 9.8641547e-39
0.0013981734 -0.02395332 0.81300002 1.4565445e-38
-0.012521939 -0.026639661 0.80900002 1.216728e-38
-0.0097392714 -0.026639661 0.80900002 8.5712691e-39
-0.0069566299 -0.026639661 0.80900002 9.7698123e-39
-0.0041739885 -0.026639661 0.80900002 8.9397041e-39
-0.0013913471 -0.026639661 0.80900002 9.4006822e-39
0.0013947338 -0.026705517 0.81099999 1.4289581e-38
-0.012521939 -0.029443812 0.80900002 1.207616e-38
-0.0097392714 -0.029443812 0.80900002 8.020982e-39
-0.0069566299 -0.029443812 0.80900002 9.3117208e-39
-0.0041739885 -0.029443812 0.80900002 7.6532644e-39
-0.0013913471 -0.029443812 0.80900002 8.9440032e-39
0.0013947338 -0.029516602 0.81099999 1.4197749e-38
-0.012521939 -0.032248002 0.80900002 1.2076163e-38
-0.0097392714 -0.032248002 0.80900002 1.0415547e-38
-0.0069566299 -0.032248002 0.80900002 9.9545693e-39
-0.0041739885 -0.032248002 0.80900002 8.757454e-39
-0.0013947869 -0.032327726 0.81099999 1.2353084e-38
0.0013947338 -0.032327726 0.81099999 1.3922241e-38
-0.012521939 -0.035052154 0.80900002 1.3089233e-38
-0.0097392714 -0.035052154 0.80900002 1.0601734e-38
-0.0069566299 -0.035052154 0.80900002 8.6656255e-39
-0.0041739885 -0.035052154 0.80900002 8.2049865e-39
-0.0013947869 -0.035138808 0.81099999 1.0325486e-38
-0.012521939 -0.037856348 0.80900002 1.2167993e-38
-0.0097392714 -0.037856348 0.80900002 1.0784327e-38
-0.0069566299 -0.037856348 0.80900002 9.2170014e-39
-0.0041739885 -0.037856348 0.80900002 9.1247918e-39
-0.0013947869 -0.037949935 0.81099999 1.1521878e-38
0.0013947338 -0.037949935 0.81099999 1.346054e-38
-0.012521939 -0.040660497 0.80900002 1.2721167e-38
-0.0097392714 -0.040660497 0.80900002 1.1061957e-38
-0.0069566299 -0.040660497 0.80900002 8.4804789e-39
-0.0041739885 -0.040660497 0.80900002 7.1912003e-39
-0.0013913471 -0.040660497 0.80900002 9.496091e-39
0.0013912943 -0.040660497 0.80900002 1.3735282e-38
-0.012521939 -0.04346469 0.80900002 1.3734603e-38
-0.0097392714 -0.04346469 0.80900002 1.1612224e-38
-0.0069394317 -0.043357234 0.80699998 1.4285897e-38
-0.0041636694 -0.043357234 0.80699998 1.83415e-38
-0.0013879074 -0.043357234 0.80699998 1.8894674e-38
0.0013878547 -0.043357234 0.80699998 1.5024589e-38
0.0041636694 -0.043357234 0.80699998 1.290409e-38
-0.012521939 -0.046268839 0.80900002 1.9355652e-38
-0.0097392714 -0.046268839 0.80900002 2.1013712e-38
-0.0069394317 -0.046154454 0.80699998 2.1843473e-38
-0.0041636694 -0.046154454 0.80699998 2.1381778e-38
-0.0013844678 -0.046040069 0.80500001 1.8523714e-38
0.0013844152 -0.046040069 0.80500001 1.6681952e-38
0.0041533508 -0.046040069 0.80500001 1.4008279e-38
0.0069222338 -0.046040069 0.80500001 1.0968961e-38
-0.012521939 -0.049073033 0.80900002 1.926162e-38
-0.0097151939 -0.048951712 0.80699998 1.9536783e-38
-0.0069394317 -0.048951712 0.80699998 1.9721174e-38
-0.0041533508 -0.048830397 0.80500001 1.8246019e-38
-0.0013844678 -0.048830397 0.80500001 1.5295758e-38
0.0013809756 -0.04870908 0.80299997 1.253059e-38
0.0041430318 -0.04870908 0.80299997 9.856917e-39
0.0068878378 -0.048587758 0.801 4.9831589e-39
