# .PCD v0.7 - Point Cloud Data file format
VERSION 0.7
FIELDS x y z rgb
SIZE 4 4 4 4
TYPE F F F F
COUNT 1 1 1 1
WIDTH 987
HEIGHT 1
VIEWPOINT 0 0 0 1 0 0 0
POINTS 987
DATA ascii
0.023938013 0.042799186 0.449 6.44539e-39
0.025482398 0.042799186 0.449 9.8555255e-39
0.02702678 0.042799186 0.449 7.0896566e-39
0.028571162 0.042799186 0.449 7.917604e-39
0.019304834 0.041242864 0.449 8.1037651e-39
0.020849217 0.041242864 0.449 7.6427939e-39
0.022343757 0.04115101 0.44800001 5.2425154e-39
0.023884699 0.04115101 0.44800001 5.1503212e-39
0.025482398 0.041242864 0.449 5.8911134e-39
0.02702678 0.041242864 0.449 5.8911134e-39
0.028571162 0.041242864 0.449 6.5343192e-39
0.019304834 0.03968652 0.449 5.2450265e-39
0.020849217 0.03968652 0.449 8.1030868e-39
0.022343757 0.03959813 0.44800001 6.260256e-39
0.023884699 0.03959813 0.44800001 4.7851316e-39
0.025482398 0.03968652 0.449 3.95395e-39
0.02702678 0.03968652 0.449 3.4929774e-39
0.028571162 0.03968652 0.449 6.2566533e-39
0.020849217 0.038130179 0.449 2.8533604e-39
0.022393631 0.038130179 0.449 4.2298138e-39
0.023938013 0.038130179 0.449 4.5985907e-39
0.025482398 0.038130179 0.449 4.4149281e-39
0.02702678 0.038130179 0.449 6.5354276e-39
0.028571162 0.038130179 0.449 7.0950418e-39
0.020849217 0.036573857 0.449 3.8617544e-39
0.022393631 0.036573857 0.449 2.9423232e-39
0.023938013 0.036573857 0.449 6.3535573e-39
0.025482398 0.036573857 0.449 8.0159401e-39
0.027086971 0.036655311 0.44999999 9.1222876e-39
0.028698428 0.036736764 0.45100001 8.387933e-39
0.022393631 0.035017513 0.449 5.9879655e-39
0.023938013 0.035017513 0.449 8.2006607e-39
0.025482398 0.035017513 0.449 8.9382453e-39
0.027147166 0.035173491 0.45100001 9.3070278e-39
0.028698428 0.035173491 0.45100001 8.4786965e-39
0.020524174 0.032939523 0.442 1.0501629e-38
0.021944759 0.032790475 0.44 1.1875566e-38
0.023404872 0.032715954 0.43900001 1.0584827e-38
0.024914859 0.032715954 0.43900001 8.3825478e-39
0.027147166 0.033610236 0.45100001 9.0279172e-39
0.028762061 0.03368476 0.45199999 8.5694502e-39
0.0114797 0.031620614 0.44499999 4.5964425e-39
0.012981118 0.031549558 0.44400001 4.9684845e-39
0.014508303 0.031549558 0.44400001 9.3016791e-39
0.016035488 0.031549558 0.44400001 1.0687127e-38
0.017562672 0.031549558 0.44400001 9.4885843e-39
0.019089859 0.031549558 0.44400001 8.8334758e-39
0.020524174 0.031407442 0.442 1.2982279e-38
0.021944759 0.031265326 0.44 1.3444702e-38
0.023404872 0.031194272 0.43900001 1.8515462e-38
0.024914859 0.031194272 0.43900001 1.5656697e-38
0.027387939 0.032331191 0.45500001 1.0862524e-38
0.0114797 0.030078137 0.44499999 7.4483834e-39
0.012981118 0.030010546 0.44400001 5.5159031e-39
0.014508303 0.030010546 0.44400001 1.0402272e-38
0.016035488 0.030010546 0.44400001 9.6736818e-39
0.017562672 0.030010546 0.44400001 9.6736818e-39
0.019089859 0.030010546 0.44400001 9.6643589e-39
0.020524174 0.029875364 0.442 8.5580114e-39
0.021944759 0.029740181 0.44 1.1874868e-38
0.023404872 0.029672589 0.43900001 1.7590997e-38
0.024914859 0.029672589 0.43900001 1.6117322e-38
0.0084941229 0.028792182 0.449 1.3167768e-38
0.010038505 0.028792182 0.449 1.2977966e-38
0.0114797 0.028535681 0.44499999 7.6306194e-39
0.012981118 0.028471556 0.44400001 9.0139995e-39
0.014508303 0.028471556 0.44400001 8.9218039e-39
0.016035488 0.028471556 0.44400001 5.8803472e-39
0.017562672 0.028471556 0.44400001 8.3696292e-39
0.019089859 0.028471556 0.44400001 7.4530974e-39
0.020524174 0.028343305 0.442 1.0587749e-38
0.021944759 0.028215054 0.44 1.38135e-38
0.023404872 0.028150931 0.43900001 1.2061783e-38
0.024914859 0.028150931 0.43900001 1.3805571e-38
0.0069497391 0.02723586 0.449 1.2977949e-38
0.0084941229 0.02723586 0.449 1.1595015e-38
0.0099937906 0.027114542 0.447 1.1682894e-38
0.0114797 0.026993223 0.44499999 1.1221916e-38
0.013010355 0.026993223 0.44499999 1.104337e-38
0.014508303 0.026932565 0.44400001 9.8448266e-39
0.016035488 0.026932565 0.44400001 8.8284942e-39
0.017562672 0.026932565 0.44400001 7.3533641e-39
0.019089859 0.026932565 0.44400001 4.8694645e-39
0.020524174 0.026811248 0.442 5.6992252e-39
0.021994635 0.026750589 0.44100001 1.1421443e-38
0.023511501 0.026750589 0.44100001 1.2804377e-38
0.0069497391 0.025679516 0.449 7.6331082e-39
0.0084941229 0.025679516 0.449 8.7394515e-39
0.0099714333 0.025507938 0.44600001 7.995809e-39
0.0114797 0.025450744 0.44499999 1.0761678e-38
0.012981118 0.025393553 0.44400001 1.0218606e-38
0.014508303 0.025393553 0.44400001 7.4527372e-39
0.016035488 0.025393553 0.44400001 1.1510411e-38
0.017562672 0.025393553 0.44400001 5.2411085e-39
0.019046862 0.025336359 0.44299999 7.722497e-39
0.020524174 0.025279166 0.442 7.6303014e-39
0.022044508 0.025279166 0.442 8.7409299e-39
0.023564814 0.025279166 0.442 1.1967777e-38
0.0069497391 0.024123173 0.449 8.7423228e-39
0.0084752049 0.024069445 0.44800001 9.8486703e-39
0.009949076 0.023908267 0.44499999 6.6153843e-39
0.011453903 0.023854541 0.44400001 1.2054917e-38
0.012981118 0.023854541 0.44400001 5.7906823e-39
0.014475626 0.023800813 0.44299999 7.6345949e-39
0.015999371 0.023800813 0.44299999 7.5416468e-39
0.017523117 0.023800813 0.44299999 6.158718e-39
0.019046862 0.023800813 0.44299999 1.0677767e-38
0.020524174 0.023747087 0.442 1.0216789e-38
0.022044508 0.023747087 0.442 1.0399035e-38
0.023564814 0.023747087 0.442 6.8956006e-39
0.0069342609 0.02251659 0.44800001 1.1327077e-38
0.008456286 0.02246633 0.447 1.2249033e-38
0.009949076 0.022365808 0.44499999 1.1234894e-38
0.011428106 0.022265289 0.44299999 1.5475893e-38
0.012922644 0.022215029 0.442 8.0000914e-39
0.014410274 0.022164769 0.44100001 9.844004e-39
0.015927142 0.022164769 0.44100001 2.2969636e-39
0.017444007 0.022164769 0.44100001 5.9847846e-39
0.018960873 0.022164769 0.44100001 1.0300009e-38
0.020292001 0.021963727 0.43700001 1.5831747e-38
0.021745261 0.021913467 0.43599999 1.3260321e-38
0.02324493 0.021913467 0.43599999 9.2037129e-39
0.0069187824 0.020916918 0.447 1.0117694e-38
0.008437369 0.020870125 0.44600001 1.0947455e-38
0.009949076 0.02082333 0.44499999 1.1048011e-38
0.011402309 0.02068295 0.442 1.233875e-38
0.012893408 0.020636156 0.44100001 1.150966e-38
0.014377597 0.020589361 0.44 1.2062834e-38
0.015891025 0.020589361 0.44 3.7666945e-39
0.01740445 0.020589361 0.44 5.7028027e-39
0.018874882 0.020542568 0.43900001 1.0404086e-38
0.020292001 0.020448979 0.43700001 1.2155803e-38
0.021695387 0.02035539 0.435 1.2520941e-38
0.023191616 0.02035539 0.435 1.4457049e-38
0.0053933174 0.019410856 0.44800001 1.3994689e-38
0.0069187824 0.019367529 0.447 1.1969562e-38
0.008437369 0.019324202 0.44600001 1.2153953e-38
0.009949076 0.019280873 0.44499999 1.4278075e-38
0.011402309 0.01915089 0.442 1.0682446e-38
0.012893408 0.019107563 0.44100001 1.2616058e-38
0.014377597 0.019064235 0.44 6.7155379e-39
0.015891025 0.019064235 0.44 7.1696609e-39
0.01740445 0.019064235 0.44 1.0212117e-38
0.018874882 0.019020908 0.43900001 1.0406625e-38
0.020152694 0.018804267 0.43399999 1.0222234e-38
0.021645512 0.018804267 0.43399999 9.1071746e-39
0.023191616 0.018847596 0.435 1.6390629e-38
0.0053933174 0.01785798 0.44800001 7.2701536e-39
0.0069187824 0.017818119 0.447 1.0307565e-38
0.008456286 0.017818119 0.447 9.6621953e-39
0.009949076 0.017738394 0.44499999 1.335505e-38
0.011376512 0.01757895 0.44100001 1.1603333e-38
0.012864171 0.017539088 0.44 1.3443674e-38
0.014377597 0.017539088 0.44 6.5290013e-39
0.015854908 0.017499227 0.43900001 6.8008714e-39
0.017364895 0.017499227 0.43900001 1.1410653e-38
0.018788893 0.017419502 0.43700001 1.3357936e-38
0.020152694 0.017299917 0.43399999 6.996438e-39
0.021645512 0.017299917 0.43399999 8.1859414e-39
0.0054053562 0.016341498 0.449 5.240405e-39
0.0069187824 0.016268708 0.447 9.292331e-39
0.008437369 0.016232312 0.44600001 6.065484e-39
0.0099267187 0.016159521 0.44400001 7.8269119e-39
0.011376512 0.016050335 0.44100001 6.7205644e-39
0.012864171 0.016013939 0.44 8.3808144e-39
0.014377597 0.016013939 0.44 3.494446e-39
0.015854908 0.015977545 0.43900001 8.6473119e-39
0.017325338 0.015941149 0.43799999 8.370725e-39
0.018788893 0.015904754 0.43700001 1.141785e-38
0.020292001 0.015904754 0.43700001 1.1141263e-38
0.021894885 0.015977545 0.43900001 1.2061414e-38
0.0038781709 0.014851034 0.45100001 1.3445816e-38
0.0054053562 0.014785177 0.449 8.1906652e-39
0.0069187824 0.014719319 0.447 1.2235744e-38
0.0084184511 0.01465346 0.44499999 7.6259629e-39
0.0099043604 0.014587602 0.44299999 1.0583438e-38
0.011376512 0.014521744 0.44100001 9.4770908e-39
0.012864171 0.014488814 0.44 8.1877785e-39
0.014377597 0.014488814 0.44 5.2375184e-39
0.015854908 0.014455886 0.43900001 7.9976293e-39
0.017325338 0.014422956 0.43799999 7.4444555e-39
0.018831886 0.014422956 0.43799999 9.5717723e-39
0.020338433 0.014422956 0.43799999 1.1692272e-38
0.021845009 0.014422956 0.43799999 1.2428402e-38
0.0038781709 0.01328778 0.45100001 1.3261039e-38
0.0053933174 0.013199392 0.44800001 1.114054e-38
0.0069033043 0.013140467 0.44600001 1.3163446e-38
0.0084184511 0.013111003 0.44499999 9.936599e-39
0.0099043604 0.013052077 0.44299999 1.354017e-38
0.011376512 0.012993152 0.44100001 1.1880648e-38
0.012864171 0.012963688 0.44 9.1122558e-39
0.014344921 0.012934226 0.43900001 5.7010174e-39
0.015818791 0.012904762 0.43799999 8.9228282e-39
0.017325338 0.012904762 0.43799999 6.3413506e-39
0.018831886 0.012904762 0.43799999 4.8690764e-39
0.020338433 0.012904762 0.43799999 8.188119e-39
0.021845009 0.012904762 0.43799999 8.4650492e-39
0.023458187 0.012963688 0.44 1.2060679e-38
0.0038781709 0.011724504 0.45100001 9.1089935e-39
0.0053812782 0.011620518 0.447 9.3855804e-39
0.0068878261 0.011568524 0.44499999 1.0848113e-38
0.0083995331 0.011542528 0.44400001 9.557374e-39
0.0098820031 0.011490534 0.442 1.1509708e-38
0.011376512 0.011464538 0.44100001 1.1786295e-38
0.012864171 0.011438541 0.44 8.466501e-39
0.014344921 0.011412544 0.43900001 8.0977185e-39
0.015818791 0.011386547 0.43799999 9.6621855e-39
0.017325338 0.011386547 0.43799999 8.7402292e-39
0.018831886 0.011386547 0.43799999 4.8694393e-39
0.020338433 0.011386547 0.43799999 6.8977432e-39
0.021894885 0.011412544 0.43900001 9.5753597e-39
0.023458187 0.011438541 0.44 1.1327077e-38
0.0038781709 0.010161228 0.45100001 6.4374614e-39
0.0053812782 0.010071106 0.447 7.2672221e-39
0.0068878261 0.010026045 0.44499999 5.7906949e-39
0.0083995331 0.010003516 0.44400001 6.8048469e-39
0.0098820031 0.0099584544 0.442 8.5637791e-39
0.011376512 0.0099359248 0.44100001 8.7481704e-39
0.012864171 0.0099133933 0.44 5.2382148e-39
0.014344921 0.0098908637 0.43900001 5.699193e-39
0.015818791 0.0098683322 0.43799999 7.6288566e-39
0.017325338 0.0098683322 0.43799999 7.1678785e-39
0.018831886 0.0098683322 0.43799999 5.8803472e-39
0.02038487 0.0098908637 0.43900001 6.433521e-39
0.021894885 0.0098908637 0.43900001 6.9928283e-39
0.023458187 0.0099133933 0.44 9.9430884e-39
0.025028368 0.0099359248 0.44100001 9.490001e-39
0.0023217488 0.0085789105 0.44999999 1.5110688e-38
0.0038695715 0.0085789105 0.44999999 1.086573e-38
0.0054173945 0.0085789105 0.44999999 1.234086e-38
0.0068878261 0.0084835887 0.44499999 9.4784977e-39
0.0083806152 0.0084454603 0.44299999 1.0861432e-38
0.0098596457 0.008407332 0.44100001 1.040477e-38
0.011350715 0.0083882678 0.44 9.667205e-39
0.012864171 0.0083882678 0.44 1.9310608e-39
0.014344921 0.0083692037 0.43900001 2.853017e-39
0.015854908 0.0083692037 0.43900001 5.881799e-39
0.017364895 0.0083692037 0.43900001 5.6974077e-39
0.018874882 0.0083692037 0.43900001 6.4338839e-39
0.02038487 0.0083692037 0.43900001 6.7104708e-39
0.021944759 0.0083882678 0.44 6.6201025e-39
0.023511501 0.008407332 0.44100001 6.1591243e-39
0.025028368 0.008407332 0.44100001 8.573102e-39
0.026725814 0.0084645245 0.44400001 1.5395579e-38
0.0023217488 0.0070191002 0.44999999 1.197134e-38
0.0038695715 0.0070191002 0.44999999 9.9358437e-39
0.0054053562 0.0070035025 0.449 1.2517321e-38
0.006872348 0.0069255126 0.44400001 9.1993479e-39
0.0083427802 0.0068787187 0.44100001 1.5468651e-38
0.0098596457 0.0068787187 0.44100001 1.2712535e-38
0.011350715 0.00686312 0.44 1.3542295e-38
0.012864171 0.00686312 0.44 5.6124049e-39
0.014377597 0.00686312 0.44 7.7329044e-39
0.015854908 0.0068475222 0.43900001 9.0167769e-39
0.017364895 0.0068475222 0.43900001 8.6479944e-39
0.018917877 0.00686312 0.44 7.63316e-39
0.020431304 0.00686312 0.44 7.9097469e-39
0.021994635 0.0068787187 0.44100001 7.4480485e-39
0.023511501 0.0068787187 0.44100001 8.9231786e-39
0.02508512 0.0068943165 0.442 1.2532139e-38
0.026725814 0.0069255126 0.44400001 1.6219964e-38
0.00077389664 0.0054593123 0.44999999 1.5293659e-38
0.0023217488 0.0054593123 0.44999999 1.2435595e-38
0.0038695715 0.0054593123 0.44999999 1.1688679e-38
0.0054053562 0.0054471809 0.449 1.0858918e-38
0.006872348 0.005386522 0.44400001 7.8099632e-39
0.0083427802 0.0053501264 0.44100001 1.4263649e-38
0.0098596457 0.0053501264 0.44100001 9.7528748e-39
0.011350715 0.0053379945 0.44 1.1596787e-38
0.012864171 0.0053379945 0.44 3.6762897e-39
0.014377597 0.0053379945 0.44 5.8889792e-39
0.015891025 0.0053379945 0.44 7.9082713e-39
0.01740445 0.0053379945 0.44 7.1707063e-39
0.018917877 0.0053379945 0.44 7.1689378e-39
0.020431304 0.0053379945 0.44 7.3533291e-39
0.021944759 0.0053379945 0.44 7.1753894e-39
0.023511501 0.0053501264 0.44100001 1.1139802e-38
0.02508512 0.0053622583 0.442 1.4286372e-38
0.026725814 0.005386522 0.44400001 1.5300524e-38
0.00077389664 0.0038995026 0.44999999 1.2340903e-38
0.0023217488 0.0038995026 0.44999999 9.6672302e-39
0.0038609728 0.0038908371 0.449 1.1508256e-38
0.0053572012 0.0038561746 0.44499999 1.1969234e-38
0.006872348 0.0038475094 0.44400001 9.8505018e-39
0.0083616972 0.0038301782 0.442 1.2524175e-38
0.0098596457 0.0038215127 0.44100001 1.1968113e-38
0.011350715 0.003812847 0.44 1.2982265e-38
0.012864171 0.003812847 0.44 6.0693936e-39
0.014377597 0.003812847 0.44 8.6508656e-39
0.015891025 0.003812847 0.44 8.0919479e-39
0.01740445 0.003812847 0.44 6.8012091e-39
0.018917877 0.003812847 0.44 5.9739946e-39
0.020431304 0.003812847 0.44 5.881799e-39
0.021944759 0.003812847 0.44 6.5314507e-39
0.023511501 0.0038215127 0.44100001 9.4817109e-39
0.02508512 0.0038301782 0.442 1.5301222e-38
0.026725814 0.0038475094 0.44400001 1.5116831e-38
0.00077389664 0.0023396926 0.44999999 9.9474268e-39
0.0023217488 0.0023396926 0.44999999 3.9547109e-39
0.0038523737 0.0023292939 0.44800001 7.0807205e-39
0.0053572012 0.0023136961 0.44499999 6.9885249e-39
0.006872348 0.0023084967 0.44400001 5.698837e-39
0.0083616972 0.0022980981 0.442 1.1783749e-38
0.0098596457 0.0022928989 0.44100001 9.5732017e-39
0.011350715 0.0022876994 0.44 1.0956136e-38
0.012864171 0.0022876994 0.44 5.4258277e-39
0.014377597 0.0022876994 0.44 8.1916881e-39
0.015891025 0.0022876994 0.44 7.8160757e-39
0.01740445 0.0022876994 0.44 1.0120966e-38
0.018917877 0.0022876994 0.44 7.9104195e-39
0.020431304 0.0022876994 0.44 5.4211641e-39
0.021944759 0.0022876994 0.44 4.9702823e-39
0.023511501 0.0022928989 0.44100001 7.55176e-39
0.02508512 0.0022980981 0.442 1.5577802e-38
0.026725814 0.0023084967 0.44400001 1.520902e-38
0.00077389664 0.00077990495 0.44999999 1.2890484e-38
0.0023217488 0.00077990495 0.44999999 6.989964e-39
0.0038265765 0.00077123934 0.44499999 1.0664426e-38
0.0053572012 0.00077123934 0.44499999 9.3736876e-39
0.006872348 0.00076950627 0.44400001 6.8034147e-39
0.0083806152 0.00076777308 0.44299999 9.3848924e-39
0.0098596457 0.00076430693 0.44100001 6.5300396e-39
0.011376512 0.00076430693 0.44100001 6.2534527e-39
0.012864171 0.00076257373 0.44 3.0316476e-39
0.014377597 0.00076257373 0.44 4.6911647e-39
0.015891025 0.00076257373 0.44 5.3289727e-39
0.01740445 0.00076257373 0.44 9.2011892e-39
0.018917877 0.00076257373 0.44 8.7444934e-39
0.020431304 0.00076257373 0.44 8.2835152e-39
0.021994635 0.00076430693 0.44100001 8.202139e-39
0.023511501 0.00076430693 0.44100001 9.5850735e-39
0.02508512 0.00076604 0.442 1.5854386e-38
0.026725814 0.00076950627 0.44400001 1.5209017e-38
0.0023011111 -0.00077297253 0.44600001 1.0682098e-38
0.0038265765 -0.00077123934 0.44499999 1.2333286e-38
0.0053572012 -0.00077123934 0.44499999 9.9361996e-39
0.006872348 -0.00076950627 0.44400001 8.5605267e-39
0.0083616972 -0.00076604 0.442 1.0588831e-38
0.0098820031 -0.00076604 0.442 9.8443515e-39
0.011376512 -0.00076430693 0.44100001 9.1989821e-39
0.012864171 -0.00076257373 0.44 4.5939272e-39
0.014377597 -0.00076257373 0.44 6.3456414e-39
0.015927142 -0.00076430693 0.44100001 8.0030271e-39
0.017444007 -0.00076430693 0.44100001 7.6342446e-39
0.018960873 -0.00076430693 0.44100001 5.3289727e-39
0.02047774 -0.00076430693 0.44100001 9.4777761e-39
0.022044508 -0.00076604 0.442 7.5531375e-39
0.023564814 -0.00076604 0.442 1.2623897e-38
0.025198627 -0.00076950627 0.44400001 1.548632e-38
0.026786007 -0.00077123934 0.44499999 1.5117537e-38
0.00076873734 -0.0023240948 0.447 1.1410626e-38
0.0023011111 -0.0023188954 0.44600001 9.7511049e-39
0.0038265765 -0.0023136961 0.44499999 1.0850247e-38
0.0053451625 -0.0023084967 0.44400001 1.0020486e-38
0.0068568694 -0.0023032974 0.44299999 9.7630104e-39
0.0083616972 -0.0022980981 0.442 1.1422532e-38
0.0098820031 -0.0022980981 0.442 1.1419632e-38
0.011376512 -0.0022928989 0.44100001 1.0866459e-38
0.012864171 -0.0022876994 0.44 6.0708327e-39
0.014377597 -0.0022876994 0.44 8.3757235e-39
0.015927142 -0.0022928989 0.44100001 8.6484063e-39
0.017444007 -0.0022928989 0.44100001 8.1874282e-39
0.018960873 -0.0022928989 0.44100001 6.9946233e-39
0.020524174 -0.0022980981 0.442 1.0313666e-38
0.022044508 -0.0022980981 0.442 6.8119753e-39
0.023618128 -0.0023032974 0.44299999 1.1606148e-38
0.025198627 -0.0023084967 0.44400001 1.5486683e-38
0.026786007 -0.0023136961 0.44499999 1.4933509e-38
0.0007670176 -0.0038648406 0.44600001 6.5318473e-39
0.0023011111 -0.0038648406 0.44600001 7.1772167e-39
0.0038265765 -0.0038561746 0.44499999 7.5384462e-39
0.0053451625 -0.0038475094 0.44400001 6.339903e-39
0.0068568694 -0.0038388437 0.44299999 8.2810433e-39
0.0083616972 -0.0038301782 0.442 8.6498259e-39
0.0098820031 -0.0038301782 0.442 9.8436999e-39
0.011376512 -0.0038215127 0.44100001 9.0139393e-39
0.012864171 -0.003812847 0.44 5.0545396e-39
0.014377597 -0.003812847 0.44 6.3452728e-39
0.015927142 -0.0038215127 0.44100001 6.5264649e-39
0.017444007 -0.0038215127 0.44100001 5.7888999e-39
0.018960873 -0.0038215127 0.44100001 6.9038724e-39
0.020524174 -0.0038301782 0.442 8.9321763e-39
0.022044508 -0.0038301782 0.442 8.5673076e-39
0.023671443 -0.0038475094 0.44400001 1.3453676e-38
0.025255382 -0.0038561746 0.44499999 1.4659806e-38
0.026786007 -0.0038561746 0.44499999 1.4291023e-38
0.0007670176 -0.0054107634 0.44600001 9.1086236e-39
0.0023011111 -0.0054107634 0.44600001 1.0122776e-38
0.0038265765 -0.0053986316 0.44499999 8.4582053e-39
0.0053451625 -0.0053864997 0.44400001 6.0611427e-39
0.006872348 -0.0053864997 0.44400001 6.1645376e-39
0.0083616972 -0.0053622364 0.442 5.3347769e-39
0.0098820031 -0.0053622364 0.442 6.2610113e-39
0.011376512 -0.0053501045 0.44100001 5.1546638e-39
0.012893408 -0.0053501045 0.44100001 2.5724701e-39
0.014410274 -0.0053501045 0.44100001 4.6007739e-39
0.015927142 -0.0053501045 0.44100001 6.9902793e-39
0.017444007 -0.0053501045 0.44100001 5.6995405e-39
0.019003868 -0.0053622364 0.442 6.1637935e-39
0.020524174 -0.0053622364 0.442 5.0574459e-39
0.022144258 -0.0053864997 0.44400001 6.0697775e-39
0.023671443 -0.0053864997 0.44400001 1.5473732e-38
0.025198627 -0.0053864997 0.44400001 1.4475415e-38
0.026786007 -0.0053986316 0.44499999 1.4291023e-38
0.00076873734 -0.0069723064 0.447 8.5629916e-39
0.0023011111 -0.0069567086 0.44600001 1.1052274e-38
0.0038265765 -0.0069411104 0.44499999 1.1688645e-38
0.0053572012 -0.0069411104 0.44499999 8.6461895e-39
0.006872348 -0.0069255126 0.44400001 1.0961929e-38
0.0083806152 -0.0069099138 0.44299999 9.6711903e-39
0.0098820031 -0.0068943165 0.442 1.0865067e-38
0.011402309 -0.0068943165 0.442 8.5601764e-39
0.012893408 -0.0068787187 0.44100001 5.1485597e-39
0.014410274 -0.0068787187 0.44100001 6.9924723e-39
0.015927142 -0.0068787187 0.44100001 8.4636241e-39
0.017483562 -0.0068943165 0.442 6.5275159e-39
0.019003868 -0.0068943165 0.442 7.637504e-39
0.020617044 -0.0069255126 0.44400001 5.148222e-39
0.022144258 -0.0069255126 0.44400001 6.0690797e-39
0.023671443 -0.0069255126 0.44400001 1.639499e-38
0.025198627 -0.0069255126 0.44400001 1.4382856e-38
0.00076873734 -0.0085216956 0.447 7.4419038e-39
0.0023011111 -0.0085026314 0.44600001 9.9311774e-39
0.0038265765 -0.0084835673 0.44499999 9.1939893e-39
0.0053572012 -0.0084835673 0.44499999 6.9812942e-39
0.006872348 -0.0084645031 0.44400001 1.0773585e-38
0.0083806152 -0.008445438 0.44299999 9.8516285e-39
0.0098820031 -0.0084263748 0.442 1.3352554e-38
0.011402309 -0.0084263748 0.442 1.0678881e-38
0.012922644 -0.0084263748 0.442 6.2534261e-39
0.01444295 -0.0084263748 0.442 6.4378174e-39
0.015963256 -0.0084263748 0.442 7.8179198e-39
0.017483562 -0.0084263748 0.442 7.0803548e-39
0.019046862 -0.008445438 0.44299999 1.0959045e-38
0.020617044 -0.0084645031 0.44400001 7.4556113e-39
0.022144258 -0.0084645031 0.44400001 9.3938901e-39
0.023671443 -0.0084645031 0.44400001 1.6308562e-38
0.0023062706 -0.010071106 0.447 9.0207327e-39
0.0038265765 -0.010026045 0.44499999 9.9347941e-39
0.0053572012 -0.010026045 0.44499999 6.8923383e-39
0.006872348 -0.010003516 0.44400001 1.0404086e-38
0.0083995331 -0.010003516 0.44400001 6.1630872e-39
0.0098820031 -0.0099584544 0.442 9.6643281e-39
0.011402309 -0.0099584544 0.442 6.714068e-39
0.012922644 -0.0099584544 0.442 4.3184207e-39
0.01444295 -0.0099584544 0.442 5.6091525e-39
0.015963256 -0.0099584544 0.442 6.3427477e-39
0.017483562 -0.0099584544 0.442 6.8959173e-39
0.019089859 -0.010003516 0.44400001 8.2846559e-39
0.020617044 -0.010003516 0.44400001 6.9017214e-39
0.022194132 -0.010026045 0.44499999 1.3177508e-38
0.023724757 -0.010026045 0.44499999 1.5758986e-38
0.0053572012 -0.011568503 0.44499999 7.1879871e-39
0.006872348 -0.011542507 0.44400001 1.0687127e-38
0.0083995331 -0.011542507 0.44400001 8.566628e-39
0.0099267187 -0.011542507 0.44400001 1.0778231e-38
0.011428106 -0.011516509 0.44299999 7.4591888e-39
0.012951881 -0.011516509 0.44299999 6.5329137e-39
0.014475626 -0.011516509 0.44299999 7.2704787e-39
0.015999371 -0.011516509 0.44299999 3.8588845e-39
0.017523117 -0.011516509 0.44299999 5.6105973e-39
0.019089859 -0.011542507 0.44400001 5.8846884e-39
0.020617044 -0.011542507 0.44400001 7.6364054e-39
0.022194132 -0.011568503 0.44499999 1.5023206e-38
0.023724757 -0.011568503 0.44499999 1.493101e-38
0.0053572012 -0.013110981 0.44499999 8.0227532e-39
0.0068878261 -0.013110981 0.44499999 8.9400544e-39
0.0084184511 -0.013110981 0.44499999 8.3868806e-39
0.0099267187 -0.013081519 0.44400001 7.9230144e-39
0.011453903 -0.013081519 0.44400001 7.0010581e-39
0.012981118 -0.013081519 0.44400001 7.1847333e-39
0.014508303 -0.013081519 0.44400001 7.0925377e-39
0.016035488 -0.013081519 0.44400001 6.6287093e-39
0.017523117 -0.013052055 0.44299999 9.1179913e-39
0.019003868 -0.013022592 0.442 5.2479384e-39
0.020524174 -0.013022592 0.442 9.8577199e-39
0.022194132 -0.013110981 0.44499999 1.5024988e-38
0.023724757 -0.013110981 0.44499999 1.4748401e-38
0.0053572012 -0.01465346 0.44499999 9.1280456e-39
0.0068878261 -0.01465346 0.44499999 8.7581939e-39
0.0084184511 -0.01465346 0.44499999 8.3894114e-39
0.009949076 -0.01465346 0.44499999 8.2057263e-39
0.011453903 -0.014620531 0.44400001 7.7447482e-39
0.012981118 -0.014620531 0.44400001 7.1901213e-39
0.014508303 -0.014620531 0.44400001 4.8852305e-39
0.016035488 -0.014620531 0.44400001 3.0481787e-39
0.017523117 -0.014587602 0.44299999 1.1069198e-38
0.019003868 -0.014554673 0.442 1.3829344e-38
0.020524174 -0.014554673 0.442 1.4105931e-38
0.022194132 -0.01465346 0.44499999 1.4382493e-38
0.0053572012 -0.016195916 0.44499999 9.034806e-39
0.0068878261 -0.016195916 0.44499999 8.3897673e-39
0.0084184511 -0.016195916 0.44499999 8.3897673e-39
0.009949076 -0.016195916 0.44499999 8.2057263e-39
0.0114797 -0.016195916 0.44499999 7.8369438e-39
0.012981118 -0.016159521 0.44400001 7.7440209e-39
0.014508303 -0.016159521 0.44400001 5.8079127e-39
0.016035488 -0.016159521 0.44400001 7.5618269e-39
0.017562672 -0.016159521 0.44400001 1.4476499e-38
0.0053572012 -0.017738394 0.44499999 9.4961345e-39
0.0068878261 -0.017738394 0.44499999 8.5734495e-39
0.0084184511 -0.017738394 0.44499999 8.3890582e-39
0.009949076 -0.017738394 0.44499999 8.1135307e-39
0.0114797 -0.017738394 0.44499999 7.9291395e-39
0.012981118 -0.017698534 0.44400001 8.019889e-39
0.014508303 -0.017698534 0.44400001 5.8071938e-39
0.016071605 -0.017738394 0.44499999 1.2352419e-38
0.017602229 -0.017738394 0.44499999 1.465731e-38
0.0053451625 -0.019237524 0.44400001 9.8648974e-39
0.006872348 -0.019237524 0.44400001 8.6652948e-39
0.0084184511 -0.019280853 0.44499999 8.3887079e-39
0.009949076 -0.019280853 0.44499999 8.0213323e-39
0.011453903 -0.019237524 0.44400001 7.836941e-39
0.012981118 -0.019237524 0.44400001 7.9280464e-39
0.014508303 -0.019237524 0.44400001 7.4670683e-39
0.016071605 -0.019280853 0.44499999 1.4289241e-38
0.017602229 -0.019280853 0.44499999 1.4381436e-38
0.019175848 -0.01932418 0.44600001 1.4198102e-38
0.0053451625 -0.020776536 0.44400001 1.032587e-38
0.006872348 -0.020776536 0.44400001 8.9411614e-39
0.0084184511 -0.02082333 0.44499999 8.3879876e-39
0.0099267187 -0.020776536 0.44400001 8.3886785e-39
0.011453903 -0.020776536 0.44400001 8.2964828e-39
0.012981118 -0.020776536 0.44400001 7.6521966e-39
0.014508303 -0.020776536 0.44400001 7.6521966e-39
0.016035488 -0.020776536 0.44400001 1.4475054e-38
0.017602229 -0.02082333 0.44499999 1.4014076e-38
0.019175848 -0.020870125 0.44600001 1.4105909e-38
0.0038781709 -0.022667348 0.45100001 1.1430415e-38
0.0054294332 -0.022667348 0.45100001 1.0508459e-38
0.0068878261 -0.022365788 0.44499999 9.2180986e-39
0.0084184511 -0.022365788 0.44499999 8.6649249e-39
0.0099267187 -0.022315528 0.44400001 8.7556631e-39
0.011453903 -0.022315528 0.44400001 8.5712719e-39
0.012981118 -0.022315528 0.44400001 7.8362166e-39
0.014508303 -0.022315528 0.44400001 8.8503685e-39
0.016035488 -0.022315528 0.44400001 1.4750557e-38
0.017602229 -0.022365788 0.44499999 1.4289579e-38
0.019175848 -0.022416048 0.44600001 1.4105906e-38
0.0038695715 -0.024176897 0.44999999 1.143185e-38
0.0054053562 -0.024123173 0.449 1.0233307e-38
0.0068878261 -0.023908267 0.44499999 9.0340605e-39
0.0084184511 -0.023908267 0.44499999 8.7574736e-39
0.0099267187 -0.023854541 0.44400001 8.4808741e-39
0.011453903 -0.023854541 0.44400001 8.4808741e-39
0.012981118 -0.023854541 0.44400001 7.9280464e-39
0.014508303 -0.023854541 0.44400001 1.0048546e-38
0.016035488 -0.023854541 0.44400001 1.4658717e-38
0.017602229 -0.023908267 0.44499999 1.4105543e-38
0.019175848 -0.023961993 0.44600001 1.4013708e-38
0.0023165895 -0.025679493 0.449 1.0512447e-38
0.0038609728 -0.025679493 0.449 1.1244226e-38
0.0054053562 -0.025679493 0.449 1.032227e-38
0.0068878261 -0.025450723 0.44499999 9.1262561e-39
0.0084184511 -0.025450723 0.44499999 8.5730823e-39
0.0099267187 -0.025393531 0.44400001 8.7556631e-39
0.011453903 -0.025393531 0.44400001 8.7556631e-39
0.012981118 -0.025393531 0.44400001 8.2042844e-39
0.014508303 -0.025393531 0.44400001 9.310632e-39
0.016035488 -0.025393531 0.44400001 1.4658361e-38
0.017602229 -0.025450723 0.44499999 1.4012992e-38
0.019175848 -0.025507916 0.44600001 1.3829316e-38
0.0023165895 -0.027235838 0.449 9.7723584e-39
0.0038609728 -0.027235838 0.449 9.9560168e-39
0.0053933174 -0.027175177 0.44800001 9.7716255e-39
0.0069187824 -0.02711452 0.447 9.4031933e-39
0.0084184511 -0.026993202 0.44499999 8.8500196e-39
0.0099267187 -0.026932543 0.44400001 8.7560121e-39
0.011453903 -0.026932543 0.44400001 8.6638164e-39
0.012981118 -0.026932543 0.44400001 8.3883253e-39
0.014508303 -0.026932543 0.44400001 8.6649122e-39
0.016035488 -0.026932543 0.44400001 1.4473622e-38
0.017602229 -0.026993202 0.44499999 1.4012644e-38
0.019132853 -0.026993202 0.44499999 1.4013713e-38
0.0023165895 -0.028792182 0.449 9.4049982e-39
0.0038609728 -0.028792182 0.449 9.8631177e-39
0.0053933174 -0.028728055 0.44800001 9.7709221e-39
0.0069187824 -0.028663931 0.447 9.4957421e-39
0.0084184511 -0.028535681 0.44499999 8.9425683e-39
0.009949076 -0.028535681 0.44499999 8.6652584e-39
0.011453903 -0.028471556 0.44400001 8.4808671e-39
0.012981118 -0.028471556 0.44400001 8.3883253e-39
0.014508303 -0.028471556 0.44400001 7.9273472e-39
0.016071605 -0.028535681 0.44499999 1.6683434e-38
0.017602229 -0.028535681 0.44499999 1.4562934e-38
0.019132853 -0.028535681 0.44499999 1.3276499e-38
0.00077217695 -0.030348502 0.449 1.373783e-38
0.0023165895 -0.030348502 0.449 1.01422e-38
0.0038609728 -0.030348502 0.449 1.0048212e-38
0.0053933174 -0.03028091 0.44800001 9.8638212e-39
0.0069187824 -0.030213321 0.447 9.6797802e-39
0.008437369 -0.030145729 0.44600001 8.7578239e-39
0.009949076 -0.030078137 0.44499999 8.6638164e-39
0.0114797 -0.030078137 0.44499999 8.7560121e-39
0.013010355 -0.030078137 0.44499999 8.7560121e-39
0.014540979 -0.030078137 0.44499999 6.5433169e-39
0.016107719 -0.030145729 0.44600001 1.7515349e-38
0.017641785 -0.030145729 0.44600001 1.8898284e-38
0.019175848 -0.030145729 0.44600001 1.4567235e-38
0.00077217695 -0.031904846 0.449 1.2630766e-38
0.0023165895 -0.031904846 0.449 1.0049289e-38
0.0038609728 -0.031904846 0.449 1.0141484e-38
0.0053933174 -0.031833787 0.44800001 9.8648974e-39
0.0069187824 -0.03176273 0.447 9.4028402e-39
0.008437369 -0.031691674 0.44600001 8.8496664e-39
0.009949076 -0.031620614 0.44499999 8.6652584e-39
0.0114797 -0.031620614 0.44499999 8.3886715e-39
0.013010355 -0.031620614 0.44499999 8.481223e-39
0.014573655 -0.031691674 0.44600001 7.0982886e-39
0.016107719 -0.031691674 0.44600001 1.5027127e-38
0.017641785 -0.031691674 0.44600001 1.9360321e-38
0.019175848 -0.031691674 0.44600001 1.8900092e-38
0.00077217695 -0.033461168 0.449 1.1432939e-38
0.0023165895 -0.033461168 0.449 1.0050005e-38
0.0038523737 -0.033386644 0.44800001 1.0599586e-38
0.0053812782 -0.03331212 0.447 1.0138607e-38
0.0069033043 -0.033237599 0.44600001 9.1262505e-39
0.008437369 -0.033237599 0.44600001 8.757468e-39
0.009949076 -0.033163071 0.44499999 8.5730627e-39
0.0114797 -0.033163071 0.44499999 8.4808671e-39
0.013010355 -0.033163071 0.44499999 8.4808741e-39
0.014573655 -0.033237599 0.44600001 7.4667222e-39
0.016107719 -0.033237599 0.44600001 1.4749824e-38
0.01768134 -0.03331212 0.447 1.9636192e-38
0.019218843 -0.03331212 0.447 1.8532028e-38
0.00077217695 -0.035017513 0.449 1.0053965e-38
0.0023165895 -0.035017513 0.449 9.3163997e-39
0.0038523737 -0.03493952 0.44800001 9.5872343e-39
0.0053812782 -0.034861531 0.447 9.5872343e-39
0.0069033043 -0.034783542 0.44600001 8.7578239e-39
0.008437369 -0.034783542 0.44600001 8.6656283e-39
0.0099714333 -0.034783542 0.44600001 8.4808741e-39
0.011505498 -0.034783542 0.44600001 8.4808741e-39
0.013039591 -0.034783542 0.44600001 8.6649094e-39
0.014573655 -0.034783542 0.44600001 7.7429531e-39
0.016107719 -0.034783542 0.44600001 1.318213e-38
0.01768134 -0.034861531 0.447 1.9728019e-38
0.019218843 -0.034861531 0.447 1.8347634e-38
0.00077217695 -0.036573835 0.449 1.0050721e-38
0.0023165895 -0.036573835 0.449 9.6819382e-39
0.0038523737 -0.036492374 0.44800001 1.0048563e-38
0.0053812782 -0.03641092 0.447 9.2188021e-39
0.0069033043 -0.036329467 0.44600001 9.2166385e-39
0.008437369 -0.036329467 0.44600001 8.9400516e-39
0.0099714333 -0.036329467 0.44600001 8.5730697e-39
0.011505498 -0.036329467 0.44600001 8.4808741e-39
0.013039591 -0.036329467 0.44600001 8.6652584e-39
0.014573655 -0.036329467 0.44600001 7.8354977e-39
0.016143836 -0.03641092 0.447 1.1799903e-38
0.017720895 -0.036492374 0.44800001 2.0005314e-38
0.019261839 -0.036492374 0.44800001 1.8439113e-38
0.020895651 -0.036655288 0.44999999 1.8439113e-38
-0.00077048648 -0.038045254 0.44800001 1.6595201e-38
0.00077045715 -0.038045254 0.44800001 1.005107e-38
0.0023114302 -0.038045254 0.44800001 9.5900915e-39
0.0038523737 -0.038045254 0.44800001 1.0138958e-38
0.0053812782 -0.037960332 0.447 9.4013927e-39
0.0069033043 -0.03787541 0.44600001 9.0326017e-39
0.008437369 -0.03787541 0.44600001 8.8482105e-39
0.0099714333 -0.03787541 0.44600001 8.3897617e-39
0.011505498 -0.03787541 0.44600001 8.2975661e-39
0.013039591 -0.03787541 0.44600001 8.757454e-39
0.014573655 -0.03787541 0.44600001 8.1120846e-39
0.016143836 -0.037960332 0.447 1.0876523e-38
0.017720895 -0.038045254 0.44800001 1.9450716e-38
0.019261839 -0.038045254 0.44800001 1.8255085e-38
0.020802783 -0.038045254 0.44800001 1.8255085e-38
-0.0023114302 -0.039598107 0.44800001 1.8992284e-38
-0.00077048648 -0.039598107 0.44800001 1.6318611e-38
0.00077045715 -0.039598107 0.44800001 9.7744828e-39
0.0023114302 -0.039598107 0.44800001 9.4978959e-39
0.0038523737 -0.039598107 0.44800001 9.7719731e-39
0.0053812782 -0.039509721 0.447 9.2187993e-39
0.0069033043 -0.039421335 0.44600001 8.8493007e-39
0.008437369 -0.039421335 0.44600001 8.5727138e-39
0.0099714333 -0.039421335 0.44600001 8.6652584e-39
0.011505498 -0.039421335 0.44600001 8.6652584e-39
0.013039591 -0.039421335 0.44600001 8.8496538e-39
0.014573655 -0.039421335 0.44600001 8.2042844e-39
0.016143836 -0.039509721 0.447 9.956014e-39
0.017720895 -0.039598107 0.44800001 1.9359968e-38
0.019261839 -0.039598107 0.44800001 1.8163243e-38
0.020802783 -0.039598107 0.44800001 1.8255438e-38
-0.0023114302 -0.041150987 0.44800001 1.8808612e-38
-0.00077048648 -0.041150987 0.44800001 1.5950547e-38
0.00077045715 -0.041150987 0.44800001 9.6819354e-39
0.0023114302 -0.041150987 0.44800001 9.4975442e-39
0.0038523737 -0.041150987 0.44800001 9.6797774e-39
0.0053812782 -0.041059133 0.447 8.7578211e-39
0.0069033043 -0.040967278 0.44600001 8.8493007e-39
0.008437369 -0.040967278 0.44600001 8.6649094e-39
0.0099714333 -0.040967278 0.44600001 8.4823104e-39
0.011505498 -0.040967278 0.44600001 8.5745061e-39
0.013039591 -0.040967278 0.44600001 9.2166385e-39
0.014573655 -0.040967278 0.44600001 8.7556603e-39
0.016143836 -0.041059133 0.447 9.6794299e-39
0.017720895 -0.041150987 0.44800001 1.917558e-38
0.019261839 -0.041150987 0.44800001 1.8162526e-38
0.00077045715 -0.042703863 0.44800001 9.6808564e-39
0.0023114302 -0.042703863 0.44800001 9.7730521e-39
0.0038437746 -0.042608544 0.447 9.495389e-39
0.00536924 -0.042513225 0.44600001 9.0344108e-39
0.0069033043 -0.042513225 0.44600001 8.8496538e-39
0.008437369 -0.042513225 0.44600001 8.6652626e-39
0.0099714333 -0.042513225 0.44600001 8.8496538e-39
0.011505498 -0.042513225 0.44600001 8.9418495e-39
0.013039591 -0.042513225 0.44600001 8.8496636e-39
0.014606331 -0.042608544 0.447 8.2042942e-39
0.016143836 -0.042608544 0.447 9.9589105e-39
0.017720895 -0.042703863 0.44800001 1.8533104e-38
0.019261839 -0.042703863 0.44800001 1.8162524e-38
0.00077217695 -0.044355508 0.449 1.0417342e-38
0.0023114302 -0.044256717 0.44800001 1.0232951e-38
0.0038437746 -0.044157933 0.447 9.2184518e-39
0.00536924 -0.044059146 0.44600001 9.0340605e-39
0.0069033043 -0.044059146 0.44600001 8.8496538e-39
0.008437369 -0.044059146 0.44600001 8.7574582e-39
0.0099714333 -0.044059146 0.44600001 8.7574582e-39
0.011505498 -0.044059146 0.44600001 8.9418495e-39
0.013039591 -0.044059146 0.44600001 8.8503727e-39
0.014573655 -0.044059146 0.44600001 7.7440251e-39
0.016143836 -0.044157933 0.447 1.244641e-38
0.017720895 -0.044256717 0.44800001 1.8900104e-38
0.019261839 -0.044256717 0.44800001 1.8071047e-38
0.00077217695 -0.045911852 0.449 1.0231153e-38
0.0023165895 -0.045911852 0.449 1.0138958e-38
0.0038437746 -0.045707345 0.447 9.3106474e-39
0.00536924 -0.045605093 0.44600001 8.8496692e-39
0.0069033043 -0.045605093 0.44600001 8.6649094e-39
0.008437369 -0.045605093 0.44600001 8.6649094e-39
0.0099714333 -0.045605093 0.44600001 8.6649094e-39
0.011505498 -0.045605093 0.44600001 8.9414963e-39
0.013039591 -0.045605093 0.44600001 9.3088341e-39
0.014573655 -0.045605093 0.44600001 7.833704e-39
0.016143836 -0.045707345 0.447 1.5304109e-38
0.017720895 -0.045809597 0.44800001 1.8807543e-38
0.019304834 -0.045911852 0.449 1.807105e-38
0.00077217695 -0.047468174 0.449 1.0140758e-38
0.0023165895 -0.047468174 0.449 1.0417345e-38
0.0038437746 -0.047256734 0.447 9.402843e-39
0.00536924 -0.047151014 0.44600001 8.665278e-39
0.0069033043 -0.047151014 0.44600001 8.7571051e-39
0.008437369 -0.047151014 0.44600001 8.5727138e-39
0.0099714333 -0.047151014 0.44600001 8.8493007e-39
0.011505498 -0.047151014 0.44600001 8.9414963e-39
0.013039591 -0.047151014 0.44600001 9.3084838e-39
0.014573655 -0.047151014 0.44600001 7.8333537e-39
0.016143836 -0.047256734 0.447 1.6688115e-38
0.017720895 -0.047362451 0.44800001 1.8255441e-38
0.019304834 -0.047468174 0.449 1.8161808e-38
0.00077217695 -0.049024519 0.449 1.0140758e-38
0.0023114302 -0.048915327 0.44800001 1.032515e-38
0.0038437746 -0.048806146 0.447 9.3106446e-39
0.00536924 -0.048696961 0.44600001 9.0340577e-39
0.0069033043 -0.048696961 0.44600001 8.8496636e-39
0.008437369 -0.048696961 0.44600001 8.5730767e-39
0.0099714333 -0.048696961 0.44600001 8.7578239e-39
0.011505498 -0.048696961 0.44600001 8.8500196e-39
0.013039591 -0.048696961 0.44600001 8.5730795e-39
0.014573655 -0.048696961 0.44600001 8.3886883e-39
0.016143836 -0.048806146 0.447 1.7978132e-38
0.017720895 -0.048915327 0.44800001 1.8070328e-38
0.019304834 -0.049024519 0.449 1.7978135e-38
-0.00077564595 -0.050806139 0.45100001 1.1525157e-38
0.00077217695 -0.050580837 0.449 1.032515e-38
0.0023114302 -0.050468184 0.44800001 1.032515e-38
0.0038437746 -0.050355535 0.447 9.5872315e-39
0.00536924 -0.050242882 0.44600001 9.1262533e-39
0.0069033043 -0.050242882 0.44600001 8.8496636e-39
0.008437369 -0.050242882 0.44600001 8.757468e-39
0.0099714333 -0.050242882 0.44600001 8.6649094e-39
0.011505498 -0.050242882 0.44600001 8.9414963e-39
0.013039591 -0.050242882 0.44600001 8.6634675e-39
0.014573655 -0.050242882 0.44600001 9.4932282e-39
0.016143836 -0.050355535 0.447 1.8346918e-38
0.017720895 -0.050468184 0.44800001 1.7978135e-38
0.019261839 -0.050468184 0.44800001 1.7794463e-38
-0.0023320678 -0.052485533 0.45199999 1.8532028e-38
-0.00077564595 -0.052369416 0.45100001 1.1893943e-38
0.00077217695 -0.052137181 0.449 1.0049283e-38
0.0023114302 -0.05202106 0.44800001 1.0418066e-38
0.0038437746 -0.051904943 0.447 9.3117236e-39
0.00536924 -0.051788829 0.44600001 8.9429411e-39
0.0069033043 -0.051788829 0.44600001 9.0340549e-39
0.008437369 -0.051788829 0.44600001 8.8496636e-39
0.0099714333 -0.051788829 0.44600001 8.7574582e-39
0.011505498 -0.051788829 0.44600001 8.9418495e-39
0.013039591 -0.051788829 0.44600001 8.2046333e-39
0.014573655 -0.051788829 0.44600001 1.1062698e-38
0.016143836 -0.051904943 0.447 1.8806461e-38
0.01768134 -0.051904943 0.447 1.8068896e-38
0.019261839 -0.05202106 0.44800001 1.7794463e-38
-0.0023320678 -0.054052252 0.45199999 1.8439832e-38
-0.00077564595 -0.053932671 0.45100001 1.2170529e-38
0.00077217695 -0.053693503 0.449 1.0602813e-38
0.0023114302 -0.053573918 0.44800001 1.0418421e-38
0.0038437746 -0.053454332 0.447 9.6805061e-39
0.00536924 -0.05333475 0.44600001 8.9429411e-39
0.0069033043 -0.05333475 0.44600001 9.034408e-39
0.008437369 -0.05333475 0.44600001 8.8500168e-39
0.0099714333 -0.05333475 0.44600001 8.8496538e-39
0.011505498 -0.05333475 0.44600001 8.9418495e-39
0.013039591 -0.05333475 0.44600001 7.8362067e-39
0.014573655 -0.05333475 0.44600001 1.3275749e-38
0.016143836 -0.053454332 0.447 1.8347281e-38
0.01768134 -0.053454332 0.447 1.7701911e-38
0.00077217695 -0.055249847 0.449 1.0602813e-38
0.0023114302 -0.055126794 0.44800001 1.0695008e-38
0.0038437746 -0.055003744 0.447 9.8638184e-39
0.00536924 -0.054880697 0.44600001 9.4950358e-39
0.0069033043 -0.054880697 0.44600001 8.758547e-39
0.0084184511 -0.054757643 0.44499999 8.5741557e-39
0.009949076 -0.054757643 0.44499999 8.6652584e-39
0.011505498 -0.054880697 0.44600001 8.8496496e-39
0.013039591 -0.054880697 0.44600001 7.2837462e-39
0.014606331 -0.055003744 0.447 1.4475005e-38
0.016143836 -0.055003744 0.447 1.8347997e-38
0.01768134 -0.055003744 0.447 1.7610432e-38
0.00077217695 -0.056806192 0.449 1.0141835e-38
0.0023114302 -0.05667967 0.44800001 1.0049639e-38
0.0038351754 -0.056426641 0.44600001 1.0230803e-38
0.00536924 -0.056426641 0.44600001 9.7698249e-39
0.0068878261 -0.056300122 0.44499999 8.7578239e-39
0.0084184511 -0.056300122 0.44499999 8.7578239e-39
0.009949076 -0.056300122 0.44499999 8.6656115e-39
0.0114797 -0.056300122 0.44499999 8.8500027e-39
0.013039591 -0.056426641 0.44600001 6.9135414e-39
0.014573655 -0.056426641 0.44600001 1.6317496e-38
0.016143836 -0.056553155 0.447 1.7887375e-38
0.017720895 -0.05667967 0.44800001 1.7518592e-38
0.00077045715 -0.058232527 0.44800001 9.9570874e-39
0.0023114302 -0.058232527 0.44800001 1.0141479e-38
0.0038351754 -0.057972565 0.44600001 9.4950386e-39
0.00536924 -0.057972565 0.44600001 9.402843e-39
0.0068878261 -0.057842579 0.44499999 9.1266036e-39
0.0084184511 -0.057842579 0.44499999 8.8500168e-39
0.009949076 -0.057842579 0.44499999 8.6652584e-39
0.0114797 -0.057842579 0.44499999 8.6652584e-39
0.013039591 -0.057972565 0.44600001 7.6518225e-39
0.014573655 -0.057972565 0.44600001 1.7424559e-38
0.016143836 -0.058102544 0.447 1.7795176e-38
0.017720895 -0.058232527 0.44800001 1.770298e-38
0.00077045715 -0.059785403 0.44800001 9.958172e-39
0.0023114302 -0.059785403 0.44800001 1.0142563e-38
0.0038351754 -0.059518509 0.44600001 9.4024899e-39
0.00536924 -0.059518509 0.44600001 9.2180986e-39
0.0069033043 -0.059518509 0.44600001 9.1266036e-39
0.008437369 -0.059518509 0.44600001 8.8500168e-39
0.0099714333 -0.059518509 0.44600001 8.6649094e-39
0.011505498 -0.059518509 0.44600001 8.7571051e-39
0.013039591 -0.059518509 0.44600001 9.0343968e-39
0.014573655 -0.059518509 0.44600001 1.3459787e-38
0.016143836 -0.059651956 0.447 1.4010434e-38
0.00077045715 -0.061338261 0.44800001 1.0417691e-38
0.0023114302 -0.061338261 0.44800001 1.0048909e-38
0.0038351754 -0.061064433 0.44600001 1.0044982e-38
0.00536924 -0.061064433 0.44600001 9.8605912e-39
0.0069033043 -0.061064433 0.44600001 9.2187993e-39
0.008437369 -0.061064433 0.44600001 8.5734299e-39
0.0099714333 -0.061064433 0.44600001 8.4808741e-39
0.0114797 -0.060927514 0.44499999 8.5730697e-39
0.013010355 -0.060927514 0.44499999 9.7719731e-39
0.014573655 -0.061064433 0.44600001 1.299882e-38
0.016143836 -0.061201345 0.447 1.2903354e-38
0.01768134 -0.061201345 0.447 1.447068e-38
0.0038351754 -0.062610373 0.44600001 9.5875846e-39
0.00536924 -0.062610373 0.44600001 9.0344108e-39
0.0069033043 -0.062610373 0.44600001 9.5857755e-39
0.008437369 -0.062610373 0.44600001 9.1247974e-39
0.0099714333 -0.062610373 0.44600001 8.8482049e-39
0.0114797 -0.062469993 0.44499999 8.7560093e-39
0.013010355 -0.062469993 0.44499999 1.041517e-38
0.014540979 -0.062469993 0.44499999 1.2443474e-38
0.016071605 -0.062469993 0.44499999 1.1796641e-38
0.017602229 -0.062469993 0.44499999 1.2995184e-38
0.019175848 -0.062610373 0.44600001 1.4193727e-38
0.020709913 -0.062610373 0.44600001 1.3456162e-38
0.0038351754 -0.064156301 0.44600001 1.2166134e-38
0.00536924 -0.064156301 0.44600001 1.161296e-38
0.0069033043 -0.064156301 0.44600001 9.4935547e-39
0.0084184511 -0.064012446 0.44499999 7.5574464e-39
0.009949076 -0.064012446 0.44499999 5.4383833e-39
0.0114797 -0.064012446 0.44499999 7.743267e-39
0.013010355 -0.064012446 0.44499999 1.336326e-38
0.014540979 -0.064012446 0.44499999 1.483839e-38
0.016071605 -0.064012446 0.44499999 1.4838753e-38
0.017562672 -0.063868605 0.44400001 1.4654362e-38
0.019089859 -0.063868605 0.44400001 1.3917506e-38
0.020617044 -0.063868605 0.44400001 1.2626767e-38
0.022244006 -0.064156301 0.44600001 1.1980644e-38
0.0023011111 -0.065702245 0.44600001 1.7695039e-38
0.0038351754 -0.065702245 0.44600001 1.3182456e-38
0.00536924 -0.065702245 0.44600001 1.2352695e-38
0.0068878261 -0.065554924 0.44499999 1.2350187e-38
0.0084184511 -0.065554924 0.44499999 1.2442383e-38
0.0099267187 -0.065407611 0.44400001 1.2813347e-38
0.011453903 -0.065407611 0.44400001 1.465726e-38
0.012981118 -0.065407611 0.44400001 1.5575605e-38
0.014508303 -0.065407611 0.44400001 1.5206822e-38
0.016035488 -0.065407611 0.44400001 1.6128416e-38
0.017523117 -0.065260299 0.44299999 1.6589394e-38
0.019046862 -0.065260299 0.44299999 1.6497198e-38
0.020617044 -0.065407611 0.44400001 1.4284503e-38
0.022144258 -0.065407611 0.44400001 1.1335271e-38
0.023724757 -0.065554924 0.44499999 1.4285532e-38
0.025255382 -0.065554924 0.44499999 1.7146567e-38
0.0007670176 -0.067248166 0.44600001 1.6312804e-38
0.0023011111 -0.067248166 0.44600001 1.5944022e-38
0.0038265765 -0.067097381 0.44499999 1.5391216e-38
0.0053572012 -0.067097381 0.44499999 1.5022434e-38
0.0068878261 -0.067097381 0.44499999 1.4838405e-38
0.0083995331 -0.066946603 0.44400001 1.5022797e-38
0.0099267187 -0.066946603 0.44400001 1.5760722e-38
0.011428106 -0.066795819 0.44299999 1.6406091e-38
0.012951881 -0.066795819 0.44299999 1.6589754e-38
0.01444295 -0.066645041 0.442 1.6313167e-38
0.015963256 -0.066645041 0.442 1.585146e-38
0.017483562 -0.066645041 0.442 1.5206091e-38
0.019003868 -0.066645041 0.442 1.5759981e-38
0.020524174 -0.066645041 0.442 1.493022e-38
0.022094382 -0.066795819 0.44299999 1.1892799e-38
0.023671443 -0.066946603 0.44400001 1.2999147e-38
0.025198627 -0.066946603 0.44400001 1.5395203e-38
0.0007670176 -0.068794109 0.44600001 1.5113885e-38
0.0022959518 -0.06863986 0.44499999 1.4191929e-38
0.0038265765 -0.06863986 0.44499999 1.5020986e-38
0.0053451625 -0.068485618 0.44400001 1.4652204e-38
0.006872348 -0.068485618 0.44400001 1.4653286e-38
0.0083616972 -0.068177126 0.442 1.4745481e-38
0.0098820031 -0.068177126 0.442 1.4837314e-38
0.011402309 -0.068177126 0.442 1.4745118e-38
0.012893408 -0.068022877 0.44100001 1.4746911e-38
0.014410274 -0.068022877 0.44100001 1.4378128e-38
0.015927142 -0.068022877 0.44100001 1.4284127e-38
0.017444007 -0.068022877 0.44100001 1.3546562e-38
0.018960873 -0.068022877 0.44100001 1.3732749e-38
0.020524174 -0.068177126 0.442 1.3456162e-38
0.022044508 -0.068177126 0.442 1.2535282e-38
0.023618128 -0.068331368 0.44299999 1.5393346e-38
0.025141872 -0.068331368 0.44299999 1.465908e-38
-0.00077048648 -0.07065548 0.44800001 1.4562169e-38
0.0007670176 -0.07034006 0.44600001 1.4743313e-38
0.0022959518 -0.070182338 0.44499999 1.4005748e-38
0.0038265765 -0.070182338 0.44499999 1.3913923e-38
0.0053451625 -0.070024632 0.44400001 1.4098314e-38
0.0068413909 -0.069709204 0.442 1.4007553e-38
0.0083616972 -0.069709204 0.442 1.3823162e-38
0.0098820031 -0.069709204 0.442 1.4191942e-38
0.011376512 -0.06955149 0.44100001 1.4376333e-38
0.012893408 -0.06955149 0.44100001 1.4191944e-38
0.014377597 -0.069393776 0.44 1.3269988e-38
0.015891025 -0.069393776 0.44 1.2533134e-38
0.01740445 -0.069393776 0.44 1.1703373e-38
0.018917877 -0.069393776 0.44 1.2072884e-38
0.020431304 -0.069393776 0.44 1.2441667e-38
0.021944759 -0.069393776 0.44 1.1426764e-38
0.023511501 -0.06955149 0.44100001 1.4653611e-38
0.025141872 -0.069866911 0.44299999 1.5211901e-38
-0.00077048648 -0.072208337 0.44800001 1.3733148e-38
0.00077045715 -0.072208337 0.44800001 1.2442023e-38
0.0022959518 -0.071724795 0.44499999 1.0966892e-38
0.0038179774 -0.071563624 0.44400001 1.1980338e-38
0.0053451625 -0.071563624 0.44400001 1.1980338e-38
0.0068413909 -0.07124126 0.442 1.2256565e-38
0.0083616972 -0.07124126 0.442 1.2256565e-38
0.0098820031 -0.07124126 0.442 1.2441307e-38
0.011376512 -0.071080081 0.44100001 1.2810089e-38
0.012864171 -0.070918903 0.44 1.2349111e-38
0.014377597 -0.070918903 0.44 1.1888133e-38
0.015891025 -0.070918903 0.44 1.1609758e-38
0.01740445 -0.070918903 0.44 1.0595606e-38
0.018917877 -0.070918903 0.44 1.0874356e-38
0.020431304 -0.070918903 0.44 1.0044596e-38
0.021944759 -0.070918903 0.44 7.5617877e-39
0.023458187 -0.070918903 0.44 1.2632547e-38
-0.00077048648 -0.07376121 0.44800001 1.6593386e-38
0.00077045715 -0.07376121 0.44800001 1.6593746e-38
0.0038179774 -0.073102631 0.44400001 1.6686298e-38
0.0053331237 -0.072937988 0.44299999 1.6686298e-38
0.0068413909 -0.072773337 0.442 1.6501904e-38
0.0083616972 -0.072773337 0.442 1.6040926e-38
0.0098820031 -0.072773337 0.442 1.5117887e-38
0.011376512 -0.072608694 0.44100001 1.4380322e-38
0.012864171 -0.072444052 0.44 1.3642017e-38
0.014377597 -0.072444052 0.44 1.2627866e-38
0.015891025 -0.072444052 0.44 1.1983226e-38
0.017364895 -0.072279409 0.43900001 1.1891031e-38
