# .PCD v0.7 - Point Cloud Data file format
VERSION 0.7
FIELDS x y z rgb
SIZE 4 4 4 4
TYPE F F F F
COUNT 1 1 1 1
WIDTH 386
HEIGHT 1
VIEWPOINT 0 0 0 1 0 0 0
POINTS 386
DATA ascii
-0.0040501622 0.07482709 0.78500003 1.6226065e-38
-0.0013500712 0.07482709 0.78500003 1.6871435e-38
0.0013534593 0.075017728 0.787 1.3090616e-38
-0.0094744209 0.072289832 0.787 5.6991817e-39
-0.0067674508 0.072289832 0.787 6.528934e-39
-0.0040501622 0.072106123 0.78500003 7.2798576e-39
-0.0013500712 0.072106123 0.78500003 1.3456965e-38
0.0013534593 0.072289832 0.787 8.3864462e-39
0.0040862779 0.072749101 0.792 5.2518424e-39
-0.012258808 0.070003837 0.792 5.5266777e-39
-0.0094744209 0.069561899 0.787 6.9041709e-39
-0.0067674508 0.069561899 0.787 5.2446678e-39
-0.0040604807 0.069561899 0.787 3.2167535e-39
-0.0013535108 0.069561899 0.787 5.1528561e-39
0.0013534593 0.069561899 0.787 7.1818228e-39
0.0040862779 0.070003837 0.792 7.5506039e-39
0.0068276445 0.070180617 0.79400003 1.0779323e-38
-0.014945141 0.067088731 0.79000002 1.0782532e-38
-0.012227852 0.067088731 0.79000002 6.2649462e-39
-0.0094864592 0.06691888 0.78799999 7.1807704e-39
-0.0067760497 0.06691888 0.78799999 5.0602793e-39
-0.0040656403 0.06691888 0.78799999 5.8864415e-39
-0.0013552306 0.06691888 0.78799999 6.6240065e-39
0.001355179 0.06691888 0.78799999 6.6268652e-39
0.0040862779 0.067258574 0.792 6.6268652e-39
0.0068104463 0.067258574 0.792 1.2165845e-38
-0.014907304 0.064187519 0.78799999 9.1128793e-39
-0.012196895 0.064187519 0.78799999 8.0065486e-39
-0.0094864592 0.064187519 0.78799999 4.3212906e-39
-0.0067760497 0.064187519 0.78799999 4.6900675e-39
-0.0040656403 0.064187519 0.78799999 5.3347096e-39
-0.0013552306 0.064187519 0.78799999 8.0083801e-39
0.001355179 0.064187519 0.78799999 6.1644577e-39
0.0040759593 0.064350434 0.79000002 5.1503212e-39
0.0067932485 0.064350434 0.79000002 9.3992038e-39
0.0095105376 0.064350434 0.79000002 1.7512419e-38
-0.014907304 0.061456118 0.78799999 6.8087411e-39
-0.012196895 0.061456118 0.78799999 6.2555757e-39
-0.0094864592 0.061456118 0.78799999 5.9800692e-39
-0.0067760497 0.061456118 0.78799999 5.5190981e-39
-0.0040656403 0.061456118 0.78799999 5.3375795e-39
-0.0013552306 0.061456118 0.78799999 4.8766083e-39
0.001355179 0.061456118 0.78799999 4.7815443e-39
0.0040656403 0.061456118 0.78799999 4.8737385e-39
0.0067932485 0.061612103 0.79000002 9.3985074e-39
0.0095105376 0.061612103 0.79000002 1.7235136e-38
-0.014907304 0.058724757 0.78799999 9.1118031e-39
-0.012196895 0.058724757 0.78799999 6.8991416e-39
-0.0094864592 0.058724757 0.78799999 3.5876828e-39
-0.0067760497 0.058724757 0.78799999 4.1408496e-39
-0.0040656403 0.058724757 0.78799999 4.9677264e-39
-0.0013552306 0.058724757 0.78799999 5.3365047e-39
0.001355179 0.058724757 0.78799999 4.0443506e-39
0.0040656403 0.058724757 0.78799999 4.5975243e-39
0.0067932485 0.05887381 0.79000002 8.1992355e-39
0.0095105376 0.05887381 0.79000002 1.7418799e-38
-0.014982977 0.056277588 0.792 1.6864911e-38
-0.012227852 0.056135476 0.79000002 7.9219354e-39
-0.0095105376 0.056135476 0.79000002 5.4200879e-39
-0.0067932485 0.056135476 0.79000002 4.9591168e-39
-0.0040656403 0.055993356 0.78799999 4.3238017e-39
-0.0013552306 0.055993356 0.78799999 3.7706363e-39
0.001355179 0.055993356 0.78799999 3.2207108e-39
0.0040656403 0.055993356 0.78799999 3.9582758e-39
0.0067932485 0.056135476 0.79000002 6.260598e-39
0.0095346142 0.056277588 0.792 1.6402116e-38
-0.014982977 0.053532325 0.792 1.8157085e-38
-0.012258808 0.053532325 0.792 1.6681955e-38
-0.0095105376 0.053397141 0.79000002 1.2255127e-38
-0.0067932485 0.053397141 0.79000002 8.1063238e-39
-0.0040656403 0.053261958 0.78799999 4.4163771e-39
-0.0013552306 0.053261958 0.78799999 3.8632033e-39
0.001355179 0.053261958 0.78799999 4.2319858e-39
0.0040656403 0.053261958 0.78799999 4.0475946e-39
0.0067932485 0.053397141 0.79000002 5.5248728e-39
0.0095346142 0.053532325 0.792 8.1063505e-39
-0.017796574 0.0510436 0.796 1.5486322e-38
-0.014982977 0.050787095 0.792 1.695711e-38
-0.012258808 0.050787095 0.792 1.6496132e-38
-0.0095346142 0.050787095 0.792 1.3821021e-38
-0.0067932485 0.050658848 0.79000002 9.2112393e-39
-0.0040759593 0.050658848 0.79000002 2.848694e-39
-0.0013552306 0.050530594 0.78799999 3.0330825e-39
0.001355179 0.050530594 0.78799999 9.1907243e-40
0.0040656403 0.050530594 0.78799999 2.3020041e-39
0.0067932485 0.050658848 0.79000002 4.9908114e-39
0.0095346142 0.050787095 0.792 1.0061571e-38
-0.017796574 0.048284508 0.796 1.2715403e-38
-0.015020813 0.04816319 0.79400003 1.2156413e-38
-0.012258808 0.048041869 0.792 1.2801782e-38
-0.0095105376 0.047920555 0.79000002 1.3813112e-38
-0.0067932485 0.047920555 0.79000002 1.2522373e-38
-0.0040759593 0.047920555 0.79000002 1.0391084e-38
-0.0013586703 0.047920555 0.79000002 1.278817e-38
0.001355179 0.047799233 0.78799999 7.641785e-39
0.0040656403 0.047799233 0.78799999 9.7622845e-39
0.0067932485 0.047920555 0.79000002 1.5852613e-38
0.0095346142 0.048041869 0.792 1.6497983e-38
-0.017751861 0.045410994 0.79400003 1.2803262e-38
-0.014982977 0.045296606 0.792 1.1316585e-38
-0.012227852 0.045182221 0.79000002 9.0117168e-39
-0.0095105376 0.045182221 0.79000002 1.371626e-38
-0.0067932485 0.045182221 0.79000002 1.6205542e-38
-0.0040759593 0.045182221 0.79000002 1.5188506e-38
-0.00136211 0.045296606 0.792 1.3713376e-38
0.0013586186 0.045182221 0.79000002 1.1139834e-38
0.0040759593 0.045182221 0.79000002 3.5815858e-39
0.0068104463 0.045296606 0.792 1.4105203e-38
-0.017751861 0.042658795 0.79400003 1.6487847e-38
-0.014945141 0.04244389 0.79000002 1.426908e-38
-0.012196895 0.042336434 0.78799999 9.0139294e-39
-0.0094864592 0.042336434 0.78799999 1.1776546e-38
-0.0067760497 0.042336434 0.78799999 1.6478523e-38
-0.0040656403 0.042336434 0.78799999 1.1405235e-38
-0.017617714 0.03960507 0.78799999 1.1971305e-38
-0.014907304 0.03960507 0.78799999 9.2926813e-39
-0.012196895 0.03960507 0.78799999 8.0019425e-39
-0.0094864592 0.03960507 0.78799999 1.0024452e-38
-0.0067760497 0.03960507 0.78799999 1.4173255e-38
-0.0040656403 0.03960507 0.78799999 1.5190318e-38
-0.017617714 0.036873672 0.78799999 1.1796702e-38
-0.014907304 0.036873672 0.78799999 1.3255301e-38
-0.012196895 0.036873672 0.78799999 1.2886519e-38
-0.0094744209 0.036826879 0.787 9.7395848e-39
-0.006750253 0.036733292 0.78500003 1.5824485e-38
-0.0040295245 0.036546115 0.78100002 1.6118015e-38
-0.0013431918 0.036546115 0.78100002 1.9898036e-38
-0.01766243 0.034228966 0.79000002 8.5738278e-39
-0.014945141 0.034228966 0.79000002 1.0953297e-38
-0.012196895 0.034142312 0.78799999 1.0861101e-38
-0.0094744209 0.034098983 0.787 8.4520942e-39
-0.006750253 0.034012329 0.78500003 1.6841887e-38
-0.0040295245 0.033839017 0.78100002 1.2894694e-38
-0.0013431918 0.033839017 0.78100002 1.4830802e-38
0.0013534593 0.034098983 0.787 1.1055057e-38
-0.014945141 0.031490635 0.79000002 1.3996109e-38
-0.012196895 0.03141091 0.78799999 1.1414631e-38
-0.0094744209 0.03137105 0.787 9.6574646e-39
-0.006750253 0.031291328 0.78500003 1.4728224e-38
-0.0040501622 0.031291328 0.78500003 9.8515094e-39
-0.0013500712 0.031291328 0.78500003 1.280177e-38
0.0013534593 0.03137105 0.787 1.1517905e-38
0.0040604807 0.03137105 0.787 7.3691021e-39
-0.012196895 0.028679509 0.78799999 1.2706809e-38
-0.0094744209 0.028643116 0.787 1.3073411e-38
-0.006750253 0.028570326 0.78500003 1.4179759e-38
-0.0040501622 0.028570326 0.78500003 1.1050139e-38
-0.0013500712 0.028570326 0.78500003 3.7666903e-39
0.0013500198 0.028570326 0.78500003 4.5150131e-39
0.0040604807 0.028643116 0.787 1.3804023e-39
-0.012196895 0.025948148 0.78799999 1.1143071e-38
-0.0094744209 0.02591522 0.787 1.2061052e-38
-0.0067674508 0.02591522 0.787 1.5011312e-38
-0.0040501622 0.025849363 0.78500003 1.1787336e-38
-0.0013500712 0.025849363 0.78500003 6.532185e-39
0.0013500198 0.025849363 0.78500003 7.7307534e-39
0.0040604807 0.02591522 0.787 5.3336671e-39
0.0068276445 0.026145725 0.79400003 8.8439463e-39
0.0095827691 0.026211582 0.796 1.6588379e-38
-0.012227852 0.023275713 0.79000002 8.4657877e-39
-0.0094864592 0.023216786 0.78799999 9.9254082e-39
-0.0067674508 0.023187324 0.787 1.471958e-38
-0.0040501622 0.0231284 0.78500003 5.6998992e-39
-0.0013500712 0.0231284 0.78500003 6.4374614e-39
0.0013534593 0.023187324 0.787 9.6686749e-39
0.0040604807 0.023187324 0.787 9.6686749e-39
0.0068276445 0.023393566 0.79400003 1.05942e-38
0.0095827691 0.023452491 0.796 1.6863503e-38
-0.012258808 0.020589372 0.792 1.1600812e-38
-0.0094864592 0.020485386 0.78799999 1.361938e-38
-0.0067674508 0.020459391 0.787 1.6200857e-38
-0.0040604807 0.020459391 0.787 1.0863222e-38
-0.0013535108 0.020459391 0.787 6.0690489e-39
0.0013534593 0.020459391 0.787 1.0497701e-38
0.0040604807 0.020459391 0.787 8.3772018e-39
0.0068104463 0.020589372 0.792 1.0870059e-38
0.0095586926 0.020641368 0.79400003 1.695497e-38
-0.012289765 0.01788917 0.79400003 1.1782294e-38
-0.0095105376 0.017799048 0.79000002 8.1798163e-39
-0.0067674508 0.017731456 0.787 1.1130071e-38
-0.0040604807 0.017731456 0.787 7.269729e-39
-0.0013535108 0.017731456 0.787 5.0570507e-39
0.0013534593 0.017731456 0.787 8.4686716e-39
0.0040604807 0.017731456 0.787 5.7949983e-39
0.0068104463 0.017844107 0.792 8.8460889e-39
0.0095346142 0.017844107 0.792 1.6129544e-38
-0.012289765 0.01513701 0.79400003 1.455391e-38
-0.0095346142 0.015098881 0.792 1.1969209e-38
-0.0067760497 0.015022624 0.78799999 1.3905317e-38
-0.0040604807 0.015003561 0.787 1.123597e-38
-0.0013535108 0.015003561 0.787 4.4134932e-39
0.0013534593 0.015003561 0.787 7.9083078e-39
0.0040656403 0.015022624 0.78799999 7.7239165e-39
0.0067932485 0.015060754 0.79000002 1.179491e-38
0.0095346142 0.015098881 0.792 1.62203e-38
-0.012289765 0.012384812 0.79400003 1.4644675e-38
-0.0095346142 0.012353616 0.792 1.1968856e-38
-0.0067932485 0.01232242 0.79000002 1.335179e-38
-0.0040656403 0.012291224 0.78799999 1.2340525e-38
-0.0013535108 0.012275627 0.787 8.2839174e-39
0.0013534593 0.012275627 0.787 9.204066e-39
0.0040656403 0.012291224 0.78799999 8.0977185e-39
0.0067932485 0.01232242 0.79000002 1.1426475e-38
0.0095346142 0.012353616 0.792 1.6128452e-38
-0.012258808 0.0096083898 0.792 1.1418206e-38
-0.0095346142 0.0096083898 0.792 8.456399e-39
-0.0067932485 0.0095841261 0.79000002 1.0392506e-38
-0.0040759593 0.0095841261 0.79000002 9.3888426e-39
-0.0013552306 0.0095598623 0.78799999 4.9634524e-39
0.001355179 0.0095598623 0.78799999 5.4254689e-39
0.0040656403 0.0095598623 0.78799999 5.1488862e-39
0.0067932485 0.0095841261 0.79000002 1.2167292e-38
0.0095105376 0.0095841261 0.79000002 1.5209748e-38
-0.012258808 0.0068631242 0.792 1.2530687e-38
-0.0095346142 0.0068631242 0.792 1.3065124e-38
-0.0068104463 0.0068631242 0.792 1.5554406e-38
-0.0040759593 0.0068457937 0.79000002 1.334926e-38
-0.0013586703 0.0068457937 0.79000002 9.9380213e-39
0.0013586186 0.0068457937 0.79000002 8.1009288e-39
0.0040759593 0.0068457937 0.79000002 7.824342e-39
0.0067932485 0.0068457937 0.79000002 1.4285644e-38
0.0095105376 0.0068457937 0.79000002 1.5299796e-38
-0.0095346142 0.0041178591 0.792 7.9957866e-39
-0.0068104463 0.0041178591 0.792 9.4709055e-39
-0.0040862779 0.0041178591 0.792 7.6363381e-39
-0.00136211 0.0041178591 0.792 5.7002579e-39
0.0013620582 0.0041178591 0.792 8.4769561e-39
0.0040862779 0.0041178591 0.792 1.3916498e-38
0.0068104463 0.0041178591 0.792 1.5208676e-38
0.0095346142 0.0041178591 0.792 1.4747698e-38
-0.0095586926 0.001376099 0.79400003 9.4031765e-39
-0.0068276445 0.001376099 0.79400003 9.2187853e-39
-0.0040965974 0.001376099 0.79400003 9.0297389e-39
-0.0013655497 0.001376099 0.79400003 3.5901967e-39
0.0013654978 0.001376099 0.79400003 1.1983649e-38
0.0040965974 0.001376099 0.79400003 1.5118301e-38
0.0068448423 0.0013795652 0.796 1.4291016e-38
-0.0068276445 -0.001376099 0.79400003 1.327218e-38
-0.0040965974 -0.001376099 0.79400003 7.9287835e-39
-0.0013655497 -0.001376099 0.79400003 2.8580239e-39
0.0013689372 -0.0013795652 0.796 1.3736423e-38
0.0041069156 -0.0013795652 0.796 1.4473988e-38
0.0068620401 -0.0013830314 0.79799998 1.4382493e-38
-0.0095827691 -0.0041386564 0.796 1.3825717e-38
-0.0068276445 -0.0041282577 0.79400003 1.2811565e-38
-0.0040965974 -0.0041282577 0.79400003 7.6514624e-39
-0.0013689892 -0.0041386564 0.796 4.2402241e-39
0.0013689372 -0.0041386564 0.796 1.4751278e-38
0.0041069156 -0.0041386564 0.796 1.42903e-38
0.0068706395 -0.0041542542 0.79900002 1.4290295e-38
-0.0095827691 -0.0068977866 0.796 1.4194865e-38
-0.0068276445 -0.0068804557 0.79400003 1.2443148e-38
-0.0040965974 -0.0068804557 0.79400003 7.5563871e-39
-0.0013689892 -0.0068977866 0.796 6.2656482e-39
0.0013689372 -0.0068977866 0.796 1.4289934e-38
0.0041069156 -0.0068977866 0.796 1.438213e-38
0.0068706395 -0.0069237831 0.79900002 1.4290295e-38
-0.0095827691 -0.0096568782 0.796 1.3918281e-38
-0.0068448423 -0.0096568782 0.796 1.2166564e-38
-0.0041069156 -0.0096568782 0.796 6.9124624e-39
-0.0013689892 -0.0096568782 0.796 6.267093e-39
0.0013689372 -0.0096568782 0.796 1.4104101e-38
0.0041069156 -0.0096568782 0.796 1.4933862e-38
0.0070254221 -0.0099116443 0.81699997 1.4289934e-38
-0.012320722 -0.012416008 0.796 1.4014424e-38
-0.0095827691 -0.012416008 0.796 1.4011192e-38
-0.0068448423 -0.012416008 0.796 1.1982889e-38
-0.0041069156 -0.012416008 0.796 7.0968537e-39
-0.001372429 -0.012447204 0.79799998 5.5295279e-39
0.0013723767 -0.012447204 0.79799998 1.3552367e-38
0.0041327132 -0.012493998 0.801 1.4382127e-38
0.0070254221 -0.012743565 0.81699997 1.4105906e-38
-0.012320722 -0.015175099 0.796 1.4658714e-38
-0.0095827691 -0.015175099 0.796 1.4008303e-38
-0.0068448423 -0.015175099 0.796 1.2072195e-38
-0.0041069156 -0.015175099 0.796 6.7287774e-39
-0.001372429 -0.015213227 0.79799998 4.5160823e-39
0.0013775361 -0.015270419 0.801 1.3829309e-38
0.0041946266 -0.01549919 0.81300002 1.4290288e-38
-0.0068620401 -0.01797929 0.79799998 1.1612293e-38
-0.0041172346 -0.01797929 0.79799998 8.0187455e-39
-0.001372429 -0.01797929 0.79799998 6.1748609e-39
0.0013775361 -0.018046882 0.801 1.2631492e-38
0.0041946266 -0.018317247 0.81300002 1.4106622e-38
-0.0068620401 -0.020745313 0.79799998 1.2074002e-38
-0.0041172346 -0.020745313 0.79799998 9.86447e-39
-0.001372429 -0.020745313 0.79799998 1.0141057e-38
0.0013775361 -0.020823304 0.801 1.3367978e-38
-0.0068620401 -0.023511376 0.79799998 1.1148796e-38
-0.0041172346 -0.023511376 0.79799998 8.2028159e-39
-0.0013741488 -0.02354084 0.79900002 8.7559896e-39
0.0013775361 -0.023599764 0.801 1.3735319e-38
0.0041430318 -0.023658691 0.80299997 1.4472884e-38
-0.0096068457 -0.02627744 0.79799998 1.1057245e-38
-0.0068620401 -0.02627744 0.79799998 1.0596267e-38
-0.0041172346 -0.02627744 0.79799998 7.5592667e-39
-0.0013741488 -0.026310369 0.79900002 6.2685279e-39
0.0013775361 -0.026376227 0.801 1.1982883e-38
0.0041430318 -0.026442086 0.80299997 1.4748752e-38
-0.0096068457 -0.029043462 0.79799998 9.400245e-39
-0.0068620401 -0.029043462 0.79799998 1.0967571e-38
-0.0041223941 -0.029079858 0.79900002 6.7316585e-39
-0.0013741488 -0.029079858 0.79900002 5.348724e-39
0.0013775361 -0.029152649 0.801 1.1892145e-38
0.0041533508 -0.029298229 0.80500001 1.4197035e-38
-0.0096188849 -0.031849388 0.79900002 6.361043e-39
-0.0068706395 -0.031849388 0.79900002 7.7439677e-39
-0.0041223941 -0.031849388 0.79900002 7.4634922e-39
-0.0013775885 -0.031929109 0.801 6.7259271e-39
0.0013775361 -0.031929109 0.801 1.2169079e-38
0.0041430318 -0.032008834 0.80299997 1.4012992e-38
0.0069222338 -0.032088555 0.80500001 1.3736761e-38
-0.0096068457 -0.034575548 0.79799998 8.0216952e-39
-0.0068620401 -0.034575548 0.79799998 8.2982821e-39
-0.0041223941 -0.034618877 0.79900002 1.1613737e-38
-0.0013775885 -0.034705531 0.801 1.0138607e-38
0.0013775361 -0.034705531 0.801 1.3827517e-38
0.0041430318 -0.034792189 0.80299997 1.4104104e-38
0.0069050356 -0.034792189 0.80299997 1.3644925e-38
-0.012289765 -0.03715444 0.79400003 1.3000262e-38
-0.0095586926 -0.03715444 0.79400003 1.0782898e-38
-0.0068620401 -0.03734161 0.79799998 9.5843546e-39
-0.0041223941 -0.037388407 0.79900002 9.2162783e-39
-0.0013741488 -0.037388407 0.79900002 8.1099308e-39
0.0013775361 -0.037481993 0.801 1.3644931e-38
0.0041327132 -0.037481993 0.801 1.3737126e-38
0.0068878378 -0.037481993 0.801 1.3553085e-38
-0.012289765 -0.039906599 0.79400003 1.4653298e-38
-0.0095586926 -0.039906599 0.79400003 1.1613737e-38
-0.0068706395 -0.040157896 0.79900002 8.5712817e-39
-0.0041223941 -0.040157896 0.79900002 8.1124377e-39
-0.0013741488 -0.040157896 0.79900002 7.282677e-39
0.0013740966 -0.040157896 0.79900002 1.3644931e-38
0.0041223941 -0.040157896 0.79900002 1.3552735e-38
0.0068878378 -0.040258415 0.801 1.346089e-38
-0.015153238 -0.043034878 0.801 1.898649e-38
-0.012351678 -0.042873699 0.79799998 1.2901578e-38
-0.0096068457 -0.042873699 0.79799998 1.1521518e-38
-0.0068706395 -0.042927425 0.79900002 8.2024753e-39
-0.0041223941 -0.042927425 0.79900002 8.0173484e-39
-0.0013741488 -0.042927425 0.79900002 7.0953921e-39
0.0013740966 -0.042927425 0.79900002 1.336906e-38
0.0041223941 -0.042927425 0.79900002 1.336906e-38
-0.017908363 -0.045811299 0.801 2.0279426e-38
-0.015153238 -0.045811299 0.801 2.1568686e-38
-0.012367156 -0.045696914 0.79900002 1.7788666e-38
-0.0096188849 -0.045696914 0.79900002 1.47415e-38
-0.0068706395 -0.045696914 0.79900002 1.2528805e-38
-0.0041223941 -0.045696914 0.79900002 1.1614049e-38
-0.0013741488 -0.045696914 0.79900002 1.179844e-38
0.0013740966 -0.045696914 0.79900002 1.3274341e-38
0.0041223941 -0.045696914 0.79900002 1.5487036e-38
0.0068706395 -0.045696914 0.79900002 1.4475054e-38
-0.020611919 -0.048466444 0.79900002 2.2026788e-38
-0.017863648 -0.048466444 0.79900002 2.092044e-38
-0.015115402 -0.048466444 0.79900002 2.0553074e-38
-0.012367156 -0.048466444 0.79900002 2.0829661e-38
-0.0096188849 -0.048466444 0.79900002 1.9999563e-38
-0.0068706395 -0.048466444 0.79900002 1.880102e-38
-0.0041223941 -0.048466444 0.79900002 1.612623e-38
-0.0013741488 -0.048466444 0.79900002 1.4558904e-38
0.0013740966 -0.048466444 0.79900002 1.3550552e-38
0.0041172346 -0.048405785 0.79799998 1.7146182e-38
0.0068448423 -0.048284467 0.796 1.6408642e-38
0.0095827691 -0.048284467 0.796 1.6593033e-38
-0.020611919 -0.051235974 0.79900002 1.8340019e-38
-0.017863648 -0.051235974 0.79900002 1.7510258e-38
-0.015115402 -0.051235974 0.79900002 1.7878335e-38
-0.012367156 -0.051235974 0.79900002 1.7509552e-38
-0.0096188849 -0.051235974 0.79900002 1.7879417e-38
-0.0068706395 -0.051235974 0.79900002 1.695746e-38
-0.0041223941 -0.051235974 0.79900002 1.2812222e-38
-0.0013741488 -0.051235974 0.79900002 8.8478097e-39
0.0013740966 -0.051235974 0.79900002 8.1156593e-39
0.0041172346 -0.051171847 0.79799998 1.401618e-38
0.0068448423 -0.0510436 0.796 1.3921502e-38
0.0095827691 -0.0510436 0.796 1.3921502e-38
-0.017908363 -0.054140642 0.801 1.8342574e-38
-0.015153238 -0.054140642 0.801 1.8711725e-38
-0.012398113 -0.054140642 0.801 1.9172703e-38
-0.0096429624 -0.054140642 0.801 1.9173056e-38
-0.0068706395 -0.054005463 0.79900002 1.7974513e-38
-0.0041223941 -0.054005463 0.79900002 1.6961071e-38
-0.0013741488 -0.054005463 0.79900002 1.677668e-38
0.0013740966 -0.054005463 0.79900002 1.6778863e-38
0.0041223941 -0.054005463 0.79900002 1.7793015e-38
