# .PCD v0.7 - Point Cloud Data file format
VERSION 0.7
FIELDS x y z rgb
SIZE 4 4 4 4
TYPE F F F F
COUNT 1 1 1 1
WIDTH 1002
HEIGHT 1
VIEWPOINT 0 0 0 1 0 0 0
POINTS 1002
DATA ascii
0.012805697 0.037196029 0.43799999 4.0483036e-39
0.014312244 0.037196029 0.43799999 3.5873255e-39
0.019132853 0.037790485 0.44499999 5.2482859e-39
0.020663477 0.037790485 0.44499999 8.7517199e-39
0.022194132 0.037790485 0.44499999 1.1242071e-38
0.023724757 0.037790485 0.44499999 6.0791158e-39
0.025255382 0.037790485 0.44499999 1.4654764e-38
0.00075669901 0.03584075 0.44 3.7706475e-39
0.0022701544 0.03584075 0.44 4.1394301e-39
0.0037835813 0.03584075 0.44 4.8748273e-39
0.0052849692 0.035759293 0.43900001 4.4138491e-39
0.0067949565 0.035759293 0.43900001 3.6788022e-39
0.0083049433 0.035759293 0.43900001 3.3100239e-39
0.0098149311 0.035759293 0.43900001 3.9564597e-39
0.011324918 0.035759293 0.43900001 4.1408482e-39
0.012805697 0.035677835 0.43799999 4.5081902e-39
0.014312244 0.035677835 0.43799999 4.1394132e-39
0.01768134 0.036410943 0.447 2.6696866e-39
0.019175848 0.036329489 0.44600001 3.2174738e-39
0.020709913 0.036329489 0.44600001 6.6287121e-39
0.022244006 0.036329489 0.44600001 7.9183354e-39
0.023724757 0.036248028 0.44499999 1.225153e-38
0.025255382 0.036248028 0.44499999 1.5854046e-38
0.00075841881 0.034393594 0.44100001 4.598232e-39
0.0022753139 0.034393594 0.44100001 4.2294551e-39
0.0037921804 0.034393594 0.44100001 3.8621131e-39
0.005297008 0.034315601 0.44 3.8621131e-39
0.0068104346 0.034315601 0.44 3.2178297e-39
0.0083238613 0.034315601 0.44 3.2178297e-39
0.0098372884 0.034315601 0.44 4.3263128e-39
0.011350715 0.034315601 0.44 4.2341186e-39
0.01768134 0.034861531 0.447 2.8537261e-39
0.019218843 0.034861531 0.447 2.1161625e-39
0.020756347 0.034861531 0.447 8.8464392e-39
0.022293881 0.034861531 0.447 1.1055519e-38
0.023724757 0.034705549 0.44499999 1.0594541e-38
0.025255382 0.034705549 0.44499999 1.5762566e-38
0.0022753139 0.032864999 0.44100001 4.0450792e-39
0.0037921804 0.032864999 0.44100001 3.3096694e-39
0.0053090467 0.032864999 0.44100001 3.1252781e-39
0.0068259132 0.032864999 0.44100001 2.2998335e-39
0.0083427802 0.032864999 0.44100001 2.2998335e-39
0.0098596457 0.032864999 0.44100001 3.4951298e-39
0.011402309 0.032939523 0.442 4.048298e-39
0.012922644 0.032939523 0.442 4.3230842e-39
0.01768134 0.033312142 0.447 3.6784519e-39
0.019218843 0.033312142 0.447 5.1539323e-39
0.020802783 0.033386666 0.44800001 1.0132496e-38
0.022343757 0.033386666 0.44800001 9.9415918e-39
0.023884699 0.033386666 0.44800001 1.5104547e-38
0.025425643 0.033386666 0.44800001 1.4467877e-38
0.0022598356 0.031123212 0.43799999 4.7840708e-39
0.003766383 0.031123212 0.43799999 3.5837367e-39
0.0052729305 0.031123212 0.43799999 3.3071541e-39
0.0068104346 0.031265326 0.44 1.4708043e-39
0.0083427802 0.031336386 0.44100001 2.3927606e-39
0.0098820031 0.031407442 0.442 2.2998335e-39
0.011402309 0.031407442 0.442 2.9452001e-39
0.012922644 0.031407442 0.442 3.4944124e-39
0.01768134 0.03176273 0.447 4.2283887e-39
0.019218843 0.03176273 0.447 6.2581345e-39
0.020802783 0.031833787 0.44800001 8.5630252e-39
0.022343757 0.031833787 0.44800001 7.3580179e-39
0.023938013 0.031904846 0.449 7.7268004e-39
-0.00074812857 0.029402224 0.435 1.1604796e-38
0.00074810011 0.029402224 0.435 7.0907664e-39
0.0022495168 0.029469814 0.43599999 3.8639194e-39
0.0037577841 0.029537408 0.43700001 8.0029753e-39
0.0052608922 0.029537408 0.43700001 8.7405403e-39
0.0067949565 0.029672589 0.43900001 5.4237075e-39
0.0083427802 0.029807772 0.44100001 4.5939468e-39
0.0098820031 0.029875364 0.442 2.4842247e-39
0.011402309 0.029875364 0.442 2.5764204e-39
0.012922644 0.029875364 0.442 3.3096694e-39
0.014475626 0.029942954 0.44299999 3.2174738e-39
0.017720895 0.03028091 0.44800001 4.3191382e-39
0.019218843 0.030213321 0.447 4.7779723e-39
0.020756347 0.030213321 0.447 5.1467549e-39
0.022343757 0.03028091 0.44800001 5.4233474e-39
0.024097955 0.030551273 0.45199999 1.0033129e-38
0.025652656 0.030551273 0.45199999 8.6562662e-39
-0.0066866227 0.027702054 0.43200001 9.8364608e-39
-0.005200699 0.027702054 0.43200001 8.6462161e-39
-0.0037233881 0.027766177 0.433 1.2702824e-38
-0.0022391977 0.027830303 0.43399999 1.3729586e-38
-0.00074812857 0.027894428 0.435 9.4885871e-39
0.00074810011 0.027894428 0.435 1.1234891e-38
0.0022495168 0.027958553 0.43599999 9.3909782e-39
0.0037577841 0.02802268 0.43700001 6.9960162e-39
0.0052608922 0.02802268 0.43700001 6.1662555e-39
0.0067949565 0.028150931 0.43900001 4.7801331e-39
0.0083238613 0.028215054 0.44 4.2269594e-39
0.0098596457 0.028279182 0.44100001 5.1553925e-39
0.011402309 0.028343305 0.442 3.2192842e-39
0.012922644 0.028343305 0.442 3.4000728e-39
0.01444295 0.028343305 0.442 3.1234859e-39
0.017720895 0.028728055 0.44800001 5.2393036e-39
0.019218843 0.028663931 0.447 8.0062613e-39
0.020756347 0.028663931 0.447 9.2048045e-39
0.022393631 0.028792182 0.449 9.2926491e-39
0.024097955 0.028984554 0.45199999 1.0214605e-38
0.025652656 0.028984554 0.45199999 5.6062701e-39
0.027267553 0.029048681 0.45300001 7.2657872e-39
-0.0066866227 0.026204659 0.43200001 8.8324094e-39
-0.005200699 0.026204659 0.43200001 1.0124564e-38
-0.0037147889 0.026204659 0.43200001 6.1601529e-39
-0.0022391977 0.026325975 0.43399999 7.083226e-39
-0.00074640871 0.026325975 0.43399999 1.2707159e-38
0.0007463803 0.026325975 0.43399999 9.8497717e-39
0.0022443573 0.026386634 0.435 1.1601489e-38
0.003749185 0.026447292 0.43599999 3.4940606e-39
0.0052608922 0.026507953 0.43700001 3.4940606e-39
0.0067794779 0.02656861 0.43799999 4.9623664e-39
0.0083238613 0.026689928 0.44 4.2248014e-39
0.0098596457 0.026750589 0.44100001 6.9902793e-39
0.011376512 0.026750589 0.44100001 7.2668662e-39
0.012893408 0.026750589 0.44100001 8.7412802e-39
0.01444295 0.026811248 0.442 8.8334758e-39
0.015963256 0.026811248 0.442 9.3866524e-39
0.017602229 0.026993223 0.44499999 1.0216413e-38
0.019132853 0.026993223 0.44499999 1.0954707e-38
0.020756347 0.027114542 0.447 1.3812771e-38
0.022393631 0.02723586 0.449 1.1882048e-38
0.023991326 0.027296517 0.44999999 8.1942231e-39
0.025652656 0.027417835 0.45199999 6.2491423e-39
0.027267553 0.027478494 0.45300001 5.4193817e-39
0.029080223 0.027721129 0.45699999 4.2280384e-39
-0.019363333 0.023849349 0.417 1.5662771e-38
-0.017929003 0.023849349 0.417 1.2804707e-38
-0.016494686 0.023849349 0.417 1.1961632e-38
-0.015060371 0.023849349 0.417 1.1224067e-38
-0.013691394 0.023963735 0.419 1.2329357e-38
-0.012250199 0.023963735 0.419 1.4081074e-38
-0.0081536146 0.024650047 0.43099999 7.8218701e-39
-0.0066711442 0.024650047 0.43099999 7.5452832e-39
-0.005200699 0.024707241 0.43200001 7.9954363e-39
-0.0037147889 0.024707241 0.43200001 8.9173926e-39
-0.0022340384 0.024764432 0.433 7.5384462e-39
-0.00074468891 0.024764432 0.433 1.1134076e-38
0.0007463803 0.024821624 0.43399999 8.1956874e-39
0.0022391977 0.024821624 0.43399999 4.4156666e-39
0.0037405859 0.024878819 0.435 5.2382498e-39
0.0052488535 0.024936009 0.43599999 5.2382498e-39
0.0067794779 0.025050396 0.43799999 7.1696735e-39
0.0083238613 0.025164781 0.44 6.5243041e-39
0.0098596457 0.025221976 0.44100001 8.1013114e-39
0.011376512 0.025221976 0.44100001 1.0590593e-38
0.012893408 0.025221976 0.44100001 8.5597518e-39
0.014410274 0.025221976 0.44100001 1.0034882e-38
0.015963256 0.025279166 0.442 7.7271311e-39
0.017523117 0.025336359 0.44299999 9.2944568e-39
0.019132853 0.025450744 0.44499999 8.5540205e-39
0.020709913 0.025507938 0.44600001 1.0951107e-38
0.022393631 0.025679516 0.449 9.2955358e-39
0.023991326 0.025736708 0.44999999 6.7140581e-39
0.025652656 0.025851091 0.45199999 8.373239e-39
0.027327744 0.025965478 0.454 5.9761526e-39
0.029080223 0.026137056 0.45699999 6.6211563e-39
-0.019363333 0.022403926 0.417 1.2700977e-38
-0.017929003 0.022403926 0.417 1.3346346e-38
-0.016494686 0.022403926 0.417 1.2617122e-38
-0.015060371 0.022403926 0.417 1.2063948e-38
-0.013658717 0.022457652 0.41800001 1.334962e-38
-0.012250199 0.022511378 0.419 1.3718402e-38
-0.010809003 0.022511378 0.419 1.2607035e-38
-0.0094348667 0.022672556 0.42199999 1.3805578e-38
-0.0080022719 0.022726284 0.42300001 1.3722403e-38
-0.0066711442 0.023156095 0.43099999 7.6374914e-39
-0.005200699 0.023209823 0.43200001 8.9249372e-39
-0.0037147889 0.023209823 0.43200001 9.7546979e-39
-0.0022288791 0.023209823 0.43200001 7.8143171e-39
-0.0007429691 0.023209823 0.43200001 5.2346331e-39
0.00074466062 0.023263548 0.433 6.2603023e-39
0.0022391977 0.023317274 0.43399999 4.7851722e-39
0.0037405859 0.023371002 0.435 6.4331777e-39
0.0052488535 0.023424728 0.43599999 8.3692859e-39
0.0067794779 0.02353218 0.43799999 9.0175168e-39
0.0083238613 0.023639634 0.44 6.6204304e-39
0.0098596457 0.023693362 0.44100001 6.2509444e-39
0.011376512 0.023693362 0.44100001 9.5699871e-39
0.012893408 0.023693362 0.44100001 6.8944781e-39
0.014410274 0.023693362 0.44100001 8.277407e-39
0.015963256 0.023747087 0.442 5.3296874e-39
0.017523117 0.023800813 0.44299999 6.2516381e-39
0.019132853 0.023908267 0.44499999 5.8814486e-39
0.020709913 0.023961993 0.44600001 8.0019481e-39
0.022393631 0.024123173 0.449 6.7208825e-39
0.023938013 0.024123173 0.449 4.8769699e-39
0.025482398 0.024123173 0.449 8.013052e-39
0.027327744 0.024391802 0.454 5.52377e-39
-0.020797648 0.020958522 0.417 7.0971619e-39
-0.019363333 0.020958522 0.417 5.4297737e-39
-0.017929003 0.020958522 0.417 9.1175947e-39
-0.016494686 0.020958522 0.417 1.4087926e-38
-0.015060371 0.020958522 0.417 1.3626948e-38
-0.013626041 0.020958522 0.417 1.1872697e-38
-0.012220962 0.021008782 0.41800001 7.9082853e-39
-0.010809003 0.021059042 0.419 1.0213522e-38
-0.0094125103 0.021159563 0.421 9.1993703e-39
-0.007983353 0.021209823 0.42199999 1.2434538e-38
-0.0065473183 0.021260083 0.42300001 1.2526734e-38
-0.0050923508 0.021260083 0.42300001 1.0031279e-38
-0.0037061898 0.021662164 0.43099999 6.8044363e-39
-0.0022288791 0.021712426 0.43200001 6.1576796e-39
-0.0007429691 0.021712426 0.43200001 5.6045058e-39
0.00074294081 0.021712426 0.43200001 5.9754365e-39
0.0022340384 0.021762686 0.433 6.8973928e-39
0.0037319867 0.021812946 0.43399999 5.8828527e-39
0.0052608922 0.021963727 0.43700001 6.3438281e-39
0.0067949565 0.022064248 0.43900001 7.1689378e-39
0.0083238613 0.022114508 0.44 6.8001553e-39
0.0098372884 0.022114508 0.44 4.7797646e-39
0.011350715 0.022114508 0.44 7.2690466e-39
0.012893408 0.022164769 0.44100001 4.228739e-39
0.01444295 0.022215029 0.442 6.6258254e-39
0.015963256 0.022215029 0.442 2.5724701e-39
0.017562672 0.022315551 0.44400001 4.6929668e-39
0.019132853 0.022365808 0.44499999 6.2527059e-39
0.020709913 0.02241607 0.44600001 8.6497838e-39
0.022293881 0.02246633 0.447 9.8577325e-39
0.023938013 0.022566851 0.449 8.8435806e-39
0.025425643 0.02251659 0.44800001 8.8403086e-39
0.0268462 0.02241607 0.44600001 8.1027435e-39
0.028380264 0.02241607 0.44600001 5.4215495e-39
0.029914329 0.02241607 0.44600001 5.3293539e-39
-0.020598149 0.019325923 0.41299999 1.5207523e-38
-0.019177591 0.019325923 0.41299999 1.4836245e-38
-0.017886007 0.019466303 0.41600001 8.7513331e-39
-0.016455131 0.019466303 0.41600001 1.2988393e-38
-0.015024255 0.019466303 0.41600001 8.1942203e-39
-0.013626041 0.019513099 0.417 1.3629091e-38
-0.012220962 0.019559892 0.41800001 1.0310048e-38
-0.010783207 0.019559892 0.41800001 6.5274991e-39
-0.0093677947 0.019606685 0.419 5.2367757e-39
-0.007964436 0.019700274 0.421 3.5833822e-39
-0.0065473183 0.019793862 0.42300001 7.9165768e-39
-0.0050923508 0.019793862 0.42300001 7.3630177e-39
-0.0036545957 0.019887451 0.42500001 5.9800832e-39
-0.0022082413 0.020027833 0.428 8.180922e-39
-0.00073780958 0.020074626 0.42899999 9.4716608e-39
0.00073950127 0.02012142 0.43000001 7.2625754e-39
0.0022237194 0.020168213 0.43099999 6.8937929e-39
0.0037319867 0.020308595 0.43399999 3.3075128e-39
0.0052849692 0.020542568 0.43900001 4.6904458e-39
0.0067949565 0.020542568 0.43900001 5.2382148e-39
0.0083049433 0.020542568 0.43900001 5.3304104e-39
0.0098372884 0.020589361 0.44 3.4000658e-39
0.011350715 0.020589361 0.44 8.655211e-39
0.012893408 0.020636156 0.44100001 6.6243526e-39
0.01444295 0.02068295 0.442 1.1787302e-38
0.015963256 0.02068295 0.442 5.5195031e-39
0.017562672 0.020776536 0.44400001 8.6541545e-39
0.019132853 0.02082333 0.44499999 9.8486927e-39
0.020709913 0.020870125 0.44600001 9.2033233e-39
0.022244006 0.020870125 0.44600001 1.1054475e-38
0.023938013 0.021010507 0.449 8.3808018e-39
0.025425643 0.020963712 0.44800001 8.0047872e-39
0.0268462 0.020870125 0.44600001 9.5721129e-39
0.028380264 0.020870125 0.44600001 6.5293292e-39
0.029914329 0.020870125 0.44600001 4.2244384e-39
-0.027432662 0.017721074 0.40900001 1.6867766e-38
-0.026025862 0.017721074 0.40900001 1.6867766e-38
-0.024619063 0.017721074 0.40900001 1.6866321e-38
-0.02321225 0.017721074 0.40900001 1.7327299e-38
-0.021858765 0.017764401 0.41 1.6864902e-38
-0.020498401 0.01780773 0.41100001 1.225512e-38
-0.019131158 0.017851057 0.412 1.2902632e-38
-0.017757021 0.017894384 0.41299999 9.6757851e-39
-0.016376019 0.017937712 0.414 6.901294e-39
-0.014988138 0.017981039 0.41499999 1.1142286e-38
-0.013593365 0.018024366 0.41600001 1.0311103e-38
-0.012191725 0.018067695 0.417 1.0311103e-38
-0.010783207 0.018111022 0.41800001 5.2375058e-39
-0.0093454374 0.018111022 0.41800001 5.2375058e-39
-0.007964436 0.018241005 0.421 4.9627167e-39
-0.0065473183 0.018327663 0.42300001 9.1115201e-39
-0.0051043895 0.01837099 0.42399999 8.1866505e-39
-0.0036545957 0.018414319 0.42500001 1.030715e-38
-0.0022030817 0.018500973 0.42699999 1.0307869e-38
-0.00073780958 0.018587628 0.42899999 1.0307869e-38
0.00073950127 0.018630957 0.43000001 4.8694393e-39
0.0022237194 0.018674284 0.43099999 7.2665257e-39
0.0037749822 0.019020908 0.43900001 4.045445e-39
0.0052849692 0.019020908 0.43900001 6.3503357e-39
0.0067949565 0.019020908 0.43900001 9.2026269e-39
0.0083049433 0.019020908 0.43900001 8.6494531e-39
0.0098372884 0.019064235 0.44 6.7186992e-39
0.011376512 0.019107563 0.44100001 1.1881643e-38
0.012893408 0.019107563 0.44100001 7.7310603e-39
0.01444295 0.01915089 0.442 1.1972059e-38
0.015999371 0.019194217 0.44299999 4.8748273e-39
0.017562672 0.019237546 0.44400001 6.6265443e-39
0.019132853 0.019280873 0.44499999 8.5525589e-39
0.020709913 0.019324202 0.44600001 7.1696259e-39
0.022244006 0.019324202 0.44600001 1.0127127e-38
0.023938013 0.019454185 0.449 9.8505397e-39
0.025482398 0.019454185 0.449 9.4835144e-39
0.02702678 0.019454185 0.449 9.0225362e-39
0.028380264 0.019324202 0.44600001 6.9056647e-39
0.029914329 0.019324202 0.44600001 4.8773608e-39
-0.02876896 0.016263517 0.40799999 1.5484438e-38
-0.027365588 0.016263517 0.40799999 1.4193727e-38
-0.025962228 0.016263517 0.40799999 1.3271771e-38
-0.024558868 0.016263517 0.40799999 1.3178856e-38
-0.02321225 0.016303379 0.40900001 1.4008617e-38
-0.021805452 0.016303379 0.40900001 1.4100449e-38
-0.020498401 0.016383102 0.41100001 1.1242385e-38
-0.019131158 0.016422965 0.412 1.0962183e-38
-0.017757021 0.016462825 0.41299999 1.1699748e-38
-0.016376019 0.016502688 0.414 7.7335953e-39
-0.014988138 0.016542548 0.41499999 9.2087253e-39
-0.013593365 0.016582409 0.41600001 5.3350684e-39
-0.012191725 0.016622271 0.417 7.5477579e-39
-0.010783207 0.016662132 0.41800001 6.7122981e-39
-0.0093454374 0.016662132 0.41800001 6.3435156e-39
-0.0079266001 0.016701994 0.419 5.9771994e-39
-0.0065627964 0.016901301 0.42399999 1.2338694e-38
-0.0051164282 0.016941164 0.42500001 8.5590469e-39
-0.0036631944 0.016981024 0.426 1.187809e-38
-0.0022030817 0.017020887 0.42699999 6.2577281e-39
-0.00073780958 0.01710061 0.42899999 7.0874804e-39
0.00073950127 0.017140472 0.43000001 6.8012343e-39
0.0022185601 0.017140472 0.43000001 1.2332972e-38
0.003766383 0.017459365 0.43799999 7.5495894e-39
0.0052729305 0.017459365 0.43799999 5.5212855e-39
0.0067794779 0.017459365 0.43799999 8.9242323e-39
0.0083049433 0.017499227 0.43900001 7.6334935e-39
0.0098372884 0.017539088 0.44 4.8694337e-39
0.011376512 0.01757895 0.44100001 1.0308969e-38
0.012922644 0.017618811 0.442 6.8030014e-39
0.01444295 0.017618811 0.442 1.2150339e-38
0.015999371 0.017658671 0.44299999 6.258098e-39
0.017562672 0.017698534 0.44400001 7.3644456e-39
0.019132853 0.017738394 0.44499999 9.6625022e-39
0.020709913 0.017778257 0.44600001 1.012348e-38
0.022244006 0.017778257 0.44600001 1.1789162e-38
0.023938013 0.017897842 0.449 1.0959401e-38
0.025482398 0.017897842 0.449 7.9161746e-39
0.027147166 0.017977564 0.45100001 6.8098271e-39
-0.02876896 0.014849289 0.40799999 9.6807569e-39
-0.027365588 0.014849289 0.40799999 1.0596287e-38
-0.025962228 0.014849289 0.40799999 1.0965069e-38
-0.024558868 0.014849289 0.40799999 1.087359e-38
-0.02321225 0.014885685 0.40900001 1.1703351e-38
-0.021805452 0.014885685 0.40900001 1.1520041e-38
-0.020498401 0.014958477 0.41100001 1.0782476e-38
-0.019084724 0.014958477 0.41100001 1.1329549e-38
-0.017714025 0.014994871 0.412 1.0960766e-38
-0.016415574 0.015104057 0.41499999 8.7491625e-39
-0.014988138 0.015104057 0.41499999 6.9974455e-39
-0.013593365 0.015140451 0.41600001 7.2690466e-39
-0.012191725 0.015176848 0.417 7.8222204e-39
-0.010783207 0.015213243 0.41800001 9.2948576e-39
-0.0093677947 0.015249638 0.419 6.0680105e-39
-0.0079266001 0.015249638 0.419 5.3304048e-39
-0.0065937527 0.015504405 0.426 1.0032375e-38
-0.0051284665 0.015504405 0.426 7.1707021e-39
-0.0036631944 0.015504405 0.426 9.1989975e-39
-0.0022030817 0.0155408 0.42699999 5.5130136e-39
-0.00073780958 0.01561359 0.42899999 8.5554694e-39
0.00073950127 0.015649987 0.43000001 6.6197494e-39
0.0022546763 0.015904754 0.43700001 8.7402488e-39
0.0037577841 0.015904754 0.43700001 7.3644456e-39
0.0052729305 0.015941149 0.43799999 4.8751734e-39
0.0067794779 0.015941149 0.43799999 8.8316864e-39
0.0083049433 0.015977545 0.43900001 8.2785126e-39
0.0098372884 0.016013939 0.44 6.1597942e-39
0.011376512 0.016050335 0.44100001 1.2429091e-38
0.012922644 0.016086731 0.442 8.3789773e-39
0.01444295 0.016086731 0.442 1.1513629e-38
0.016035488 0.016159521 0.44400001 6.5375982e-39
0.017562672 0.016159521 0.44400001 6.1688157e-39
0.019132853 0.016195916 0.44499999 7.3619611e-39
0.020709913 0.016232312 0.44600001 6.9931786e-39
0.022244006 0.016232312 0.44600001 6.8105824e-39
0.023938013 0.016341498 0.449 7.0871693e-39
0.025539149 0.016377892 0.44999999 3.8606852e-39
0.027147166 0.016414288 0.45100001 1.4370987e-38
-0.028839473 0.013468012 0.40900001 1.1063435e-38
-0.027432662 0.013468012 0.40900001 1.1518987e-38
-0.026025862 0.013468012 0.40900001 1.0597031e-38
-0.024619063 0.013468012 0.40900001 1.1056937e-38
-0.02321225 0.013468012 0.40900001 1.0964741e-38
-0.021858765 0.01350094 0.41 1.1057994e-38
-0.020498401 0.013533871 0.41100001 1.0873602e-38
-0.019084724 0.013533871 0.41100001 1.0597016e-38
-0.017714025 0.013566799 0.412 1.0043842e-38
-0.016415574 0.013665586 0.41499999 8.9353558e-39
-0.015024255 0.013698515 0.41600001 6.3538782e-39
-0.013593365 0.013698515 0.41600001 8.1928134e-39
-0.012191725 0.013731444 0.417 9.2069653e-39
-0.010809003 0.013797302 0.419 1.1510414e-38
-0.0093677947 0.013797302 0.419 4.4113506e-39
-0.0079266001 0.013797302 0.419 3.7677665e-39
-0.0066092312 0.014060735 0.42699999 7.2711976e-39
-0.0051405053 0.014060735 0.42699999 3.8599607e-39
-0.0036717935 0.014060735 0.42699999 7.2711976e-39
-0.0022082413 0.014093664 0.428 4.3220319e-39
-0.00073780958 0.014126593 0.42899999 5.1517925e-39
0.00073950127 0.014159523 0.43000001 6.9903199e-39
0.0022546763 0.014390027 0.43700001 1.0770341e-38
0.0037577841 0.014390027 0.43700001 9.4874534e-39
0.0052729305 0.014422956 0.43799999 5.7996282e-39
0.0067949565 0.014455886 0.43900001 8.8342297e-39
0.0083238613 0.014488814 0.44 7.6356865e-39
0.0098596457 0.014521744 0.44100001 5.5140758e-39
0.011402309 0.014554673 0.442 8.4643304e-39
0.012922644 0.014554673 0.442 4.9663167e-39
0.014475626 0.014587602 0.44299999 7.2712074e-39
0.016035488 0.014620531 0.44400001 2.6679153e-39
0.017602229 0.01465346 0.44499999 2.5757197e-39
0.019132853 0.01465346 0.44499999 5.8814486e-39
0.020709913 0.01468639 0.44600001 5.6970574e-39
0.022293881 0.014719319 0.447 7.7271311e-39
0.023938013 0.014785177 0.449 9.2022612e-39
0.025539149 0.014818105 0.44999999 7.1699874e-39
0.027147166 0.014851034 0.45100001 1.6666137e-38
-0.026025862 0.012050338 0.40900001 1.1890265e-38
-0.024619063 0.012050338 0.40900001 1.0872886e-38
-0.02321225 0.012050338 0.40900001 1.0504104e-38
-0.021858765 0.0120798 0.41 1.1056937e-38
-0.012220962 0.012315503 0.41800001 8.9332623e-39
-0.010783207 0.012315503 0.41800001 9.2952079e-39
-0.0093677947 0.012344967 0.419 5.4229914e-39
-0.0079266001 0.012344967 0.419 5.889352e-39
-0.0064854049 0.012344967 0.419 1.0130351e-38
-0.005152544 0.012610133 0.428 7.7318072e-39
-0.0036803926 0.012610133 0.428 9.2991329e-39
-0.0022134006 0.012639595 0.42899999 6.7194658e-39
-0.00073952938 0.012669059 0.43000001 5.3365313e-39
0.00074981991 0.012845837 0.43599999 8.1956874e-39
0.0022546763 0.0128753 0.43700001 7.2737311e-39
0.003766383 0.012904762 0.43799999 6.1680506e-39
0.0052849692 0.012934226 0.43900001 3.4944124e-39
0.0067949565 0.012934226 0.43900001 5.2382498e-39
0.0083238613 0.012963688 0.44 5.3304455e-39
0.0098596457 0.012993152 0.44100001 3.3993483e-39
0.011402309 0.013022615 0.442 5.9808217e-39
0.012951881 0.013052077 0.44299999 6.7119128e-39
0.014508303 0.01308154 0.44400001 8.0948472e-39
0.016071605 0.013111003 0.44499999 5.9754365e-39
0.017602229 0.013111003 0.44499999 5.3300671e-39
0.019175848 0.013140467 0.44600001 7.5373308e-39
0.020709913 0.013140467 0.44600001 8.2748958e-39
0.022293881 0.013169929 0.447 8.4661016e-39
0.023938013 0.013228855 0.449 1.2522709e-38
0.025539149 0.013258317 0.44999999 8.6555376e-39
0.027147166 0.01328778 0.45100001 1.5017036e-38
-0.012220962 0.010866614 0.41800001 6.4428817e-39
-0.010783207 0.010866614 0.41800001 7.7250053e-39
-0.0051645827 0.011152577 0.42899999 8.4747855e-39
-0.0036889918 0.011152577 0.42899999 4.7869603e-39
-0.0022185601 0.011178575 0.43000001 8.7412802e-39
-0.00074984838 0.011334553 0.43599999 5.79102e-39
0.00074981991 0.011334553 0.43599999 5.1510989e-39
0.0022546763 0.011360551 0.43700001 5.7042727e-39
0.003766383 0.011386547 0.43799999 5.7931907e-39
0.0052849692 0.011412544 0.43900001 4.7790387e-39
0.0068104346 0.011438541 0.44 7.3525906e-39
0.0083238613 0.011438541 0.44 7.0760037e-39
0.0098596457 0.011464538 0.44100001 5.5122906e-39
0.011402309 0.011490534 0.442 8.7391376e-39
0.012981118 0.011542528 0.44400001 8.3754222e-39
0.014540979 0.011568524 0.44499999 9.2051829e-39
0.016071605 0.011568524 0.44499999 9.2076786e-39
0.017602229 0.011568524 0.44499999 6.0730272e-39
0.019175848 0.011594522 0.44600001 9.1115047e-39
0.020756347 0.011620518 0.447 9.019309e-39
0.022293881 0.011620518 0.447 8.189191e-39
0.023938013 0.011672512 0.449 1.1231647e-38
0.025482398 0.011672512 0.449 7.5398489e-39
0.027086971 0.011698508 0.44999999 1.5560869e-38
-0.0051766215 0.0096880887 0.43000001 9.8519564e-39
-0.0036975907 0.0096880887 0.43000001 7.45487e-39
-0.0022185601 0.0096880887 0.43000001 5.0531047e-39
-0.0007515683 0.0098458026 0.43700001 5.4218872e-39
0.00075153972 0.0098458026 0.43700001 6.9020774e-39
0.0022598356 0.0098683322 0.43799999 8.6537943e-39
0.0037749822 0.0098908637 0.43900001 8.0991702e-39
0.005297008 0.0099133933 0.44 6.163062e-39
0.0068104346 0.0099133933 0.44 9.017151e-39
0.0083427802 0.0099359248 0.44100001 9.2015423e-39
0.0098820031 0.0099584544 0.442 6.896667e-39
0.011453903 0.010003516 0.44400001 9.6625359e-39
0.012981118 0.010003516 0.44400001 8.8414352e-39
0.014540979 0.010026045 0.44499999 7.5506964e-39
0.016071605 0.010026045 0.44499999 8.2832111e-39
0.017602229 0.010026045 0.44499999 5.0563641e-39
0.019175848 0.010048577 0.44600001 7.9043547e-39
0.020756347 0.010071106 0.447 7.4433765e-39
0.022343757 0.010093637 0.44800001 6.5232153e-39
0.023938013 0.010116167 0.449 9.6578667e-39
0.025482398 0.010116167 0.449 5.1485597e-39
0.02702678 0.010116167 0.449 1.3630558e-38
-0.0037835813 0.0083882678 0.44 7.0018204e-39
-0.0022701544 0.0083882678 0.44 6.7108338e-39
-0.00075328804 0.0083501395 0.43799999 7.2640075e-39
0.0007532594 0.0083501395 0.43799999 8.1942427e-39
0.0022649951 0.0083692037 0.43900001 8.7474165e-39
0.0037749822 0.0083692037 0.43900001 8.2853593e-39
0.005297008 0.0083882678 0.44 4.7819254e-39
0.0068259132 0.008407332 0.44100001 7.8139219e-39
0.0083616972 0.0084263962 0.442 7.537335e-39
0.0098820031 0.0084263962 0.442 6.7987106e-39
0.011453903 0.0084645245 0.44400001 7.8128625e-39
0.012981118 0.0084645245 0.44400001 7.4545323e-39
0.014540979 0.0084835887 0.44499999 5.4262284e-39
0.016071605 0.0084835887 0.44499999 7.2708445e-39
0.017602229 0.0084835887 0.44499999 3.4908251e-39
0.019175848 0.0085026538 0.44600001 4.5046253e-39
0.020756347 0.008521717 0.447 4.4124296e-39
0.022393631 0.0085598463 0.449 3.4915425e-39
0.023938013 0.0085598463 0.449 7.6403459e-39
0.025482398 0.0085598463 0.449 7.9172677e-39
0.02702678 0.0085598463 0.449 1.483194e-38
-0.0037835813 0.00686312 0.44 2.6700705e-39
-0.0022701544 0.00686312 0.44 5.8807003e-39
-0.00075672776 0.00686312 0.44 7.6324117e-39
0.00075669901 0.00686312 0.44 6.9020774e-39
0.0022701544 0.00686312 0.44 5.3347517e-39
0.0037835813 0.00686312 0.44 7.3630401e-39
0.005297008 0.00686312 0.44 3.9518018e-39
0.0068104346 0.00686312 0.44 6.1587362e-39
0.0083616972 0.0068943165 0.442 6.2509318e-39
0.0098820031 0.0068943165 0.442 4.4102562e-39
0.011453903 0.0069255126 0.44400001 3.8570908e-39
0.012981118 0.0069255126 0.44400001 5.7103963e-39
0.014508303 0.0069255126 0.44400001 2.4835493e-39
0.016071605 0.0069411104 0.44499999 8.011697e-39
0.017602229 0.0069411104 0.44499999 3.2175242e-39
0.019175848 0.0069567086 0.44600001 7.4480457e-39
0.020756347 0.0069723064 0.447 8.5543932e-39
0.022343757 0.0069879042 0.44800001 8.1870204e-39
0.023938013 0.0070035025 0.449 1.2981193e-38
0.025482398 0.0070035025 0.449 9.5800288e-39
0.02702678 0.0070035025 0.449 1.4282006e-38
-0.0037921804 0.0053501264 0.44100001 6.4465335e-40
-0.0022701544 0.0053379945 0.44 2.6639469e-39
-0.00075672776 0.0053379945 0.44 3.4015119e-39
0.00075669901 0.0053379945 0.44 6.2567332e-39
0.0022701544 0.0053379945 0.44 3.2142774e-39
0.0037835813 0.0053379945 0.44 7.4563624e-39
0.005297008 0.0053379945 0.44 2.9387765e-39
0.0068104346 0.0053379945 0.44 6.6211563e-39
0.0083616972 0.0053622583 0.442 7.2665257e-39
0.0098820031 0.0053622583 0.442 8.0026292e-39
0.011402309 0.0053622583 0.442 6.4353034e-39
0.012981118 0.005386522 0.44400001 1.087262e-38
0.014508303 0.005386522 0.44400001 7.1847949e-39
0.016071605 0.0053986534 0.44499999 1.0495228e-38
0.017602229 0.0053986534 0.44499999 7.8215548e-39
0.019175848 0.0054107853 0.44600001 7.1757355e-39
0.020709913 0.0054107853 0.44600001 9.3884307e-39
0.022293881 0.0054229172 0.447 8.2781497e-39
0.023884699 0.0054350486 0.44800001 9.3844972e-39
0.025482398 0.0054471809 0.449 7.9151195e-39
0.02702678 0.0054471809 0.449 1.46454e-38
-0.0022753139 0.0038215127 0.44100001 6.0676322e-39
-0.00075672776 0.003812847 0.44 7.358371e-39
0.00075669901 0.003812847 0.44 1.0871541e-38
0.0022701544 0.003812847 0.44 7.3681072e-39
0.0037835813 0.003812847 0.44 1.1881357e-38
0.005297008 0.003812847 0.44 7.9169454e-39
0.0068104346 0.003812847 0.44 7.8196728e-39
0.0083238613 0.003812847 0.44 9.6635854e-39
0.0098820031 0.0038301782 0.442 8.4650352e-39
0.011402309 0.0038301782 0.442 6.0679587e-39
0.012951881 0.0038388437 0.44299999 9.211619e-39
0.014508303 0.0038475094 0.44400001 6.5379458e-39
0.016035488 0.0038475094 0.44400001 9.5739528e-39
0.017602229 0.0038561746 0.44499999 6.531497e-39
0.019175848 0.0038648406 0.44600001 5.6991817e-39
0.020709913 0.0038648406 0.44600001 8.0040641e-39
0.022293881 0.0038735059 0.447 8.1862875e-39
0.023884699 0.0038821714 0.44800001 1.1413135e-38
0.025482398 0.0038908371 0.449 1.0317613e-38
0.027147166 0.0039081681 0.45100001 1.3267874e-38
0.028889326 0.0039341645 0.454 1.4934954e-38
-0.0022753139 0.0022928989 0.44100001 6.0719117e-39
-0.00075672776 0.0022876994 0.44 5.6109336e-39
0.00075669901 0.0022876994 0.44 9.5804043e-39
0.0022701544 0.0022876994 0.44 6.9989267e-39
0.0037835813 0.0022876994 0.44 8.6504999e-39
0.005297008 0.0022876994 0.44 8.5583043e-39
0.0068104346 0.0022876994 0.44 6.3395191e-39
0.0083238613 0.0022876994 0.44 8.8287941e-39
0.0098596457 0.0022928989 0.44100001 8.5557735e-39
0.011402309 0.0022980981 0.442 6.2509122e-39
0.012951881 0.0023032974 0.44299999 9.3949313e-39
0.014508303 0.0023084967 0.44400001 9.9481051e-39
0.016035488 0.0023084967 0.44400001 1.0315809e-38
0.017602229 0.0023136961 0.44499999 1.0223613e-38
0.019132853 0.0023136961 0.44499999 6.8995186e-39
0.020709913 0.0023188954 0.44600001 9.0200181e-39
0.022293881 0.0023240948 0.447 8.4654346e-39
0.023884699 0.0023292939 0.44800001 8.9264127e-39
0.025482398 0.0023344934 0.449 6.5347116e-39
0.027147166 0.0023448919 0.45100001 1.1974254e-38
0.028889326 0.0023604899 0.454 1.4934225e-38
-0.0022753139 0.00076430693 0.44100001 5.0538235e-39
-0.00075672776 0.00076257373 0.44 5.7913886e-39
0.00075669901 0.00076257373 0.44 8.8421457e-39
0.0022701544 0.00076257373 0.44 1.0132884e-38
0.0037835813 0.00076257373 0.44 9.9444785e-39
0.005297008 0.00076257373 0.44 1.2341565e-38
0.0068104346 0.00076257373 0.44 6.9920632e-39
0.0083238613 0.00076257373 0.44 1.0126715e-38
0.0098372884 0.00076257373 0.44 9.7564873e-39
0.011402309 0.00076604 0.442 8.1891616e-39
0.012922644 0.00076604 0.442 7.8247469e-39
0.014475626 0.00076777308 0.44299999 1.0314029e-38
0.016035488 0.00076950627 0.44400001 6.7161881e-39
0.017602229 0.00077123934 0.44499999 8.8366764e-39
0.019132853 0.00077123934 0.44499999 3.4000658e-39
0.020709913 0.00077297253 0.44600001 4.690799e-39
0.022293881 0.00077470561 0.447 4.8709163e-39
0.023831384 0.00077470561 0.447 5.0553075e-39
0.025482398 0.00077817187 0.449 6.6247618e-39
0.02720736 0.00078337116 0.45199999 1.1972108e-38
0.028825695 0.00078510429 0.45300001 1.502606e-38
-0.0022804732 -0.00076604 0.442 4.6922787e-39
-0.00075844763 -0.00076430693 0.44100001 4.87667e-39
0.00075669901 -0.00076257373 0.44 7.64182e-39
0.0022701544 -0.00076257373 0.44 1.059208e-38
0.0037835813 -0.00076257373 0.44 6.5361045e-39
0.005297008 -0.00076257373 0.44 1.0039526e-38
0.0068104346 -0.00076257373 0.44 3.9532493e-39
0.0083238613 -0.00076257373 0.44 4.5986187e-39
0.0098372884 -0.00076257373 0.44 5.6977552e-39
0.011376512 -0.00076430693 0.44100001 5.513364e-39
0.012922644 -0.00076604 0.442 3.3082303e-39
0.01444295 -0.00076604 0.442 6.5350773e-39
0.015999371 -0.00076777308 0.44299999 4.2290963e-39
0.017562672 -0.00076950627 0.44400001 7.548132e-39
0.019132853 -0.00077123934 0.44499999 4.2262265e-39
0.020709913 -0.00077297253 0.44600001 6.1623291e-39
0.022293881 -0.00077470561 0.447 6.6179319e-39
0.023831384 -0.00077470561 0.447 7.4476925e-39
0.025482398 -0.00077817187 0.449 8.1981832e-39
0.027147166 -0.00078163808 0.45100001 1.1056248e-38
0.028825695 -0.00078510429 0.45300001 1.5117537e-38
-0.00075844763 -0.0022928989 0.44100001 4.5089385e-39
0.00075841881 -0.0022928989 0.44100001 3.4922684e-39
0.0022701544 -0.0022876994 0.44 7.5488761e-39
0.0037835813 -0.0022876994 0.44 5.1463751e-39
0.005297008 -0.0022876994 0.44 8.3732165e-39
0.0068104346 -0.0022876994 0.44 3.4001204e-39
0.0083238613 -0.0022876994 0.44 3.8610986e-39
0.0098372884 -0.0022876994 0.44 7.4448087e-39
0.011376512 -0.0022928989 0.44100001 6.7994393e-39
0.012922644 -0.0022980981 0.442 5.1456576e-39
0.01444295 -0.0022980981 0.442 9.7554321e-39
0.015999371 -0.0023032974 0.44299999 6.8941194e-39
0.017562672 -0.0023084967 0.44400001 1.0858529e-38
0.019132853 -0.0023136961 0.44499999 5.0552627e-39
0.020709913 -0.0023188954 0.44600001 7.4523491e-39
0.022244006 -0.0023188954 0.44600001 7.8222008e-39
0.023938013 -0.0023344934 0.449 8.4675702e-39
0.025482398 -0.0023344934 0.449 9.3992627e-39
0.027147166 -0.0023448919 0.45100001 9.3070671e-39
0.028825695 -0.0023552906 0.45300001 1.5025344e-38
-0.00076188723 -0.0038388437 0.44299999 6.993882e-39
0.00075841881 -0.0038215127 0.44100001 4.9616279e-39
0.0022701544 -0.003812847 0.44 1.0124578e-38
0.0037835813 -0.003812847 0.44 7.4437297e-39
0.0052849692 -0.0038041815 0.43900001 1.0854968e-38
0.0067949565 -0.0038041815 0.43900001 6.8977586e-39
0.0083238613 -0.003812847 0.44 6.3445848e-39
0.0098372884 -0.003812847 0.44 9.1061349e-39
0.011376512 -0.0038215127 0.44100001 9.1061349e-39
0.012922644 -0.0038301782 0.442 6.7161881e-39
0.01444295 -0.0038301782 0.442 1.2524504e-38
0.016035488 -0.0038475094 0.44400001 8.2871418e-39
0.017562672 -0.0038475094 0.44400001 1.0960815e-38
0.019132853 -0.0038561746 0.44499999 5.4298129e-39
0.020709913 -0.0038648406 0.44600001 6.0751824e-39
0.022244006 -0.0038648406 0.44600001 7.3550975e-39
0.023938013 -0.0038908371 0.449 7.0785107e-39
0.025482398 -0.0038908371 0.449 7.6360397e-39
0.027147166 -0.0039081681 0.45100001 1.0217517e-38
0.02895296 -0.0039428305 0.45500001 1.4933509e-38
0.030652124 -0.0039601615 0.45699999 1.4380335e-38
-0.00076360709 -0.0053864997 0.44400001 1.1328509e-38
0.0007601385 -0.0053622364 0.442 5.7996268e-39
0.0022701544 -0.0053379727 0.44 1.2161114e-38
0.0037835813 -0.0053379727 0.44 9.2998742e-39
0.0052849692 -0.0053258413 0.43900001 1.1051591e-38
0.0067949565 -0.0053258413 0.43900001 8.8403086e-39
0.0083238613 -0.0053379727 0.44 5.7056571e-39
0.0098372884 -0.0053379727 0.44 8.7413306e-39
0.011376512 -0.0053501045 0.44100001 7.91157e-39
0.012922644 -0.0053622364 0.442 5.5140758e-39
0.01444295 -0.0053622364 0.442 9.3862867e-39
0.016035488 -0.0053864997 0.44400001 7.8160757e-39
0.017562672 -0.0053864997 0.44400001 9.2912058e-39
0.019132853 -0.0053986316 0.44499999 5.4226061e-39
0.020709913 -0.0054107634 0.44600001 5.9757798e-39
0.022293881 -0.0054228953 0.447 6.2505941e-39
0.023938013 -0.0054471586 0.449 5.1442465e-39
0.025539149 -0.0054592905 0.44999999 4.1452062e-39
0.02720736 -0.0054835533 0.45199999 6.6344882e-39
0.02895296 -0.0055199489 0.45500001 1.4379975e-38
0.030585052 -0.0055320808 0.456 1.4379975e-38
-0.00076532696 -0.0069411104 0.44499999 9.1215744e-39
0.00076357805 -0.0069255126 0.44400001 4.8744559e-39
0.0022701544 -0.00686312 0.44 8.6544684e-39
0.0037835813 -0.00686312 0.44 8.6451567e-39
0.005297008 -0.00686312 0.44 8.091983e-39
0.0068104346 -0.00686312 0.44 8.00156e-39
0.0083238613 -0.00686312 0.44 5.8810605e-39
0.0098372884 -0.00686312 0.44 6.707622e-39
0.011376512 -0.0068787187 0.44100001 6.8920132e-39
0.012893408 -0.0068787187 0.44100001 4.3187865e-39
0.01444295 -0.0068943165 0.442 6.5314816e-39
0.016035488 -0.0069255126 0.44400001 4.1394399e-39
0.017562672 -0.0069255126 0.44400001 5.7989612e-39
0.019132853 -0.0069411104 0.44499999 1.4718805e-39
0.020709913 -0.0069567086 0.44600001 3.1314018e-39
0.022293881 -0.0069723064 0.447 6.2516507e-39
0.023938013 -0.0070035025 0.449 7.8189764e-39
0.025539149 -0.0070191002 0.44999999 8.7531576e-39
0.027267553 -0.0070658941 0.45300001 1.0228288e-38
0.02895296 -0.0070970901 0.45500001 1.456401e-38
0.030585052 -0.0071126879 0.456 1.4471815e-38
0.00076357805 -0.0084645031 0.44400001 3.4000728e-39
0.0022753139 -0.0084073106 0.44100001 6.6269198e-39
0.0037835813 -0.0083882455 0.44 6.8134761e-39
0.005297008 -0.0083882455 0.44 3.4944334e-39
0.0068104346 -0.0083882455 0.44 6.1677619e-39
0.0083238613 -0.0083882455 0.44 2.3877411e-39
0.0098372884 -0.0083882455 0.44 5.4236977e-39
0.011376512 -0.0084073106 0.44100001 5.4236977e-39
0.012893408 -0.0084073106 0.44100001 4.0425555e-39
0.01444295 -0.0084263748 0.442 7.8225707e-39
0.016035488 -0.0084645031 0.44400001 8.1956973e-39
0.017562672 -0.0084645031 0.44400001 9.4864361e-39
0.019132853 -0.0084835673 0.44499999 6.8138292e-39
0.020709913 -0.0085026314 0.44600001 7.367003e-39
0.022293881 -0.0085216956 0.447 8.6498006e-39
0.023938013 -0.008559824 0.449 8.2810181e-39
0.025595903 -0.0085979514 0.45100001 8.3825744e-39
0.027327744 -0.0086551439 0.454 7.5528138e-39
0.02895296 -0.008674209 0.45500001 1.4286707e-38
0.030585052 -0.0086932732 0.456 1.4471099e-38
0.00076357805 -0.010003516 0.44400001 6.4346294e-39
0.0022804732 -0.0099584544 0.442 8.0941508e-39
0.0037835813 -0.0099133933 0.44 9.7651964e-39
0.005297008 -0.0099133933 0.44 5.3398061e-39
0.0068104346 -0.0099133933 0.44 1.059207e-38
0.0083238613 -0.0099133933 0.44 4.7837457e-39
0.0098372884 -0.0099133933 0.44 9.571394e-39
0.011376512 -0.0099359248 0.44100001 9.9401765e-39
0.012922644 -0.0099584544 0.442 7.7271171e-39
0.01444295 -0.0099584544 0.442 1.104616e-38
0.016035488 -0.010003516 0.44400001 9.21201e-39
0.017602229 -0.010026045 0.44499999 9.0276187e-39
0.019175848 -0.010048577 0.44600001 5.5201743e-39
0.020709913 -0.010048577 0.44600001 6.2577351e-39
0.022393631 -0.010116167 0.449 7.2639781e-39
0.023991326 -0.010138698 0.44999999 7.4483694e-39
0.025709411 -0.010206289 0.45300001 7.2708669e-39
0.027267553 -0.010206289 0.45300001 8.8381926e-39
0.02895296 -0.01025135 0.45500001 1.3918281e-38
0.030585052 -0.01027388 0.456 1.456365e-38
0.0037835813 -0.011438519 0.44 1.1886049e-38
0.005297008 -0.011438519 0.44 6.3543112e-39
0.0068104346 -0.011438519 0.44 1.0685695e-38
0.0083238613 -0.011438519 0.44 4.1398056e-39
0.0098372884 -0.011438519 0.44 8.1866379e-39
0.011376512 -0.011464517 0.44100001 7.6334669e-39
0.012922644 -0.011490513 0.442 5.1456576e-39
0.01444295 -0.011490513 0.442 6.8973676e-39
0.016035488 -0.011542507 0.44400001 7.3605416e-39
0.017602229 -0.011568503 0.44499999 8.743476e-39
0.019132853 -0.011568503 0.44499999 6.0711873e-39
0.020709913 -0.011594499 0.44600001 7.6385088e-39
0.022293881 -0.011620495 0.447 7.5477579e-39
0.024577782 -0.011984448 0.461 6.9023885e-39
0.025709411 -0.011776475 0.45300001 1.105915e-38
0.027267553 -0.011776475 0.45300001 1.5300149e-38
0.02895296 -0.011828468 0.45500001 1.3922228e-38
0.0037835813 -0.012963667 0.44 9.1147725e-39
0.005297008 -0.012963667 0.44 5.242556e-39
0.0068104346 -0.012963667 0.44 9.481006e-39
0.0083238613 -0.012963667 0.44 6.0697677e-39
0.0098372884 -0.012963667 0.44 8.5575812e-39
0.011376512 -0.01299313 0.44100001 8.5575812e-39
0.012922644 -0.013022592 0.442 7.5481082e-39
0.01444295 -0.013022592 0.442 9.1154339e-39
0.016035488 -0.013081519 0.44400001 8.202139e-39
0.017602229 -0.013110981 0.44499999 6.0816395e-39
0.019132853 -0.013110981 0.44499999 7.001777e-39
0.020709913 -0.013140445 0.44600001 7.001777e-39
0.022293881 -0.013169907 0.447 6.7251873e-39
0.024577782 -0.013582387 0.461 5.0656659e-39
0.02616344 -0.013582387 0.461 1.0510267e-38
0.027869485 -0.013641313 0.463 1.4290288e-38
0.029462023 -0.013641313 0.463 1.3737114e-38
0.0038609728 -0.014785177 0.449 1.0411257e-38
0.0054053562 -0.014785177 0.449 7.6453877e-39
0.0069497391 -0.014785177 0.449 8.8453532e-39
0.0083238613 -0.014488814 0.44 7.0936363e-39
0.0098372884 -0.014488814 0.44 6.7248271e-39
0.011402309 -0.014554673 0.442 6.4482402e-39
0.012922644 -0.014554673 0.442 6.4482374e-39
0.014769713 -0.014883962 0.45199999 6.81702e-39
0.016324416 -0.014883962 0.45199999 6.3589229e-39
0.017602229 -0.01465346 0.44499999 5.8979447e-39
0.019132853 -0.01465346 0.44499999 6.1741855e-39
0.021406434 -0.015180325 0.461 6.4507724e-39
0.022992123 -0.015180325 0.461 6.1745316e-39
0.024577782 -0.015180325 0.461 5.7135535e-39
0.026220195 -0.015213255 0.46200001 9.8656204e-39
0.027869485 -0.015246184 0.463 1.4014424e-38
0.029462023 -0.015246184 0.463 1.3644562e-38
0.0023114302 -0.016305102 0.44800001 6.1763631e-39
0.0038523737 -0.016305102 0.44800001 7.005028e-39
0.0054053562 -0.016341498 0.449 6.8206367e-39
0.0069497391 -0.016341498 0.449 7.1876101e-39
0.0084941229 -0.016341498 0.449 7.0032189e-39
0.010038505 -0.016341498 0.449 6.082336e-39
0.011634483 -0.016414288 0.45100001 6.082336e-39
0.013185775 -0.016414288 0.45100001 6.1745456e-39
0.014769713 -0.016450683 0.45199999 6.2667413e-39
0.016324416 -0.016450683 0.45199999 5.9908466e-39
0.017918674 -0.016487079 0.45300001 5.6220641e-39
0.01969179 -0.016669055 0.458 5.7132045e-39
0.021359999 -0.016741846 0.46000001 6.2663783e-39
0.022992123 -0.016778242 0.461 6.5447589e-39
0.024577782 -0.016778242 0.461 6.3603676e-39
0.026220195 -0.016814638 0.46200001 9.4035633e-39
0.027869485 -0.016851032 0.463 1.4289932e-38
0.029462023 -0.016851032 0.463 1.3645278e-38
0.0023114302 -0.01785798 0.44800001 6.9153365e-39
0.0038523737 -0.01785798 0.44800001 7.6493016e-39
0.0054053562 -0.017897842 0.449 7.280519e-39
0.0069497391 -0.017897842 0.449 7.2798002e-39
0.0084941229 -0.017897842 0.449 7.1876045e-39
0.010038505 -0.017897842 0.449 6.5447589e-39
0.011634483 -0.017977564 0.45100001 6.5447589e-39
0.013185775 -0.017977564 0.45100001 6.7288012e-39
0.014769713 -0.018017424 0.45199999 6.3600187e-39
0.016324416 -0.018017424 0.45199999 5.1607328e-39
0.017958228 -0.018097149 0.454 5.8982979e-39
0.01969179 -0.018256595 0.458 5.9915921e-39
0.021359999 -0.018336318 0.46000001 6.268179e-39
0.022992123 -0.018376179 0.461 6.7291501e-39
0.024577782 -0.018376179 0.461 6.5447589e-39
0.026220195 -0.018416042 0.46200001 8.8500364e-39
0.027869485 -0.018455902 0.463 1.4289579e-38
0.029589288 -0.018535627 0.465 1.346089e-38
0.0023165895 -0.019454163 0.449 6.4536535e-39
0.0038609728 -0.019454163 0.449 7.6493016e-39
0.0054053562 -0.019454163 0.449 7.3727147e-39
0.0069497391 -0.019454163 0.449 7.0050083e-39
0.0084941229 -0.019454163 0.449 6.8206171e-39
0.010038505 -0.019454163 0.449 6.6369545e-39
0.011634483 -0.019540818 0.45100001 6.7291501e-39
0.013185775 -0.019540818 0.45100001 6.9146106e-39
0.014769713 -0.019584145 0.45199999 5.070698e-39
0.016324416 -0.019584145 0.45199999 4.9767367e-39
0.017958228 -0.019670801 0.454 6.1752799e-39
0.019734787 -0.01988744 0.45899999 6.4529192e-39
0.021359999 -0.019930769 0.46000001 6.7295061e-39
0.022992123 -0.019974096 0.461 7.0975725e-39
0.024577782 -0.019974096 0.461 6.72879e-39
0.02616344 -0.019974096 0.461 8.1132e-39
0.027869485 -0.020060752 0.463 1.3829329e-38
0.029589288 -0.020147407 0.465 1.3369057e-38
0.031255778 -0.020190734 0.46599999 1.3276862e-38
0.0023165895 -0.021010507 0.449 6.5469309e-39
0.0038609728 -0.021010507 0.449 7.3719958e-39
0.0054053562 -0.021010507 0.449 6.7266264e-39
0.0069497391 -0.021010507 0.449 6.8199038e-39
0.0085130399 -0.0210573 0.44999999 6.5433169e-39
0.010060863 -0.0210573 0.44999999 6.9128127e-39
0.011634483 -0.021104094 0.45100001 7.2815952e-39
0.013185775 -0.021104094 0.45100001 7.4674116e-39
0.014769713 -0.021150887 0.45199999 3.2264393e-39
0.016360532 -0.021197682 0.45300001 5.8054002e-39
0.01811645 -0.021431653 0.458 7.0039434e-39
0.019734787 -0.021478446 0.45899999 6.8235038e-39
0.021359999 -0.02152524 0.46000001 7.007895e-39
0.022942247 -0.02152524 0.46000001 7.3748727e-39
0.024577782 -0.021572033 0.461 6.6373076e-39
0.02616344 -0.021572033 0.461 8.5730992e-39
0.027869485 -0.021665622 0.463 1.4104837e-38
0.029525653 -0.021712415 0.46399999 1.3368338e-38
0.031188704 -0.02175921 0.465 1.3368338e-38
0.0023165895 -0.022566829 0.449 6.5476357e-39
0.0038609728 -0.022566829 0.449 7.2790771e-39
0.0054053562 -0.022566829 0.449 6.9102946e-39
0.0069497391 -0.022566829 0.449 6.5433169e-39
0.0085130399 -0.022617089 0.44999999 7.280882e-39
0.010060863 -0.022617089 0.44999999 7.1897681e-39
0.011634483 -0.022667348 0.45100001 7.466355e-39
0.013185775 -0.022667348 0.45100001 5.4391078e-39
0.014769713 -0.022717606 0.45199999 3.134245e-39
0.016360532 -0.022767868 0.45300001 5.807547e-39
0.01811645 -0.023019169 0.458 6.9138945e-39
0.019734787 -0.023069428 0.45899999 7.1908471e-39
0.021359999 -0.02311969 0.46000001 7.3752384e-39
0.022942247 -0.02311969 0.46000001 8.2042844e-39
0.024577782 -0.02316995 0.461 8.0198932e-39
0.02616344 -0.02316995 0.461 9.2195476e-39
0.027869485 -0.023270471 0.463 1.3552742e-38
0.029525653 -0.023320729 0.46399999 1.3184303e-38
0.031188704 -0.023370991 0.465 1.3276499e-38
0.0023165895 -0.024123173 0.449 7.7447272e-39
0.0038609728 -0.024123173 0.449 7.8336928e-39
0.0054053562 -0.024123173 0.449 7.4649103e-39
0.0069497391 -0.024123173 0.449 7.3748727e-39
0.0085130399 -0.024176897 0.44999999 7.3748727e-39
0.01008322 -0.024230624 0.45100001 7.4670683e-39
0.011634483 -0.024230624 0.45100001 7.4670683e-39
0.013185775 -0.024230624 0.45100001 4.6079514e-39
0.014769713 -0.02428435 0.45199999 2.7640388e-39
0.016360532 -0.024338078 0.45300001 5.9004488e-39
0.018156007 -0.024660435 0.45899999 6.7302095e-39
0.01977778 -0.024714163 0.46000001 7.0064559e-39
0.021359999 -0.024714163 0.46000001 7.2830428e-39
0.022942247 -0.024714163 0.46000001 7.6514624e-39
0.024577782 -0.024767889 0.461 7.743658e-39
0.02616344 -0.024767889 0.461 9.7734304e-39
0.027869485 -0.024875341 0.463 1.3737842e-38
0.029525653 -0.024929067 0.46399999 1.3184303e-38
0.031188704 -0.024982795 0.465 1.3184303e-38
0.00077217695 -0.025679493 0.449 7.6521756e-39
0.0023165895 -0.025679493 0.449 7.7443713e-39
0.0038609728 -0.025679493 0.449 7.9262514e-39
0.0054053562 -0.025679493 0.449 7.8340558e-39
0.0069652172 -0.025736686 0.44999999 7.5592667e-39
0.0085130399 -0.025736686 0.44999999 7.5592667e-39
0.01008322 -0.025793878 0.45100001 7.3759447e-39
0.011634483 -0.025793878 0.45100001 6.3617927e-39
0.013215011 -0.025851069 0.45199999 5.4384155e-39
0.014769713 -0.025851069 0.45199999 2.7647507e-39
0.016613342 -0.026308613 0.46000001 6.1766798e-39
0.018195562 -0.026308613 0.46000001 6.7298536e-39
0.01977778 -0.026308613 0.46000001 7.1908471e-39
0.021359999 -0.026308613 0.46000001 7.1908471e-39
0.022942247 -0.026308613 0.46000001 7.743658e-39
0.024577782 -0.026365804 0.461 7.3748755e-39
0.026220195 -0.026422998 0.46200001 1.0695737e-38
0.027869485 -0.02648019 0.463 1.336941e-38
0.029462023 -0.02648019 0.463 1.309247e-38
0.031188704 -0.026594575 0.465 1.3000275e-38
-0.00077220629 -0.027235838 0.449 1.2078328e-38
0.00077217695 -0.027235838 0.449 7.8358508e-39
0.0023165895 -0.027235838 0.449 8.1124377e-39
0.0038609728 -0.027235838 0.449 7.9276933e-39
0.0054053562 -0.027235838 0.449 7.6511064e-39
0.0069652172 -0.027296497 0.44999999 7.6514624e-39
0.0085130399 -0.027296497 0.44999999 7.6514624e-39
0.01008322 -0.027357154 0.45100001 7.4681347e-39
0.011634483 -0.027357154 0.45100001 5.6242221e-39
0.013215011 -0.027417812 0.45199999 6.4511213e-39
0.014802391 -0.027478471 0.45300001 3.685258e-39
0.016649459 -0.027963743 0.461 5.7167905e-39
0.018195562 -0.027903084 0.46000001 6.4543555e-39
0.01977778 -0.027903084 0.46000001 6.9156994e-39
0.021359999 -0.027903084 0.46000001 7.1922863e-39
0.022992123 -0.027963743 0.461 7.6514624e-39
0.024577782 -0.027963743 0.461 8.0202449e-39
0.02616344 -0.027963743 0.461 1.1248182e-38
0.027869485 -0.02808506 0.463 1.3553073e-38
0.029462023 -0.02808506 0.463 1.2908442e-38
0.031188704 -0.028206378 0.465 1.2908442e-38
-0.00077220629 -0.028792182 0.449 1.0879785e-38
0.00077217695 -0.028792182 0.449 7.83729e-39
0.0023217488 -0.028856305 0.44999999 7.9294856e-39
0.0038695715 -0.028856305 0.44999999 8.019889e-39
0.0054173945 -0.028856305 0.44999999 7.8354977e-39
0.0069652172 -0.028856305 0.44999999 7.9276933e-39
0.0085319579 -0.028920431 0.45100001 7.8354977e-39
0.01008322 -0.028920431 0.45100001 7.4681347e-39
0.01166028 -0.028984554 0.45199999 5.2554396e-39
0.013244249 -0.029048681 0.45300001 6.3600187e-39
0.015063801 -0.029561682 0.461 3.9629323e-39
0.016649459 -0.029561682 0.461 5.2540243e-39
0.018235117 -0.029561682 0.461 7.0057412e-39
0.019820776 -0.029561682 0.461 7.283047e-39
0.021406434 -0.029561682 0.461 7.4674382e-39
0.022992123 -0.029561682 0.461 7.5592667e-39
0.024577782 -0.029561682 0.461 8.1124405e-39
0.02616344 -0.029561682 0.461 1.0970519e-38
0.027809294 -0.029625807 0.46200001 1.3828584e-38
0.029398391 -0.029625807 0.46200001 1.2999556e-38
0.03105456 -0.029689932 0.463 1.2999556e-38
-0.00077220629 -0.030348502 0.449 1.106346e-38
0.00077217695 -0.030348502 0.449 8.1120888e-39
0.0023217488 -0.030416094 0.44999999 8.29648e-39
0.0038695715 -0.030416094 0.44999999 8.2950367e-39
0.0054173945 -0.030416094 0.44999999 8.2028411e-39
0.0069652172 -0.030416094 0.44999999 7.9276933e-39
0.0085319579 -0.030483684 0.45100001 7.7433021e-39
0.010105577 -0.030551273 0.45199999 6.2685279e-39
0.011686077 -0.030618867 0.45300001 6.0841367e-39
0.013273484 -0.030686457 0.454 6.6369545e-39
0.015031124 -0.031092007 0.46000001 5.0696288e-39
0.016649459 -0.031159597 0.461 4.6104485e-39
0.018235117 -0.031159597 0.461 7.0075349e-39
