# .PCD v0.7 - Point Cloud Data file format
VERSION 0.7
FIELDS x y z rgb
SIZE 4 4 4 4
TYPE F F F F
COUNT 1 1 1 1
WIDTH 982
HEIGHT 1
VIEWPOINT 0 0 0 1 0 0 0
POINTS 982
DATA ascii
0.024097955 0.010183758 0.45199999 3.6734198e-39
0.025709411 0.010206289 0.45300001 8.6624614e-39
0.027327744 0.010228819 0.454 1.502396e-38
0.028889326 0.010228819 0.454 1.4657994e-38
0.030450907 0.010228819 0.454 1.4289211e-38
0.032982487 0.010048577 0.44600001 8.9393355e-39
0.034516551 0.010048577 0.44600001 1.0312513e-38
0.035969783 0.010026045 0.44499999 8.5607958e-39
0.037331868 0.009980985 0.44299999 8.2730868e-39
0.0387679 0.0099584544 0.442 7.4433387e-39
0.040288206 0.0099584544 0.442 8.1023357e-39
0.041713927 0.0099359248 0.44100001 4.414561e-39
0.043230824 0.0099359248 0.44100001 7.1757355e-39
0.044747688 0.0099359248 0.44100001 8.8352569e-39
0.046264555 0.0099359248 0.44100001 1.3826448e-38
-0.010418598 0.0088839373 0.46599999 9.6715154e-39
-0.0087968232 0.008864874 0.465 8.4578452e-39
-0.0071509718 0.0088076815 0.46200001 8.9188233e-39
-0.0055498197 0.0087886164 0.461 6.9870311e-39
-0.0039383639 0.0087314239 0.458 9.1997262e-39
-0.0023578648 0.0087123597 0.45699999 6.8127502e-39
-0.00078424515 0.0086932955 0.456 4.6000551e-39
0.00078249554 0.0086742314 0.45500001 5.698837e-39
0.0023423866 0.0086551663 0.454 7.3583584e-39
0.0039039678 0.0086551663 0.454 7.8171687e-39
0.0054535107 0.008636103 0.45300001 5.5122822e-39
0.0069961739 0.0086170379 0.45199999 1.0684616e-38
0.0085508758 0.0086170379 0.45199999 8.9328994e-39
0.01008322 0.0085979737 0.45100001 1.187956e-38
0.011634483 0.0085979737 0.45100001 9.9434514e-39
0.013185775 0.0085979737 0.45100001 7.3626898e-39
0.014737037 0.0085979737 0.45100001 9.9441674e-39
0.016288299 0.0085979737 0.45100001 1.0310027e-38
0.017839562 0.0085979737 0.45100001 7.8207448e-39
0.019390825 0.0085979737 0.45100001 8.5633938e-39
0.020942086 0.0085979737 0.45100001 1.0407306e-38
0.022543253 0.0086170379 0.45199999 8.4711561e-39
0.024097955 0.0086170379 0.45199999 7.5491998e-39
0.025709411 0.008636103 0.45300001 1.4101994e-38
0.027327744 0.0086551663 0.454 1.4931754e-38
0.028889326 0.0086551663 0.454 1.3922584e-38
0.038855612 0.0084454603 0.44299999 1.3642757e-38
0.040288206 0.0084263962 0.442 1.3734237e-38
0.041808512 0.0084263962 0.442 1.3734237e-38
0.043328848 0.0084263962 0.442 1.3736405e-38
0.044849154 0.0084263962 0.442 1.4289579e-38
0.046579279 0.0084645245 0.44400001 1.3830035e-38
-0.010418598 0.0072686682 0.46599999 1.0682789e-38
-0.0087968232 0.0072530704 0.465 1.1047263e-38
-0.0071664499 0.0072218738 0.463 1.0586284e-38
-0.0055498197 0.0071906778 0.461 9.5663717e-39
-0.0039383639 0.007143884 0.458 1.0764915e-38
-0.0023578648 0.0071282857 0.45699999 9.8469369e-39
-0.00078596489 0.0071282857 0.45699999 6.1591117e-39
0.00078249554 0.0070970901 0.45500001 6.0643825e-39
0.0023423866 0.0070814919 0.454 7.0785345e-39
0.0039039678 0.0070814919 0.454 5.9732883e-39
0.0054535107 0.0070658941 0.45300001 4.3162781e-39
0.0069961739 0.0070502958 0.45199999 6.0809711e-39
0.0085508758 0.0070502958 0.45199999 2.116559e-39
0.01008322 0.007034698 0.45100001 5.896905e-39
0.011634483 0.007034698 0.45100001 3.3154273e-39
0.013185775 0.007034698 0.45100001 4.1358427e-39
0.014737037 0.007034698 0.45100001 4.9656034e-39
0.016288299 0.007034698 0.45100001 5.9750736e-39
0.017839562 0.007034698 0.45100001 4.5921391e-39
0.019390825 0.007034698 0.45100001 4.8737707e-39
0.020942086 0.007034698 0.45100001 6.4410964e-39
0.022543253 0.0070502958 0.45199999 5.240363e-39
0.024097955 0.0070502958 0.45199999 1.0864294e-38
0.025709411 0.0070658941 0.45300001 1.4658739e-38
0.027327744 0.0070814919 0.454 1.401337e-38
0.041997693 0.0069255126 0.44400001 1.3646363e-38
0.04352491 0.0069255126 0.44400001 1.3369057e-38
0.045052093 0.0069255126 0.44400001 1.3461253e-38
0.046579279 0.0069255126 0.44400001 1.3369054e-38
-0.010418598 0.0056534214 0.46599999 3.8686263e-39
-0.0087968232 0.0056412895 0.465 9.8411692e-39
-0.0071664499 0.0056170258 0.463 1.1408495e-38
-0.0055498197 0.005592762 0.461 1.0957956e-38
-0.0039469632 0.0055684983 0.45899999 1.1695521e-38
-0.0023630245 0.0055563669 0.458 1.2343412e-38
-0.00078596489 0.0055442345 0.45699999 6.074109e-39
0.00078249554 0.0055199717 0.45500001 7.9111846e-39
0.0023475462 0.0055199717 0.45500001 7.4502065e-39
0.0039039678 0.0055078394 0.454 8.8255627e-39
0.0054535107 0.005495708 0.45300001 6.7972616e-39
0.0069961739 0.0054835756 0.45199999 9.1122936e-39
0.0085508758 0.0054835756 0.45199999 5.2400771e-39
0.010105577 0.0054835756 0.45199999 9.8458859e-39
0.01166028 0.0054835756 0.45199999 5.8814739e-39
0.013185775 0.0054714442 0.45100001 5.3296874e-39
0.014737037 0.0054714442 0.45100001 6.8970075e-39
0.016288299 0.0054714442 0.45100001 7.5394888e-39
0.017839562 0.0054714442 0.45100001 5.6034002e-39
0.019390825 0.0054714442 0.45100001 6.9892227e-39
0.020942086 0.0054714442 0.45100001 6.8970271e-39
0.022543253 0.0054835756 0.45199999 5.6073463e-39
0.024151269 0.005495708 0.45300001 1.07703e-38
0.025709411 0.005495708 0.45300001 1.4750559e-38
0.027327744 0.0055078394 0.454 1.4012994e-38
-0.01039624 0.0040294859 0.465 2.1176254e-39
-0.0087968232 0.0040294859 0.465 6.5286005e-39
-0.0071664499 0.0040121549 0.463 5.9754267e-39
-0.0055618589 0.0040034894 0.46200001 8.7409299e-39
-0.0039469632 0.0039774925 0.45899999 8.9253211e-39
-0.0023630245 0.003968827 0.458 1.113912e-38
-0.00078596489 0.0039601615 0.45699999 7.0825128e-39
0.00078421528 0.003951496 0.456 8.0952228e-39
0.0023475462 0.0039428305 0.45500001 9.6625485e-39
0.0039039678 0.0039341645 0.454 9.2915799e-39
0.005465549 0.0039341645 0.454 8.277428e-39
0.0070116525 0.003925499 0.45300001 9.4821579e-39
0.0085508758 0.0039168335 0.45199999 8.0992235e-39
0.010105577 0.0039168335 0.45199999 1.2064317e-38
0.01166028 0.0039168335 0.45199999 7.1779482e-39
0.013215011 0.0039168335 0.45199999 7.63316e-39
0.014769713 0.0039168335 0.45199999 8.2785294e-39
0.016324416 0.0039168335 0.45199999 9.1100515e-39
0.017879117 0.0039168335 0.45199999 5.7910172e-39
0.019433819 0.0039168335 0.45199999 8.285009e-39
0.020988522 0.0039168335 0.45199999 7.6396396e-39
0.022593128 0.003925499 0.45300001 7.3637408e-39
0.024151269 0.003925499 0.45300001 1.0867175e-38
0.025709411 0.003925499 0.45300001 1.5025704e-38
0.027327744 0.0039341645 0.454 1.4288139e-38
-0.01039624 0.0024176824 0.465 6.7263153e-39
-0.0087779043 0.0024124829 0.46399999 1.0769259e-38
-0.0071664499 0.0024072838 0.463 5.6063037e-39
-0.0055618589 0.0024020844 0.46200001 7.1801286e-39
-0.0039555621 0.0023916857 0.46000001 5.0596291e-39
-0.0023630245 0.002381287 0.458 7.5517852e-39
-0.00078596489 0.0023760877 0.45699999 3.4029819e-39
0.00078421528 0.0023708884 0.456 7.2614964e-39
0.0023475462 0.0023656893 0.45500001 7.4458877e-39
0.0039125672 0.0023656893 0.45500001 7.5348463e-39
0.005465549 0.0023604899 0.454 6.7972813e-39
0.0070271301 0.0023604899 0.454 9.8498362e-39
0.0085697938 0.0023552906 0.45300001 5.6088372e-39
0.010105577 0.0023500912 0.45199999 1.0677757e-38
0.01166028 0.0023500912 0.45199999 6.3445624e-39
0.013215011 0.0023500912 0.45199999 7.1693106e-39
0.014769713 0.0023500912 0.45199999 8.552245e-39
0.016324416 0.0023500912 0.45199999 9.0160776e-39
0.017879117 0.0023500912 0.45199999 6.5267956e-39
0.019433819 0.0023500912 0.45199999 9.0229272e-39
0.020988522 0.0023500912 0.45199999 7.6399927e-39
0.022593128 0.0023552906 0.45300001 6.7169266e-39
0.024151269 0.0023552906 0.45300001 1.2709643e-38
0.025766164 0.0023604899 0.454 1.4382496e-38
0.027327744 0.0023604899 0.454 1.3921518e-38
-0.0087779043 0.00080416864 0.46399999 1.279431e-38
-0.0071664499 0.0008024355 0.463 1.0212833e-38
-0.0055618589 0.00080070243 0.46200001 1.2160475e-38
-0.0039555621 0.00079723616 0.46000001 8.6570411e-39
-0.002368184 0.00079550303 0.45899999 1.0316591e-38
-0.00078596489 0.00079203676 0.45699999 2.8487445e-39
0.00078421528 0.00079030369 0.456 5.6984867e-39
0.0023475462 0.00078857056 0.45500001 5.2375086e-39
0.0039125672 0.00078857056 0.45500001 4.4099059e-39
0.005465549 0.00078683742 0.454 4.133319e-39
0.0070271301 0.00078683742 0.454 6.5426906e-39
0.0085887117 0.00078683742 0.454 1.5641265e-39
0.010127936 0.00078510429 0.45300001 7.0893525e-39
0.011686077 0.00078510429 0.45300001 2.8483535e-39
0.013244249 0.00078510429 0.45300001 5.4226411e-39
0.014769713 0.00078337116 0.45199999 5.699228e-39
0.016324416 0.00078337116 0.45199999 6.8923608e-39
0.017879117 0.00078337116 0.45199999 5.9704045e-39
0.019433819 0.00078337116 0.45199999 6.8995186e-39
0.020988522 0.00078337116 0.45199999 6.1619536e-39
0.022593128 0.00078510429 0.45300001 5.6998992e-39
0.024151269 0.00078510429 0.45300001 1.4735068e-38
0.025766164 0.00078683742 0.454 1.4658361e-38
0.027327744 0.00078683742 0.454 1.3920796e-38
-0.0087779043 -0.00080416864 0.46399999 1.103828e-38
-0.0071664499 -0.0008024355 0.463 7.1660638e-39
-0.0055498197 -0.0007989693 0.461 1.2065396e-38
-0.0039555621 -0.00079723616 0.46000001 9.9448961e-39
-0.002368184 -0.00079550303 0.45899999 1.1234228e-38
-0.00078596489 -0.00079203676 0.45699999 7.5464028e-39
0.00078593503 -0.00079203676 0.45699999 1.0584852e-38
0.0023527057 -0.00079030369 0.456 9.9394829e-39
0.0039125672 -0.00078857056 0.45500001 8.7409299e-39
0.005465549 -0.00078683742 0.454 8.2799517e-39
0.0070271301 -0.00078683742 0.454 1.1149583e-38
0.0085887117 -0.00078683742 0.454 5.1568666e-39
0.010150293 -0.00078683742 0.454 1.077359e-38
0.011711874 -0.00078683742 0.454 4.135505e-39
0.013273484 -0.00078683742 0.454 6.6211563e-39
0.014802391 -0.00078510429 0.45300001 6.436765e-39
0.016360532 -0.00078510429 0.45300001 6.7133183e-39
0.017918674 -0.00078510429 0.45300001 4.3162683e-39
0.019476816 -0.00078510429 0.45300001 6.8127754e-39
0.021034958 -0.00078510429 0.45300001 4.9688628e-39
0.022643002 -0.00078683742 0.454 5.2410805e-39
0.024204582 -0.00078683742 0.454 1.2616722e-38
0.025766164 -0.00078683742 0.454 1.4290297e-38
0.027387939 -0.00078857056 0.45500001 1.3921515e-38
-0.01039624 -0.0024176824 0.465 8.2000034e-39
-0.0087779043 -0.0024124829 0.46399999 1.25206e-38
-0.0071664499 -0.0024072838 0.463 8.9249708e-39
-0.0055498197 -0.0023968851 0.461 1.1974632e-38
-0.0039555621 -0.0023916857 0.46000001 7.9180244e-39
-0.002368184 -0.0023864864 0.45899999 1.0866146e-38
-0.00078768481 -0.002381287 0.458 4.0436695e-39
0.00078593503 -0.0023760877 0.45699999 8.7373524e-39
0.0023527057 -0.0023708884 0.456 9.1983305e-39
0.0039125672 -0.0023656893 0.45500001 7.5387615e-39
0.0054775877 -0.0023656893 0.45500001 8.7373033e-39
0.0070271301 -0.0023604899 0.454 1.0780427e-38
0.0085887117 -0.0023604899 0.454 5.9862546e-39
0.010150293 -0.0023604899 0.454 1.1608743e-38
0.011711874 -0.0023604899 0.454 5.5238317e-39
0.013273484 -0.0023604899 0.454 9.1129396e-39
0.014802391 -0.0023552906 0.45300001 9.758309e-39
0.016360532 -0.0023552906 0.45300001 1.0032368e-38
0.017918674 -0.0023552906 0.45300001 6.8977165e-39
0.019476816 -0.0023552906 0.45300001 1.0870087e-38
0.021034958 -0.0023552906 0.45300001 7.8276308e-39
0.022643002 -0.0023604899 0.454 5.1481688e-39
0.024204582 -0.0023604899 0.454 1.0772098e-38
0.025766164 -0.0023604899 0.454 1.4749834e-38
0.027448133 -0.0023708884 0.456 1.4104464e-38
-0.010373882 -0.0040208204 0.46399999 2.947742e-39
-0.0087779043 -0.0040208204 0.46399999 8.1859835e-39
-0.0071664499 -0.0040121549 0.463 6.065484e-39
-0.0055498197 -0.0039948234 0.461 1.2250513e-38
-0.0039555621 -0.0039861579 0.46000001 1.0222209e-38
-0.002368184 -0.0039774925 0.45899999 1.2899119e-38
-0.00078768481 -0.003968827 0.458 6.445425e-39
0.00078593503 -0.0039601615 0.45699999 1.1230575e-38
0.0023527057 -0.003951496 0.456 9.3866622e-39
0.0039211661 -0.003951496 0.456 8.0015361e-39
0.0054775877 -0.0039428305 0.45500001 8.7391012e-39
0.0070426087 -0.0039428305 0.45500001 1.0870825e-38
0.0086076297 -0.0039428305 0.45500001 4.9703048e-39
0.010150293 -0.0039341645 0.454 1.1049456e-38
0.011711874 -0.0039341645 0.454 3.9503921e-39
0.013273484 -0.0039341645 0.454 7.7210074e-39
0.014835065 -0.0039341645 0.454 8.4585724e-39
0.016396647 -0.0039341645 0.454 8.2734539e-39
0.017958228 -0.0039341645 0.454 6.8905321e-39
0.01951981 -0.0039341645 0.454 8.1935393e-39
0.02108139 -0.0039341645 0.454 7.3637786e-39
0.022643002 -0.0039341645 0.454 5.0545396e-39
0.024204582 -0.0039341645 0.454 1.1416032e-38
0.025936423 -0.0039601615 0.45699999 1.4657278e-38
0.027568519 -0.003968827 0.458 1.4104104e-38
-0.010373882 -0.0056291344 0.46399999 5.065715e-39
-0.0087779043 -0.0056291344 0.46399999 8.8291598e-39
-0.0071664499 -0.005617003 0.463 5.6945182e-39
-0.0055498197 -0.0055927392 0.461 7.2773409e-39
-0.0039555621 -0.0055806078 0.46000001 4.3270807e-39
-0.002368184 -0.0055684759 0.45899999 7.5489111e-39
-0.00078768481 -0.0055563441 0.458 4.0454772e-39
0.00078593503 -0.0055442122 0.45699999 7.914779e-39
0.0023578648 -0.0055442122 0.45699999 8.1913658e-39
0.0039211661 -0.0055320808 0.456 7.3561737e-39
0.0054896264 -0.0055320808 0.456 9.0156951e-39
0.0070580868 -0.0055320808 0.456 1.0873333e-38
0.0086265476 -0.0055320808 0.456 7.8308776e-39
0.01017265 -0.0055199489 0.45500001 1.2530337e-38
0.011737672 -0.0055199489 0.45500001 5.8000556e-39
0.013273484 -0.005507817 0.454 9.2044192e-39
0.014835065 -0.005507817 0.454 9.7575929e-39
0.016396647 -0.005507817 0.454 9.8486927e-39
0.017958228 -0.005507817 0.454 7.7281933e-39
0.01951981 -0.005507817 0.454 9.4882311e-39
0.021127826 -0.0055199489 0.45500001 7.5521229e-39
0.02274275 -0.0055320808 0.456 3.4007832e-39
0.024417838 -0.0055563441 0.458 8.5637343e-39
0.02599318 -0.0055563441 0.458 1.4749473e-38
0.027628712 -0.0055684759 0.45899999 1.4104104e-38
-0.01039624 -0.0072530704 0.465 6.172766e-39
-0.0087779043 -0.0072374716 0.46399999 1.1323842e-38
-0.0071819276 -0.0072374716 0.46399999 6.714061e-39
-0.0055498197 -0.0071906778 0.461 1.0125704e-38
-0.0039555621 -0.00717508 0.46000001 6.3456834e-39
-0.002368184 -0.0071594818 0.45899999 8.3765012e-39
-0.00078768481 -0.007143884 0.458 3.5823284e-39
0.00078765483 -0.007143884 0.458 6.6175816e-39
0.0023578648 -0.0071282857 0.45699999 6.5253859e-39
0.003929765 -0.0071282857 0.45699999 4.5935685e-39
0.0055016647 -0.0071282857 0.45699999 5.1467422e-39
0.0070735645 -0.0071282857 0.45699999 5.5285008e-39
0.0086265476 -0.0071126879 0.456 2.3938494e-39
0.010195008 -0.0071126879 0.456 6.62911e-39
0.011737672 -0.0070970901 0.45500001 2.8490892e-39
0.013302722 -0.0070970901 0.45500001 6.2520234e-39
0.014867743 -0.0070970901 0.45500001 7.2661753e-39
0.016432764 -0.0070970901 0.45500001 7.4483834e-39
0.017997785 -0.0070970901 0.45500001 6.1576446e-39
0.019562805 -0.0070970901 0.45500001 5.9794022e-39
0.021174261 -0.0071126879 0.456 5.6106197e-39
0.022792624 -0.0071282857 0.45699999 2.2047694e-39
0.024417838 -0.007143884 0.458 5.7082005e-39
0.02599318 -0.007143884 0.458 1.4749468e-38
0.027628712 -0.0071594818 0.45899999 1.4011903e-38
-0.0087968232 -0.0088648507 0.465 1.0580912e-38
-0.0071974061 -0.0088648507 0.465 8.4604123e-39
-0.0055498197 -0.008788594 0.461 1.3079197e-38
-0.0039555621 -0.0087695299 0.46000001 9.8523501e-39
-0.0023733433 -0.0087695299 0.46000001 1.1328547e-38
-0.00078940467 -0.0087504648 0.45899999 4.5982656e-39
0.00078765483 -0.0087314015 0.458 9.6567681e-39
0.0023630245 -0.0087314015 0.458 8.8270074e-39
0.0039383639 -0.0087314015 0.458 7.4419248e-39
0.0055016647 -0.0087123364 0.45699999 7.8107073e-39
0.0070735645 -0.0087123364 0.45699999 8.7478046e-39
0.0086454647 -0.0087123364 0.45699999 5.0599795e-39
0.010195008 -0.0086932732 0.456 8.4686968e-39
0.011737672 -0.008674209 0.45500001 3.6745241e-39
0.013302722 -0.008674209 0.45500001 7.2625754e-39
0.014867743 -0.008674209 0.45500001 6.2484235e-39
0.016432764 -0.008674209 0.45500001 6.3391772e-39
0.017997785 -0.008674209 0.45500001 5.878199e-39
0.019605801 -0.0086932732 0.456 5.6142168e-39
0.021220693 -0.0087123364 0.45699999 5.6142168e-39
0.022792624 -0.0087123364 0.45699999 4.7790331e-39
0.024417838 -0.0087314015 0.458 7.1761125e-39
0.02599318 -0.0087314015 0.458 1.4748752e-38
0.027628712 -0.0087504648 0.45899999 1.4011187e-38
-0.0071974061 -0.010476654 0.465 5.6048589e-39
-0.0055618589 -0.010409064 0.46200001 1.0583433e-38
-0.0039641615 -0.010386532 0.461 9.1083027e-39
-0.0023733433 -0.010364003 0.46000001 1.0405862e-38
-0.00079112442 -0.010364003 0.46000001 5.5194932e-39
0.00078937464 -0.010341471 0.45899999 1.0581605e-38
0.002368184 -0.010341471 0.45899999 1.048941e-38
0.0039383639 -0.010318941 0.458 7.7239165e-39
0.0055137035 -0.010318941 0.458 8.8302641e-39
0.0070735645 -0.01029641 0.45699999 1.2250162e-38
0.0086454647 -0.01029641 0.45699999 8.8389241e-39
0.010195008 -0.01027388 0.456 1.0869368e-38
0.011763468 -0.01027388 0.456 3.8624999e-39
0.013302722 -0.01025135 0.45500001 9.1972515e-39
0.014867743 -0.01025135 0.45500001 7.8143171e-39
0.016432764 -0.01025135 0.45500001 7.9057672e-39
0.017997785 -0.01025135 0.45500001 7.6291803e-39
0.019605801 -0.01027388 0.456 9.0279466e-39
0.021220693 -0.01029641 0.45699999 8.2903816e-39
0.022842498 -0.010318941 0.458 5.6120126e-39
0.024417838 -0.010318941 0.458 7.2715339e-39
0.026049934 -0.010341471 0.45899999 1.465584e-38
-0.0055618589 -0.012010445 0.46200001 7.4552511e-39
-0.0039641615 -0.011984448 0.461 5.5191429e-39
-0.0023785029 -0.011984448 0.461 7.3637267e-39
-0.00079112442 -0.011958452 0.46000001 4.5978733e-39
0.00079109438 -0.011958452 0.46000001 7.2579063e-39
0.002368184 -0.011932455 0.45899999 7.5344932e-39
0.0039469632 -0.011932455 0.45899999 7.1663973e-39
0.0055137035 -0.011906458 0.458 7.7195641e-39
0.0070735645 -0.011880461 0.45699999 9.4810509e-39
0.0086454647 -0.011880461 0.45699999 8.0059208e-39
0.010217365 -0.011880461 0.45699999 1.0035269e-38
0.011763468 -0.011854465 0.456 4.6879221e-39
0.013302722 -0.011828468 0.45500001 1.0027375e-38
0.014867743 -0.011828468 0.45500001 9.4742013e-39
0.016432764 -0.011828468 0.45500001 7.6295629e-39
0.01803734 -0.011854465 0.456 8.3671279e-39
0.019605801 -0.011854465 0.456 7.828658e-39
0.021220693 -0.011880461 0.45699999 4.1408482e-39
0.022792624 -0.011880461 0.45699999 3.2153186e-39
0.024417838 -0.011906458 0.458 4.4138589e-39
-0.0055618589 -0.01361185 0.46200001 9.6772789e-39
-0.0039727604 -0.01361185 0.46200001 7.6489751e-39
-0.0023836624 -0.01361185 0.46200001 5.4319345e-39
-0.00079284434 -0.013582387 0.461 3.77243e-39
0.00079109438 -0.013552925 0.46000001 6.5325536e-39
0.0023733433 -0.013552925 0.46000001 5.6105973e-39
0.0039555621 -0.013552925 0.46000001 4.226944e-39
0.0055137035 -0.013493998 0.458 6.0708565e-39
0.0070735645 -0.013464535 0.45699999 6.4393014e-39
0.0086454647 -0.013464535 0.45699999 6.1627145e-39
0.010217365 -0.013464535 0.45699999 6.4367426e-39
0.011789264 -0.013464535 0.45699999 5.3304048e-39
0.013331958 -0.013435072 0.456 6.9831047e-39
0.014900419 -0.013435072 0.456 6.7987134e-39
0.016468879 -0.013435072 0.456 5.5122822e-39
0.01803734 -0.013435072 0.456 5.696672e-39
0.019605801 -0.013435072 0.456 4.698387e-39
0.021220693 -0.013464535 0.45699999 9.1237772e-39
0.022792624 -0.013464535 0.45699999 1.1704854e-38
-0.0057183607 -0.015641334 0.47499999 9.4028402e-39
-0.004084548 -0.015641334 0.47499999 8.5730795e-39
-0.0023888217 -0.015246184 0.463 4.5150131e-39
-0.00079628394 -0.015246184 0.463 2.3945388e-39
0.00079281419 -0.015180325 0.461 5.9897942e-39
0.0023785029 -0.015180325 0.461 5.7132073e-39
0.0039727604 -0.015213255 0.46200001 6.2671196e-39
0.0055377809 -0.015147396 0.46000001 7.0046846e-39
0.0070890435 -0.015081538 0.458 6.1709639e-39
0.0086643826 -0.015081538 0.458 3.6816819e-39
0.010239722 -0.015081538 0.458 2.9441239e-39
0.011815062 -0.015081538 0.458 2.9441239e-39
0.013361194 -0.015048608 0.45699999 3.862853e-39
0.014933094 -0.015048608 0.45699999 4.2316355e-39
0.016504994 -0.015048608 0.45699999 2.2076406e-39
0.018076895 -0.015048608 0.45699999 1.1888182e-38
0.019648794 -0.015048608 0.45699999 1.3646385e-38
0.021220693 -0.015048608 0.45699999 1.3738581e-38
-0.0073367115 -0.017251382 0.47400001 4.5200423e-39
-0.0057063224 -0.017251382 0.47400001 9.2166385e-39
-0.0040759491 -0.017251382 0.47400001 9.3088341e-39
-0.002393981 -0.016887426 0.46399999 5.9011985e-39
-0.00079800375 -0.016887426 0.46399999 9.2265975e-40
0.00079969323 -0.016923822 0.465 4.88599e-39
0.0023991405 -0.016923822 0.465 6.7299026e-39
0.0039899582 -0.016887426 0.46399999 7.8365879e-39
0.0055738972 -0.016851032 0.463 8.4819573e-39
0.0071045221 -0.01670545 0.45899999 8.0213323e-39
0.0086643826 -0.016669055 0.458 6.5462022e-39
0.010239722 -0.016669055 0.458 4.6028955e-39
0.011815062 -0.016669055 0.458 3.588759e-39
0.013390432 -0.016669055 0.458 2.4860226e-39
0.014965772 -0.016669055 0.458 3.9611527e-39
0.01654111 -0.016669055 0.458 2.5796447e-39
0.01811645 -0.016669055 0.458 1.2260179e-38
0.01969179 -0.016669055 0.458 1.3830033e-38
0.021267129 -0.016669055 0.458 1.3369054e-38
-0.0073367115 -0.018894382 0.47400001 6.0862918e-39
-0.0057063224 -0.018894382 0.47400001 8.6634647e-39
-0.0040759491 -0.018894382 0.47400001 9.6776166e-39
-0.0023991405 -0.018535627 0.465 7.3759881e-39
-0.00079972361 -0.018535627 0.465 1.0144952e-39
0.00080141303 -0.018575488 0.46599999 6.7302558e-39
0.0023991405 -0.018535627 0.465 8.4819727e-39
0.0039899582 -0.018495765 0.46399999 8.8493007e-39
0.0055738972 -0.018455902 0.463 8.8493007e-39
0.0071199997 -0.018336318 0.46000001 8.8493007e-39
0.0086833015 -0.018296456 0.45899999 8.6649094e-39
0.010239722 -0.018256595 0.458 8.6638164e-39
0.011815062 -0.018256595 0.458 7.7418601e-39
0.013390432 -0.018256595 0.458 7.6475065e-39
0.014965772 -0.018256595 0.458 7.278724e-39
0.016577227 -0.018296456 0.45899999 5.1628768e-39
0.018195562 -0.018336318 0.46000001 1.2538522e-38
0.01977778 -0.018336318 0.46000001 1.3553448e-38
-0.0073367115 -0.020537358 0.47400001 6.086645e-39
-0.0057063224 -0.020537358 0.47400001 8.1131776e-39
-0.0040759491 -0.020537358 0.47400001 9.2195252e-39
-0.0024094596 -0.020234063 0.46700001 8.6656451e-39
-0.00080144347 -0.020190734 0.46599999 3.5026898e-39
0.00080141303 -0.020190734 0.46599999 6.5454651e-39
0.0024043 -0.020190734 0.46599999 9.1269428e-39
0.0039985571 -0.020147407 0.465 8.7574736e-39
0.0055738972 -0.020060752 0.463 8.7574736e-39
0.0071199997 -0.019930769 0.46000001 8.7571051e-39
0.0086833015 -0.01988744 0.45899999 8.5727138e-39
0.010239722 -0.019844113 0.458 8.2968318e-39
0.011815062 -0.019844113 0.458 8.2046361e-39
0.013390432 -0.019844113 0.458 8.0209609e-39
0.014965772 -0.019844113 0.458 7.9287653e-39
0.016577227 -0.01988744 0.45899999 5.6245948e-39
0.018195562 -0.019930769 0.46000001 1.3092441e-38
0.01977778 -0.019930769 0.46000001 1.3276862e-38
-0.0089860018 -0.022227151 0.47499999 7.4677844e-39
-0.0073367115 -0.022180358 0.47400001 6.6380237e-39
-0.0057063224 -0.022180358 0.47400001 8.6631144e-39
-0.0040759491 -0.022180358 0.47400001 9.5850707e-39
-0.0024352565 -0.022086769 0.472 9.0358598e-39
-0.00080144347 -0.021806004 0.46599999 5.0714477e-39
0.00080141303 -0.021806004 0.46599999 3.2228519e-39
0.0024043 -0.021806004 0.46599999 8.5701929e-39
0.0040071565 -0.021806004 0.46599999 8.9418593e-39
0.0055859354 -0.021712415 0.46399999 8.8496636e-39
0.0071199997 -0.02152524 0.46000001 8.7574736e-39
0.0086833015 -0.021478446 0.45899999 8.5730823e-39
0.010239722 -0.021431653 0.458 8.29648e-39
0.011815062 -0.021431653 0.458 8.29648e-39
0.013390432 -0.021431653 0.458 8.2042844e-39
0.014965772 -0.021431653 0.458 8.0198932e-39
0.016577227 -0.021478446 0.45899999 6.2699811e-39
0.018156007 -0.021478446 0.45899999 1.2908066e-38
0.01977778 -0.02152524 0.46000001 1.3460527e-38
-0.0089670848 -0.023823334 0.47400001 7.0082481e-39
-0.0073367115 -0.023823334 0.47400001 7.5614219e-39
-0.0057063224 -0.023823334 0.47400001 8.3883352e-39
-0.0040759491 -0.023823334 0.47400001 9.1259002e-39
-0.0024352565 -0.023722813 0.472 9.402843e-39
-0.00080488314 -0.023521772 0.46799999 7.1901479e-39
0.00080485252 -0.023521772 0.46799999 1.2914367e-39
0.0024146189 -0.023521772 0.46799999 6.1778008e-39
0.0040157558 -0.023471512 0.46700001 9.1244428e-39
0.0055979742 -0.023370991 0.465 9.2166385e-39
0.0071199997 -0.02311969 0.46000001 9.0337074e-39
0.0087022185 -0.02311969 0.46000001 8.7571205e-39
0.010239722 -0.023019169 0.458 8.480521e-39
0.011815062 -0.023019169 0.458 8.3883253e-39
0.013390432 -0.023019169 0.458 8.2046361e-39
0.014965772 -0.023019169 0.458 7.9280493e-39
0.01654111 -0.023019169 0.458 6.2699811e-39
0.018156007 -0.023069428 0.45899999 1.346124e-38
0.019734787 -0.023069428 0.45899999 1.3092105e-38
-0.0089670848 -0.025466334 0.47400001 6.8238541e-39
-0.0073367115 -0.025466334 0.47400001 7.4692235e-39
-0.0057063224 -0.025466334 0.47400001 8.8496692e-39
-0.0040759491 -0.025466334 0.47400001 9.3106474e-39
-0.0024352565 -0.02535888 0.472 9.5872343e-39
-0.00080488314 -0.025143974 0.46799999 7.5589304e-39
0.00080485252 -0.025143974 0.46799999 1.1992424e-39
0.0024146189 -0.025143974 0.46799999 5.4402358e-39
0.0040243547 -0.025143974 0.46799999 9.1240897e-39
0.0056220521 -0.025090247 0.46700001 9.2162853e-39
0.0071354783 -0.024767889 0.461 9.2180986e-39
0.0087022185 -0.024714163 0.46000001 8.8493161e-39
0.01026208 -0.024660435 0.45899999 8.6649094e-39
0.011789264 -0.024552982 0.45699999 8.3883225e-39
0.013361194 -0.024552982 0.45699999 8.4794224e-39
0.014933094 -0.024552982 0.45699999 8.2028355e-39
0.016504994 -0.024552982 0.45699999 7.8362166e-39
0.01811645 -0.024606708 0.458 1.3644541e-38
0.019734787 -0.024660435 0.45899999 1.31843e-38
0.021359999 -0.024714163 0.46000001 1.3092105e-38
-0.0089481669 -0.027052116 0.47299999 7.1000949e-39
-0.0073212329 -0.027052116 0.47299999 7.7454643e-39
-0.0056942836 -0.027052116 0.47299999 9.2187993e-39
-0.0040673497 -0.027052116 0.47299999 9.5875818e-39
-0.0024300972 -0.026937731 0.47099999 9.5872343e-39
-0.00080488314 -0.026766153 0.46799999 7.651126e-39
0.00080485252 -0.026766153 0.46799999 1.1988837e-39
0.0024146189 -0.026766153 0.46799999 4.3335323e-39
0.0040243547 -0.026766153 0.46799999 8.6652752e-39
0.0056220521 -0.026708961 0.46700001 8.8496664e-39
0.0071354783 -0.026365804 0.461 9.4013983e-39
0.0087211365 -0.026365804 0.461 9.3092026e-39
0.01026208 -0.026251419 0.45899999 8.5730697e-39
0.011789264 -0.026137033 0.45699999 8.3886785e-39
0.013361194 -0.026137033 0.45699999 8.4794252e-39
0.014933094 -0.026137033 0.45699999 8.2028383e-39
0.016504994 -0.026137033 0.45699999 8.2968318e-39
0.01811645 -0.026194226 0.458 1.4105156e-38
0.019734787 -0.026251419 0.45899999 1.3183587e-38
0.021313565 -0.026251419 0.45899999 1.3091391e-38
-0.0105751 -0.028691649 0.47299999 1.327435e-38
-0.008929248 -0.028630991 0.472 6.8238541e-39
-0.0073057539 -0.028630991 0.472 7.838006e-39
-0.0056942836 -0.028691649 0.47299999 9.2187993e-39
-0.0040587503 -0.028630991 0.472 9.6797774e-39
-0.0024300972 -0.028570332 0.47099999 9.7691088e-39
-0.00080488314 -0.028388355 0.46799999 7.9251962e-39
0.00080485252 -0.028388355 0.46799999 1.0144952e-39
0.0024146189 -0.028388355 0.46799999 4.8867061e-39
0.0040243547 -0.028388355 0.46799999 8.3890582e-39
0.0056100129 -0.028267037 0.46599999 8.7578407e-39
0.0071354783 -0.027963743 0.461 9.034408e-39
0.0087211365 -0.027963743 0.461 9.1266036e-39
0.010284437 -0.027903084 0.46000001 8.7578239e-39
0.011815062 -0.027781766 0.458 8.481237e-39
0.013390432 -0.027781766 0.458 8.2968318e-39
0.014933094 -0.027721107 0.45699999 7.743658e-39
0.016504994 -0.027721107 0.45699999 8.3897407e-39
0.01811645 -0.027781766 0.458 1.3921478e-38
0.01969179 -0.027781766 0.458 1.3091757e-38
0.021267129 -0.027781766 0.458 1.3091757e-38
-0.0105751 -0.030331183 0.47299999 1.2262006e-38
-0.008929248 -0.030267058 0.472 7.4674312e-39
-0.0073057539 -0.030267058 0.472 8.020605e-39
-0.0056822444 -0.030267058 0.472 8.9418593e-39
-0.0040587503 -0.030267058 0.472 9.8638156e-39
-0.0024249377 -0.030138807 0.47 8.9425851e-39
-0.000806603 -0.030074684 0.46900001 7.0986725e-39
0.00080485252 -0.030010557 0.46799999 1.3811198e-39
0.0024146189 -0.030010557 0.46799999 5.2533306e-39
0.0040243547 -0.030010557 0.46799999 8.8503895e-39
0.0056100129 -0.029882306 0.46599999 8.8503895e-39
0.0071354783 -0.029561682 0.461 9.1262505e-39
0.0087211365 -0.029561682 0.461 9.0340549e-39
0.010284437 -0.029497556 0.46000001 9.0340549e-39
0.011840859 -0.029433431 0.45899999 8.3886855e-39
0.013390432 -0.029369306 0.458 8.4794252e-39
0.014933094 -0.029305181 0.45699999 7.9262514e-39
0.016504994 -0.029305181 0.45699999 8.9451089e-39
0.01811645 -0.029369306 0.458 1.3647086e-38
0.01969179 -0.029369306 0.458 1.2723325e-38
0.021267129 -0.029369306 0.458 1.2907716e-38
-0.010597458 -0.032038286 0.47400001 1.1986138e-38
-0.008929248 -0.031903103 0.472 7.8362166e-39
-0.0073057539 -0.031903103 0.472 7.9284122e-39
-0.0056822444 -0.031903103 0.472 8.8496636e-39
-0.0040587503 -0.031903103 0.472 9.495033e-39
-0.0024249377 -0.03176792 0.47 9.4950386e-39
-0.0008083228 -0.03176792 0.47 7.4667348e-39
0.00080485252 -0.031632736 0.46799999 1.0130603e-39
0.0024146189 -0.031632736 0.46799999 5.8072303e-39
0.0040243547 -0.031632736 0.46799999 8.7581939e-39
0.0056340904 -0.031632736 0.46799999 8.9425851e-39
0.0071819122 -0.03136237 0.46399999 9.218449e-39
0.0087211365 -0.031159597 0.461 9.218449e-39
0.010306795 -0.031159597 0.461 9.1266036e-39
0.011840859 -0.031024413 0.45899999 8.296843e-39
0.013390432 -0.030956823 0.458 8.6638164e-39
0.014965772 -0.030956823 0.458 7.4652732e-39
0.01654111 -0.030956823 0.458 1.1247138e-38
0.01811645 -0.030956823 0.458 1.8530593e-38
0.01969179 -0.030956823 0.458 1.31879e-38
0.021267129 -0.030956823 0.458 1.1343988e-38
-0.008929248 -0.033539169 0.472 7.9291367e-39
-0.0073057539 -0.033539169 0.472 8.1135279e-39
-0.0056702062 -0.033468112 0.47099999 8.9418649e-39
-0.0040501519 -0.033468112 0.47099999 9.7716255e-39
-0.0024249377 -0.033397056 0.47 9.7698277e-39
-0.000806603 -0.033325996 0.46900001 7.5571326e-39
0.00080485252 -0.03325494 0.46799999 6.4607706e-40
0.0024146189 -0.03325494 0.46799999 6.4543975e-39
0.0040243547 -0.03325494 0.46799999 9.0358654e-39
0.0056220521 -0.033183884 0.46700001 8.7592785e-39
0.0071973908 -0.033041768 0.465 9.4950358e-39
0.0087211365 -0.032757536 0.461 9.4028402e-39
0.010284437 -0.032686479 0.46000001 9.0343968e-39
0.011840859 -0.032615419 0.45899999 8.481223e-39
0.013390432 -0.032544363 0.458 8.6638164e-39
0.014965772 -0.032544363 0.458 7.5574689e-39
0.01654111 -0.032544363 0.458 1.1432236e-38
0.01811645 -0.032544363 0.458 1.8623495e-38
0.01969179 -0.032544363 0.458 1.8346186e-38
0.021313565 -0.032615419 0.45899999 1.5764709e-38
-0.008929248 -0.035175215 0.472 8.7588973e-39
-0.0072747977 -0.035026167 0.47 8.2057235e-39
-0.0056581674 -0.035026167 0.47 9.4925219e-39
-0.0040415525 -0.035026167 0.47 9.8613044e-39
-0.0024249377 -0.035026167 0.47 8.9418817e-39
-0.000806603 -0.034951642 0.46900001 6.6369909e-39
0.00080485252 -0.034877118 0.46799999 4.6348227e-40
0.0024146189 -0.034877118 0.46799999 7.1937604e-39
0.0040157558 -0.034802597 0.46700001 9.0358598e-39
0.0056100129 -0.034728069 0.46599999 9.4046423e-39
0.0071973908 -0.034653548 0.465 1.0046762e-38
0.0087022185 -0.03428093 0.46000001 9.5857839e-39
0.010284437 -0.03428093 0.46000001 8.4815762e-39
0.011840859 -0.034206402 0.45899999 8.4815762e-39
0.013390432 -0.034131881 0.458 8.3890274e-39
0.014965772 -0.034131881 0.458 7.3748755e-39
0.01654111 -0.034131881 0.458 1.1432586e-38
0.01811645 -0.034131881 0.458 1.8716041e-38
0.01969179 -0.034131881 0.458 1.7885924e-38
0.021313565 -0.034206402 0.45899999 1.8346902e-38
-0.008872495 -0.03657731 0.46900001 8.8507426e-39
-0.00725932 -0.03657731 0.46900001 8.8507426e-39
-0.0056581674 -0.036655299 0.47 9.4925093e-39
-0.0040415525 -0.036655299 0.47 1.0045683e-38
-0.0024249377 -0.036655299 0.47 9.3099439e-39
-0.000806603 -0.03657731 0.46900001 6.6362707e-39
0.00080485252 -0.036499321 0.46799999 1.565867e-39
0.0024146189 -0.036499321 0.46799999 8.8493161e-39
0.0040071565 -0.03634334 0.46599999 9.8648974e-39
0.0056100129 -0.03634334 0.46599999 9.957093e-39
0.0071973908 -0.036265351 0.465 9.8602044e-39
0.0087022185 -0.035875402 0.46000001 8.9382481e-39
0.01026208 -0.03579741 0.45899999 8.2953842e-39
0.011840859 -0.03579741 0.45899999 8.3875799e-39
0.013390432 -0.035719421 0.458 8.2046333e-39
0.014965772 -0.035719421 0.458 7.4670683e-39
0.01654111 -0.035719421 0.458 1.1524413e-38
0.01811645 -0.035719421 0.458 1.8807868e-38
0.01969179 -0.035719421 0.458 1.7702255e-38
-0.008872495 -0.038202956 0.46900001 9.311718e-39
-0.00725932 -0.038202956 0.46900001 8.8507398e-39
-0.0056581674 -0.038284414 0.47 9.0340549e-39
-0.0040415525 -0.038284414 0.47 9.4028374e-39
-0.0024197784 -0.038202956 0.46900001 8.8496861e-39
-0.000806603 -0.038202956 0.46900001 5.5306434e-39
0.00080657238 -0.038202956 0.46900001 1.565867e-39
0.0024146189 -0.038121499 0.46799999 9.6790768e-39
0.0040071565 -0.037958585 0.46599999 1.004856e-38
0.0055859354 -0.037795674 0.46399999 9.1266036e-39
0.0071509569 -0.037632763 0.46200001 8.7553002e-39
0.0087022185 -0.037469849 0.46000001 8.5709089e-39
0.01026208 -0.037388392 0.45899999 7.7443713e-39
0.011840859 -0.037388392 0.45899999 8.0209581e-39
0.013390432 -0.037306938 0.458 8.3890274e-39
0.014965772 -0.037306938 0.458 7.5592667e-39
0.01654111 -0.037306938 0.458 1.1525135e-38
0.01811645 -0.037306938 0.458 1.8624198e-38
0.019734787 -0.037388392 0.45899999 1.7702255e-38
-0.0056581674 -0.039913546 0.47 9.4925219e-39
-0.0040329536 -0.039828625 0.46900001 9.9535001e-39
-0.0024197784 -0.039828625 0.46900001 9.5843574e-39
-0.000806603 -0.039828625 0.46900001 6.0809235e-39
0.00080657238 -0.039828625 0.46900001 1.2914367e-39
0.0024146189 -0.039743703 0.46799999 9.2202566e-39
0.0039813593 -0.039319091 0.463 9.4964652e-39
0.0055738972 -0.039319091 0.463 8.1135307e-39
0.0071354783 -0.039149243 0.461 8.5698369e-39
0.0087022185 -0.039064322 0.46000001 8.6620326e-39
0.01026208 -0.0389794 0.45899999 8.6652654e-39
0.011840859 -0.0389794 0.45899999 8.6652654e-39
0.013390432 -0.038894478 0.458 8.6652584e-39
0.014965772 -0.038894478 0.458 7.5589108e-39
0.01654111 -0.038894478 0.458 1.2448548e-38
0.01811645 -0.038894478 0.458 1.7980286e-38
0.019734787 -0.0389794 0.45899999 1.7517863e-38
-0.0072902762 -0.041631047 0.47099999 9.1280316e-39
-0.0056581674 -0.04154266 0.47 9.4013983e-39
-0.0040329536 -0.04145427 0.46900001 9.4013983e-39
-0.0024146189 -0.041365881 0.46799999 8.5712691e-39
-0.00080488314 -0.041365881 0.46799999 5.6210089e-39
0.00080485252 -0.041365881 0.46799999 1.3836309e-39
0.0024197784 -0.04145427 0.46900001 8.5748844e-39
0.0039813593 -0.040923938 0.463 9.6797774e-39
0.0055498197 -0.040747158 0.461 8.8500168e-39
0.0071354783 -0.040747158 0.461 9.491775e-39
0.0087022185 -0.040658772 0.46000001 9.6761663e-39
0.01026208 -0.040570382 0.45899999 9.4013815e-39
0.011840859 -0.040570382 0.45899999 8.9404033e-39
0.013390432 -0.040481996 0.458 8.6641696e-39
0.014965772 -0.040481996 0.458 6.820257e-39
0.016577227 -0.040570382 0.45899999 1.6131717e-38
0.018156007 -0.040570382 0.45899999 1.8344412e-38
0.019734787 -0.040570382 0.45899999 1.7701539e-38
-0.0072747977 -0.043171793 0.47 9.1280316e-39
-0.0056461291 -0.043079939 0.46900001 9.3092026e-39
-0.0040243547 -0.042988084 0.46799999 8.9404201e-39
-0.0024146189 -0.042988084 0.46799999 8.2046333e-39
-0.00080488314 -0.042988084 0.46799999 5.3465688e-39
0.00080485252 -0.042988084 0.46799999 1.9357201e-39
0.0024197784 -0.043079939 0.46900001 6.5455016e-39
0.0040415525 -0.043171793 0.47 1.0045683e-38
0.0055498197 -0.042345099 0.461 1.0506661e-38
0.0071354783 -0.042345099 0.461 1.0692134e-38
0.0087022185 -0.042253245 0.46000001 1.0507743e-38
0.01026208 -0.042161386 0.45899999 9.772322e-39
0.011815062 -0.042069536 0.458 8.4815832e-39
0.013390432 -0.042069536 0.458 7.4670683e-39
0.014965772 -0.042069536 0.458 1.0325133e-38
0.016577227 -0.042161386 0.45899999 1.7978148e-38
0.018195562 -0.042253245 0.46000001 1.7609365e-38
-0.0072747977 -0.04480093 0.47 9.0372681e-39
-0.0056340904 -0.044610284 0.46799999 9.4010297e-39
-0.0040243547 -0.044610284 0.46799999 8.9400516e-39
-0.0024146189 -0.044610284 0.46799999 7.097204e-39
-0.00080488314 -0.044610284 0.46799999 5.8986608e-39
0.00080485252 -0.044610284 0.46799999 4.3302953e-39
0.0024197784 -0.044705607 0.46900001 5.0678604e-39
0.0040415525 -0.04480093 0.47 9.2162853e-39
0.0055498197 -0.043943036 0.461 9.9538504e-39
0.0071354783 -0.043943036 0.461 1.0417345e-38
0.0086833015 -0.043752395 0.45899999 9.7719759e-39
0.010239722 -0.043657076 0.458 9.1237128e-39
0.011815062 -0.043657076 0.458 8.9393215e-39
0.013390432 -0.043657076 0.458 6.73312e-39
0.014965772 -0.043657076 0.458 1.5399509e-38
0.016577227 -0.043752395 0.45899999 1.7703706e-38
-0.0072438414 -0.046232466 0.46799999 1.0046388e-38
-0.0056340904 -0.046232466 0.46799999 9.0318941e-39
-0.0040243547 -0.046232466 0.46799999 8.2021334e-39
-0.0024146189 -0.046232466 0.46799999 7.006809e-39
-0.00080488314 -0.046232466 0.46799999 5.255092e-39
0.00080485252 -0.046232466 0.46799999 5.5284756e-39
0.0024146189 -0.046232466 0.46799999 5.4362799e-39
0.0040415525 -0.04643004 0.47 7.3716469e-39
0.0056581674 -0.04643004 0.47 9.6765376e-39
0.0070890435 -0.045244593 0.458 9.8641687e-39
0.0086643826 -0.045244593 0.458 8.8500168e-39
0.010239722 -0.045244593 0.458 8.387933e-39
0.011789264 -0.045145802 0.45699999 7.7425636e-39
0.013361194 -0.045145802 0.45699999 8.4845161e-39
0.014965772 -0.045244593 0.458 1.7704079e-38
0.016577227 -0.045343377 0.45899999 1.7609706e-38
-0.0072438414 -0.047854666 0.46799999 1.0231505e-38
-0.0056340904 -0.047854666 0.46799999 8.1120888e-39
-0.0040243547 -0.047854666 0.46799999 7.6511106e-39
-0.0024146189 -0.047854666 0.46799999 6.6358629e-39
-0.00080488314 -0.047854666 0.46799999 6.5436673e-39
0.00080485252 -0.047854666 0.46799999 4.9774206e-39
0.0024146189 -0.047854666 0.46799999 1.1246723e-38
0.0040415525 -0.048059173 0.47 7.5549998e-39
0.0056581674 -0.048059173 0.47 9.3067167e-39
0.0070735645 -0.046729874 0.45699999 9.6808564e-39
0.0086454647 -0.046729874 0.45699999 8.6667045e-39
0.010217365 -0.046729874 0.45699999 7.6521658e-39
0.011789264 -0.046729874 0.45699999 6.9146008e-39
0.013361194 -0.046729874 0.45699999 1.5119364e-38
0.014965772 -0.046832133 0.458 1.816182e-38
-0.0056461291 -0.049582567 0.46900001 8.1120888e-39
-0.0040243547 -0.049476847 0.46799999 7.0057412e-39
-0.0024146189 -0.049476847 0.46799999 7.0943355e-39
-0.00080488314 -0.049476847 0.46799999 7.2787268e-39
0.00080485252 -0.049476847 0.46799999 3.6863342e-39
0.0024146189 -0.049476847 0.46799999 1.5671763e-38
0.0040243547 -0.049476847 0.46799999 7.6515184e-39
0.0056340904 -0.049476847 0.46799999 8.1124966e-39
0.0070735645 -0.048313927 0.45699999 1.0415896e-38
0.0086454647 -0.048313927 0.45699999 9.3095488e-39
0.010217365 -0.048313927 0.45699999 8.6652584e-39
0.011789264 -0.048313927 0.45699999 6.9135414e-39
0.013361194 -0.048313927 0.45699999 1.7054008e-38
0.014965772 -0.048419647 0.458 1.8344747e-38
-0.0056581674 -0.05131742 0.47 8.2039313e-39
-0.0040243547 -0.051099047 0.46799999 6.8209968e-39
-0.0024146189 -0.051099047 0.46799999 6.5440232e-39
-0.00080488314 -0.051099047 0.46799999 6.7284145e-39
0.00080657238 -0.051208235 0.46900001 3.741579e-40
0.0024197784 -0.051208235 0.46900001 1.6692782e-38
0.0040329536 -0.051208235 0.46900001 7.5614738e-39
0.0055137035 -0.050007187 0.458 8.1146476e-39
0.0070735645 -0.049897999 0.45699999 9.7705311e-39
0.0086454647 -0.049897999 0.45699999 9.1251617e-39
0.010217365 -0.049897999 0.45699999 8.2042844e-39
0.011789264 -0.049897999 0.45699999 8.5730669e-39
0.013361194 -0.049897999 0.45699999 1.4472504e-38
-0.008929248 -0.05317184 0.472 1.1244945e-38
-0.0072902762 -0.053059183 0.47099999 9.1244456e-39
-0.0056461291 -0.052833881 0.46900001 7.7433091e-39
-0.0040243547 -0.052721228 0.46799999 7.005744e-39
-0.0024146189 -0.052721228 0.46799999 6.4518276e-39
-0.00080488314 -0.052721228 0.46799999 6.2674363e-39
0.00080657238 -0.052833881 0.46900001 4.5255144e-39
0.0024197784 -0.052833881 0.46900001 1.6879729e-38
0.0040329536 -0.052833881 0.46900001 7.7444175e-39
0.0055137035 -0.051594704 0.458 9.5883301e-39
0.0070890435 -0.051594704 0.458 9.6801264e-39
0.0086454647 -0.051482052 0.45699999 9.0347569e-39
0.010217365 -0.051482052 0.45699999 9.1247918e-39
0.011789264 -0.051482052 0.45699999 1.0692117e-38
0.013361194 -0.051482052 0.45699999 1.2352695e-38
-0.010597458 -0.055040143 0.47400001 1.0604947e-38
-0.008929248 -0.054807905 0.472 9.8627268e-39
-0.00725932 -0.054459549 0.46900001 8.5719879e-39
-0.0056461291 -0.054459549 0.46900001 7.833704e-39
-0.0040243547 -0.054343428 0.46799999 6.7273565e-39
-0.0024146189 -0.054343428 0.46799999 6.5433169e-39
-0.00080488314 -0.054343428 0.46799999 5.0681869e-39
0.00080829207 -0.054575667 0.47 1.3092891e-38
0.0024249377 -0.054575667 0.47 1.668852e-38
0.0040415525 -0.054575667 0.47 8.3911994e-39
0.0055137035 -0.053182244 0.458 9.7741339e-39
0.0070890435 -0.053182244 0.458 1.0508445e-38
0.0086643826 -0.053182244 0.458 9.4020975e-39
0.010239722 -0.053182244 0.458 8.7567183e-39
0.011815062 -0.053182244 0.458 1.1061609e-38
0.013390432 -0.053182244 0.458 1.1061581e-38
0.014965772 -0.053182244 0.458 1.8160645e-38
0.016613342 -0.053414483 0.46000001 1.7149075e-38
-0.013975167 -0.057161454 0.47799999 1.6871425e-38
-0.012279442 -0.05692229 0.47600001 1.0143263e-38
-0.010597458 -0.056683119 0.47400001 1.0419849e-38
-0.008891413 -0.056204777 0.47 9.2187993e-39
-0.00725932 -0.056085195 0.46900001 8.296843e-39
-0.0056461291 -0.056085195 0.46900001 7.3745237e-39
-0.0040329536 -0.056085195 0.46900001 6.6369587e-39
-0.0024197784 -0.056085195 0.46900001 5.6235116e-39
-0.000806603 -0.056085195 0.46900001 5.9922942e-39
0.00080829207 -0.056204777 0.47 1.8618876e-38
0.0024300972 -0.056324363 0.47099999 1.5760812e-38
0.0040501519 -0.056324363 0.47099999 8.9396872e-39
0.0055738972 -0.055367686 0.463 1.0691404e-38
0.0071199997 -0.055008933 0.46000001 8.7581771e-39
0.0086833015 -0.054889347 0.45899999 8.020612e-39
0.010239722 -0.054769762 0.458 8.3872267e-39
0.011815062 -0.054769762 0.458 8.9404005e-39
0.013390432 -0.054769762 0.458 8.5741193e-39
0.014965772 -0.054769762 0.458 1.7056117e-38
0.016577227 -0.054889347 0.45899999 1.7240567e-38
-0.01394593 -0.058695272 0.477 1.4750922e-38
-0.012279442 -0.058572222 0.47600001 9.9577922e-39
-0.0105751 -0.058203064 0.47299999 9.8655966e-39
-0.008891413 -0.057833914 0.47 9.1237394e-39
-0.0072747977 -0.057833914 0.47 8.1095875e-39
-0.0056581674 -0.057833914 0.47 7.0975725e-39
-0.0040415525 -0.057833914 0.47 6.3600075e-39
-0.0024249377 -0.057833914 0.47 4.8845005e-39
-0.00081004266 -0.057956964 0.47099999 1.050843e-38
0.00081173162 -0.058080018 0.472 1.9084142e-38
0.0024352565 -0.058080018 0.472 1.1524101e-38
0.0040587503 -0.058080018 0.472 9.030092e-39
0.0055618589 -0.056849509 0.46200001 9.9520483e-39
0.0071199997 -0.056603406 0.46000001 8.6634647e-39
0.0086833015 -0.056480352 0.45899999 8.7556603e-39
0.010239722 -0.056357302 0.458 8.4790734e-39
0.011815062 -0.056357302 0.458 8.4790734e-39
0.013390432 -0.056357302 0.458 9.1265924e-39
0.014998448 -0.056480352 0.45899999 1.7332003e-38
0.016577227 -0.056480352 0.45899999 1.724056e-38
-0.021963682 -0.059842598 0.47299999 1.7701533e-38
-0.020336734 -0.059842598 0.47299999 1.7517142e-38
-0.018709799 -0.059842598 0.47299999 1.7791551e-38
-0.01704675 -0.059716083 0.472 1.7791551e-38
-0.01542324 -0.059716083 0.472 1.8709551e-38
-0.013828984 -0.059842598 0.47299999 1.3730987e-38
-0.012176252 -0.059716083 0.472 1.0876512e-38
-0.010552743 -0.059716083 0.472 9.8623596e-39
-0.0089103309 -0.059589565 0.47099999 8.4808741e-39
-0.0072747977 -0.05946305 0.47 7.8355047e-39
-0.0056581674 -0.05946305 0.47 7.0053769e-39
-0.0040415525 -0.05946305 0.47 5.3458556e-39
-0.0024249377 -0.05946305 0.47 3.5919876e-39
-0.00081176247 -0.059716083 0.472 1.4471062e-38
0.00081173162 -0.059716083 0.472 1.8164337e-38
0.0024352565 -0.059716083 0.472 9.4057521e-39
0.0039813593 -0.05857743 0.463 9.8612946e-39
0.0055498197 -0.058324393 0.461 1.0045686e-38
0.0071354783 -0.058324393 0.461 9.4006794e-39
0.0086833015 -0.058071356 0.45899999 8.8475056e-39
0.01026208 -0.058071356 0.45899999 8.2046361e-39
0.011840859 -0.058071356 0.45899999 8.2968318e-39
0.013419669 -0.058071356 0.45899999 8.6663149e-39
0.014998448 -0.058071356 0.45899999 1.7148313e-38
0.016613342 -0.058197878 0.46000001 1.7056885e-38
-0.021917246 -0.061352126 0.472 1.8249997e-38
-0.020293737 -0.061352126 0.472 1.5299737e-38
-0.018670244 -0.061352126 0.472 1.4099348e-38
-0.01704675 -0.061352126 0.472 1.3177392e-38
-0.01542324 -0.061352126 0.472 1.3729484e-38
-0.013799746 -0.061352126 0.472 1.317631e-38
-0.012176252 -0.061352126 0.472 9.7676304e-39
-0.010530385 -0.061222143 0.47099999 1.0136413e-38
-0.0089103309 -0.061222143 0.47099999 8.7574736e-39
-0.0072902762 -0.061222143 0.47099999 7.8355173e-39
-0.0056702062 -0.061222143 0.47099999 6.7298592e-39
-0.0040501519 -0.061222143 0.47099999 6.1766854e-39
-0.0024352565 -0.061352126 0.472 3.6866929e-39
-0.00081176247 -0.061352126 0.472 1.650188e-38
0.00081173162 -0.061352126 0.472 1.8622072e-38
0.0023785029 -0.059922308 0.461 9.9556833e-39
0.0039641615 -0.059922308 0.461 1.0509541e-38
0.0055377809 -0.059792329 0.46000001 1.0417345e-38
0.0071199997 -0.059792329 0.46000001 8.8496636e-39
0.0087022185 -0.059792329 0.46000001 8.2964899e-39
0.01026208 -0.059662342 0.45899999 8.2971849e-39
0.011840859 -0.059662342 0.45899999 8.2971849e-39
0.013419669 -0.059662342 0.45899999 8.7574218e-39
0.015031124 -0.059792329 0.46000001 1.7147224e-38
0.016613342 -0.059792329 0.46000001 1.7056532e-38
-0.021917246 -0.062988192 0.472 1.363691e-38
-0.020293737 -0.062988192 0.472 1.511204e-38
-0.018591132 -0.062721297 0.47 1.5297563e-38
-0.016974518 -0.062721297 0.47 1.4191216e-38
-0.015357887 -0.062721297 0.47 1.3636948e-38
-0.01377051 -0.062854744 0.47099999 1.3729143e-38
-0.012124658 -0.062721297 0.47 1.2533852e-38
-0.010508028 -0.062721297 0.47 6.2645496e-39
-0.008891413 -0.062721297 0.47 4.1501752e-39
-0.0072747977 -0.062721297 0.47 4.8877332e-39
-0.0056702062 -0.062854744 0.47099999 6.1691212e-39
-0.0040501519 -0.062854744 0.47099999 5.3393731e-39
-0.0024352565 -0.062988192 0.472 5.6263927e-39
-0.00081176247 -0.062988192 0.472 1.1895696e-38
0.00079109438 -0.061386801 0.46000001 1.6318967e-38
0.0023733433 -0.061386801 0.46000001 9.7730773e-39
0.0039469632 -0.061253347 0.45899999 1.0233303e-38
0.0055257427 -0.061253347 0.45899999 9.4035423e-39
0.0071045221 -0.061253347 0.45899999 8.8478588e-39
0.0087022185 -0.061386801 0.46000001 8.4790762e-39
0.01026208 -0.061253347 0.45899999 8.3875799e-39
0.011840859 -0.061253347 0.45899999 8.4797755e-39
0.013419669 -0.061253347 0.45899999 8.6645227e-39
0.015031124 -0.061386801 0.46000001 1.6040173e-38
0.01672169 -0.061787147 0.463 1.7056882e-38
-0.021824379 -0.064350404 0.47 1.4009348e-38
-0.020207748 -0.064350404 0.47 1.5484478e-38
-0.018591132 -0.064350404 0.47 1.4281967e-38
-0.016938403 -0.064213492 0.46900001 1.253025e-38
-0.015325212 -0.064213492 0.46900001 1.206999e-38
-0.013712036 -0.064213492 0.46900001 1.206999e-38
-0.012124658 -0.064350404 0.47 1.2069622e-38
-0.010508028 -0.064350404 0.47 1.2254013e-38
-0.008891413 -0.064350404 0.47 8.4779636e-39
-0.0072747977 -0.064350404 0.47 6.7262466e-39
-0.0056581674 -0.064350404 0.47 4.2398583e-39
-0.0040415525 -0.064350404 0.47 5.3461961e-39
-0.0023578648 -0.062570497 0.45699999 1.2258015e-38
-0.00078596489 -0.062570497 0.45699999 1.299558e-38
0.00078593503 -0.062570497 0.45699999 1.3914649e-38
0.0023630245 -0.062707417 0.458 1.3269279e-38
0.0039383639 -0.062707417 0.458 1.0692448e-38
0.0055137035 -0.062707417 0.458 8.3875574e-39
0.0070890435 -0.062707417 0.458 7.6514469e-39
0.0086833015 -0.062844329 0.45899999 7.9280338e-39
0.01026208 -0.062844329 0.45899999 8.0191533e-39
0.011866656 -0.062981248 0.46000001 7.834762e-39
0.013448905 -0.062981248 0.46000001 7.6543308e-39
0.015031124 -0.062981248 0.46000001 1.3647047e-38
0.016685575 -0.063255079 0.46200001 1.733239e-38
-0.021824379 -0.06597954 0.47 1.4559996e-38
-0.020207748 -0.06597954 0.47 1.3177061e-38
-0.018551579 -0.065839164 0.46900001 1.2806837e-38
-0.016938403 -0.065839164 0.46900001 1.2806837e-38
-0.015292535 -0.06569878 0.46799999 1.1888117e-38
-0.013682799 -0.06569878 0.46799999 1.1242748e-38
-0.012073063 -0.06569878 0.46799999 1.1241306e-38
