# .PCD v0.7 - Point Cloud Data file format
VERSION 0.7
FIELDS x y z rgb
SIZE 4 4 4 4
TYPE F F F F
COUNT 1 1 1 1
WIDTH 998
HEIGHT 1
VIEWPOINT 0 0 0 1 0 0 0
POINTS 998
DATA ascii
-0.0023062706 0.034861531 0.447 5.9800692e-39
-0.00076876662 0.034861531 0.447 5.7034865e-39
0.00075841881 0.034393594 0.44100001 4.6007431e-39
0.0022753139 0.034393594 0.44100001 3.9553835e-39
0.0037921804 0.034393594 0.44100001 3.7709979e-39
0.0053331237 0.034549572 0.44299999 3.4944124e-39
0.0068568694 0.034549572 0.44299999 2.5767749e-39
0.008437369 0.034783542 0.44600001 2.5767749e-39
0.0099714333 0.034783542 0.44600001 3.4940606e-39
0.011505498 0.034783542 0.44600001 3.9550388e-39
0.013039591 0.034783542 0.44600001 5.618474e-39
0.014606331 0.034861531 0.447 3.3136112e-39
0.016143836 0.034861531 0.447 3.4936949e-39
0.017641785 0.034783542 0.44600001 1.2252273e-38
0.019175848 0.034783542 0.44600001 1.456367e-38
0.022792624 0.035641428 0.45699999 1.4930635e-38
0.024364524 0.035641428 0.45699999 1.1150614e-38
0.025936423 0.035641428 0.45699999 1.363233e-38
0.027568519 0.035719421 0.458 1.280257e-38
0.029271122 0.035875402 0.46000001 1.1233412e-38
0.030853342 0.035875402 0.46000001 1.5750998e-38
0.032435559 0.035875402 0.46000001 1.4193801e-38
0.034091763 0.035953391 0.461 1.4285997e-38
0.035832204 0.036109369 0.463 1.4011177e-38
0.037424739 0.036109369 0.463 1.5025329e-38
0.039017279 0.036109369 0.463 1.4751654e-38
-0.006949754 0.033461191 0.449 5.529165e-39
-0.0053933174 0.033386666 0.44800001 1.8377861e-39
-0.0038523737 0.033386666 0.44800001 2.3909557e-39
-0.0023114302 0.033386666 0.44800001 5.2439699e-39
-0.00077220629 0.033461191 0.449 4.9673831e-39
0.00077217695 0.033461191 0.449 4.6003844e-39
0.0023165895 0.033461191 0.449 4.2316075e-39
0.0038437746 0.033312142 0.447 3.956108e-39
0.0053331237 0.033014048 0.44299999 3.4951298e-39
0.0068568694 0.033014048 0.44299999 2.5767749e-39
0.008437369 0.033237621 0.44600001 2.6689691e-39
0.0099714333 0.033237621 0.44600001 2.4842219e-39
0.011505498 0.033237621 0.44600001 2.9452001e-39
0.013039591 0.033237621 0.44600001 3.0363195e-39
0.014573655 0.033237621 0.44600001 3.4972976e-39
0.016107719 0.033237621 0.44600001 4.8762664e-39
0.017602229 0.033163093 0.44499999 6.9045703e-39
0.019089859 0.033088572 0.44400001 8.9317741e-39
0.020617044 0.033088572 0.44400001 9.0239697e-39
0.022692876 0.033908334 0.45500001 1.1048682e-38
0.024257898 0.033908334 0.45500001 7.7296394e-39
0.025936423 0.034057379 0.45699999 9.1100627e-39
0.027568519 0.034131903 0.458 8.9256715e-39
0.029271122 0.034280952 0.46000001 6.7068611e-39
0.030853342 0.034280952 0.46000001 1.2238593e-38
0.032435559 0.034280952 0.46000001 1.2625759e-38
0.034091763 0.034355473 0.461 1.3639911e-38
0.035754815 0.034430001 0.46200001 1.3728829e-38
0.037343912 0.034430001 0.46200001 1.1147352e-38
0.039017279 0.034504522 0.463 1.4828735e-38
0.040609818 0.034504522 0.463 1.473654e-38
0.0422935 0.034579046 0.46399999 1.3917202e-38
0.04398407 0.034653571 0.465 1.5023549e-38
0.045583516 0.034653571 0.465 1.4289934e-38
0.047284406 0.034728091 0.46599999 1.4566521e-38
0.04888726 0.034728091 0.46599999 1.4382127e-38
0.053926285 0.03487714 0.46799999 1.4382496e-38
-0.0069187968 0.03176273 0.447 1.5210446e-38
-0.0053812782 0.03176273 0.447 1.3450816e-38
-0.0038523737 0.031833787 0.44800001 6.9971218e-39
-0.0023114302 0.031833787 0.44800001 4.3220319e-39
-0.00077048648 0.031833787 0.44800001 4.6908144e-39
0.00077045715 0.031833787 0.44800001 3.956108e-39
0.0023114302 0.031833787 0.44800001 4.0483036e-39
0.0038523737 0.031833787 0.44800001 4.5071238e-39
0.00536924 0.031691674 0.44600001 4.0461456e-39
0.0069033043 0.031691674 0.44600001 3.5866066e-39
0.008437369 0.031691674 0.44600001 3.5866066e-39
0.0099714333 0.031691674 0.44600001 3.6788022e-39
0.011505498 0.031691674 0.44600001 3.7709979e-39
0.013068828 0.03176273 0.447 4.0483036e-39
0.014573655 0.031691674 0.44600001 3.5873255e-39
0.016107719 0.031691674 0.44600001 3.8606852e-39
0.017602229 0.031620614 0.44499999 3.5840983e-39
0.019089859 0.031549558 0.44400001 6.5343192e-39
0.020617044 0.031549558 0.44400001 8.2860362e-39
0.022593128 0.032189075 0.45300001 8.1027407e-39
0.024151269 0.032189075 0.45300001 5.79785e-39
0.025822919 0.032331191 0.45500001 6.8066041e-39
0.027568519 0.032544363 0.458 7.6363648e-39
0.029271122 0.032686479 0.46000001 6.6153843e-39
0.030853342 0.032686479 0.46000001 7.9983132e-39
0.032435559 0.032686479 0.46000001 7.8258007e-39
0.034091763 0.032757536 0.461 7.3648226e-39
0.035677422 0.032757536 0.461 9.7630104e-39
0.037343912 0.032828595 0.46200001 5.2454245e-39
0.039017279 0.032899652 0.463 1.2145331e-38
0.040609818 0.032899652 0.463 1.3528266e-38
0.042202353 0.032899652 0.463 1.1043579e-38
0.043889478 0.032970708 0.46399999 1.8972403e-38
0.045583516 0.033041768 0.465 1.5015255e-38
0.047182932 0.033041768 0.465 1.7688928e-38
0.04888726 0.033112824 0.46599999 1.2811153e-38
0.050598469 0.033183884 0.46700001 1.539263e-38
0.052316546 0.03325494 0.46799999 1.4749483e-38
0.053926285 0.03325494 0.46799999 1.4657288e-38
0.05553605 0.03325494 0.46799999 1.4198465e-38
-0.019390838 0.030483684 0.45100001 1.6594825e-38
-0.017839577 0.030483684 0.45100001 1.6961815e-38
-0.016324431 0.030551273 0.45199999 1.5302294e-38
-0.014769713 0.030551273 0.45199999 1.4471817e-38
-0.0099938046 0.030213321 0.447 1.1979283e-38
-0.0084563009 0.030213321 0.447 8.3854457e-39
-0.0069033187 0.030145729 0.44600001 6.2649462e-39
-0.00536924 0.030145729 0.44600001 9.4828137e-39
-0.0038437746 0.030213321 0.447 8.7452487e-39
-0.0023114302 0.03028091 0.44800001 7.6392514e-39
-0.00077048648 0.03028091 0.44800001 4.8733825e-39
0.0007670176 0.030145729 0.44600001 2.4838744e-39
0.0023011111 0.030145729 0.44600001 2.8526569e-39
0.0038351754 0.030145729 0.44600001 3.5859032e-39
0.0054053562 0.030348502 0.449 3.6780988e-39
0.0069497391 0.030348502 0.449 3.6784519e-39
0.008437369 0.030145729 0.44600001 3.7706475e-39
0.0099714333 0.030145729 0.44600001 3.7706475e-39
0.011505498 0.030145729 0.44600001 3.9550388e-39
0.013039591 0.030145729 0.44600001 2.3920291e-39
0.014573655 0.030145729 0.44600001 1.2856969e-39
0.016107719 0.030145729 0.44600001 1.4704483e-39
0.017641785 0.030145729 0.44600001 1.7470352e-39
0.019175848 0.030145729 0.44600001 5.2389561e-39
0.020756347 0.030213321 0.447 5.9765211e-39
0.022443503 0.030416094 0.44999999 7.2708445e-39
0.024097955 0.030551273 0.45199999 4.1361931e-39
0.025822919 0.03075405 0.45500001 6.6211563e-39
0.027568519 0.030956823 0.458 8.5572645e-39
0.029207492 0.031024413 0.45899999 6.4371462e-39
0.030853342 0.031092007 0.46000001 8.8342325e-39
0.032435559 0.031092007 0.46000001 8.7531744e-39
0.034091763 0.031159597 0.461 7.8312181e-39
0.035677422 0.031159597 0.461 1.0225418e-38
0.037343912 0.03122719 0.46200001 4.69368e-39
0.039017279 0.031294782 0.463 1.1047628e-38
0.040609818 0.031294782 0.463 1.1324215e-38
0.042202353 0.031294782 0.463 8.7383669e-39
0.043889478 0.03136237 0.46399999 1.3993518e-38
0.045583516 0.031429961 0.465 1.3169547e-38
0.047182932 0.031429961 0.465 1.6027612e-38
0.048782349 0.031429961 0.465 1.1879157e-38
0.050490119 0.031497553 0.46599999 1.4368439e-38
0.052204765 0.031565145 0.46700001 1.6955699e-38
0.053926285 0.031632736 0.46799999 1.5480569e-38
0.05553605 0.031632736 0.46799999 1.3921499e-38
0.057145786 0.031632736 0.46799999 1.3829304e-38
-0.019390838 0.028920431 0.45100001 1.2254778e-38
-0.017839577 0.028920431 0.45100001 1.1508947e-38
-0.016288314 0.028920431 0.45100001 8.2820999e-39
-0.01470436 0.028856305 0.44999999 8.0015361e-39
-0.013127302 0.028792182 0.449 1.740549e-38
-0.011557121 0.028728055 0.44800001 1.3723094e-38
-0.0099938046 0.028663931 0.447 1.3723094e-38
-0.0084563009 0.028663931 0.447 1.2435257e-38
-0.0069033187 0.028599806 0.44600001 6.0737586e-39
-0.00536924 0.028599806 0.44600001 9.478848e-39
-0.0038437746 0.028663931 0.447 7.7271311e-39
-0.0023114302 0.028728055 0.44800001 6.2509444e-39
-0.00076876662 0.028663931 0.447 6.2509444e-39
0.0007670176 0.028599806 0.44600001 3.8610537e-39
0.0022959518 0.028535681 0.44499999 2.9390974e-39
0.0038265765 0.028535681 0.44499999 1.9310608e-39
0.0053572012 0.028535681 0.44499999 1.9310608e-39
0.0068878261 0.028535681 0.44499999 3.4000728e-39
0.0084184511 0.028535681 0.44499999 3.4922684e-39
0.009949076 0.028535681 0.44499999 3.8599607e-39
0.0114797 0.028535681 0.44499999 3.3989896e-39
0.013010355 0.028535681 0.44499999 5.3322475e-39
0.014573655 0.028599806 0.44600001 5.0556607e-39
0.016107719 0.028599806 0.44600001 9.2977512e-39
0.017641785 0.028599806 0.44600001 6.1630998e-39
0.019175848 0.028599806 0.44600001 8.1845037e-39
0.020756347 0.028663931 0.447 1.0489394e-38
0.022393631 0.028792182 0.449 1.0584852e-38
0.023991326 0.028856305 0.44999999 4.5921363e-39
0.02599318 0.029369306 0.458 3.6755806e-39
0.027568519 0.029369306 0.458 4.0443632e-39
0.029207492 0.029433431 0.45899999 3.4004259e-39
0.030853342 0.029497556 0.46000001 4.5989691e-39
0.032506075 0.029561682 0.461 5.4269571e-39
0.034091763 0.029561682 0.461 4.8737833e-39
0.035754815 0.029625807 0.46200001 5.3361656e-39
0.037343912 0.029625807 0.46200001 3.5844542e-39
0.039017279 0.029689932 0.463 6.1598278e-39
0.040609818 0.029689932 0.463 7.8193491e-39
0.042202353 0.029689932 0.463 5.9732533e-39
0.043794893 0.029689932 0.463 1.0490832e-38
0.045387458 0.029689932 0.463 8.8453855e-39
0.047081463 0.029754056 0.46399999 1.022832e-38
0.048782349 0.029818183 0.465 1.0499872e-38
0.050381768 0.029818183 0.465 8.748155e-39
0.052092973 0.029882306 0.46599999 1.8520131e-38
0.053811058 0.029946433 0.46700001 1.8243544e-38
0.055417389 0.029946433 0.46700001 1.6037665e-38
0.057145786 0.030010557 0.46799999 1.7236208e-38
0.059006613 0.030138807 0.47 1.7971256e-38
0.060623229 0.030138807 0.47 1.6035148e-38
0.062239841 0.030138807 0.47 1.4289932e-38
0.06385646 0.030138807 0.47 1.4013345e-38
-0.034361769 0.026932565 0.44400001 1.604238e-38
-0.032834582 0.026932565 0.44400001 1.6042017e-38
-0.019390838 0.027357176 0.45100001 3.0374083e-39
-0.01780002 0.027296517 0.44999999 9.8426461e-39
-0.016252197 0.027296517 0.44999999 1.2700711e-38
-0.014671684 0.02723586 0.449 9.6589233e-39
-0.013127302 0.02723586 0.449 1.2516988e-38
-0.011557121 0.027175199 0.44800001 1.4739429e-38
-0.0099938046 0.027114542 0.447 1.0037452e-38
-0.008437383 0.027053883 0.44600001 1.3080624e-38
-0.0069033187 0.027053883 0.44600001 4.6908214e-39
-0.00536924 0.027053883 0.44600001 3.767049e-39
-0.0038437746 0.027114542 0.447 4.3202186e-39
-0.0023114302 0.027175199 0.44800001 4.8716225e-39
-0.00076876662 0.027114542 0.447 5.7935788e-39
0.00076529785 0.026993223 0.44499999 8.1924757e-39
0.0022959518 0.026993223 0.44499999 4.9656286e-39
0.0038179774 0.026932565 0.44400001 9.3863469e-39
0.0053451625 0.026932565 0.44400001 5.0531523e-39
0.006872348 0.026932565 0.44400001 7.0774653e-39
0.0083995331 0.026932565 0.44400001 8.4603997e-39
0.0099267187 0.026932565 0.44400001 8.6472951e-39
0.0114797 0.026993223 0.44499999 6.8955781e-39
0.013010355 0.026993223 0.44499999 1.1051581e-38
0.014540979 0.026993223 0.44499999 1.0498408e-38
0.016107719 0.027053883 0.44600001 1.2062519e-38
0.017641785 0.027053883 0.44600001 1.0034215e-38
0.019218843 0.027114542 0.447 7.3561878e-39
0.020802783 0.027175199 0.44800001 9.6610785e-39
0.022393631 0.02723586 0.449 1.0492294e-38
0.023938013 0.02723586 0.449 7.7264248e-39
0.025482398 0.02723586 0.449 6.7068611e-39
0.027688904 0.027903108 0.46000001 6.7990553e-39
0.029271122 0.027903108 0.46000001 4.7772395e-39
0.030920416 0.027963765 0.461 6.3445596e-39
0.032506075 0.027963765 0.461 6.6211563e-39
0.034091763 0.027963765 0.461 6.1601781e-39
0.035754815 0.028024426 0.46200001 5.7002846e-39
0.037343912 0.028024426 0.46200001 4.3173501e-39
0.039017279 0.028085083 0.463 5.9739946e-39
0.040609818 0.028085083 0.463 6.2505815e-39
0.042202353 0.028085083 0.463 3.8588845e-39
0.043794893 0.028085083 0.463 5.7027929e-39
0.045387458 0.028085083 0.463 5.2447238e-39
0.046979997 0.028085083 0.463 4.5993544e-39
0.048677441 0.028145742 0.46399999 3.4973201e-39
0.050381768 0.028206402 0.465 2.02219e-39
0.051981185 0.028206402 0.465 1.1887414e-38
0.053695831 0.028267059 0.46599999 1.4100109e-38
0.055298716 0.028267059 0.46599999 1.4193384e-38
0.057145786 0.028388377 0.46799999 1.3363623e-38
0.05888107 0.028449038 0.46900001 1.4287737e-38
0.060623229 0.028509697 0.47 1.465652e-38
0.062239841 0.028509697 0.47 1.4655465e-38
0.06385646 0.028509697 0.47 1.5024247e-38
-0.034361769 0.025393553 0.44400001 1.576362e-38
-0.032834582 0.025393553 0.44400001 1.4097944e-38
-0.029780198 0.025393553 0.44400001 1.3809894e-38
-0.028253013 0.025393553 0.44400001 1.2887938e-38
-0.026725829 0.025393553 0.44400001 1.1778376e-38
-0.025255382 0.025450744 0.44499999 1.4452049e-38
-0.023724757 0.025450744 0.44499999 1.160297e-38
-0.022194132 0.025450744 0.44499999 1.1971752e-38
-0.020849247 0.025679516 0.449 1.0958307e-38
-0.019304849 0.025679516 0.449 7.8236553e-39
-0.017760465 0.025679516 0.449 1.1044767e-38
-0.016216082 0.025679516 0.449 8.9242674e-39
-0.014671684 0.025679516 0.449 9.9304725e-39
-0.013098065 0.025622323 0.44800001 1.0760233e-38
-0.011557121 0.025622323 0.44800001 1.2808002e-38
-0.0099714473 0.025507938 0.44600001 5.8933302e-39
-0.008437383 0.025507938 0.44600001 6.3449379e-39
-0.0069033187 0.025507938 0.44600001 4.8698078e-39
-0.00536924 0.025507938 0.44600001 4.0439974e-39
-0.0038437746 0.025565131 0.447 4.8737581e-39
-0.0023114302 0.025622323 0.44800001 8.0909194e-39
-0.00076704676 0.025507938 0.44600001 7.2611587e-39
0.00076529785 0.025450744 0.44499999 1.1881383e-38
0.0022959518 0.025450744 0.44499999 7.4559924e-39
0.0038179774 0.025393553 0.44400001 9.7551351e-39
0.0053451625 0.025393553 0.44400001 7.4502443e-39
0.006872348 0.025393553 0.44400001 6.6211563e-39
0.0083995331 0.025393553 0.44400001 8.2806776e-39
0.0099267187 0.025393553 0.44400001 8.6465917e-39
0.011453903 0.025393553 0.44400001 6.8026791e-39
0.013010355 0.025450744 0.44499999 7.9151195e-39
0.014540979 0.025450744 0.44499999 8.7448801e-39
0.016071605 0.025450744 0.44499999 7.8117569e-39
0.017641785 0.025507938 0.44600001 9.4712684e-39
0.019175848 0.025507938 0.44600001 4.9616377e-39
0.020756347 0.025565131 0.447 5.883594e-39
0.022343757 0.025622323 0.44800001 7.5373799e-39
0.023938013 0.025679516 0.449 7.3529886e-39
0.025482398 0.025679516 0.449 7.5398938e-39
0.027749099 0.026365826 0.461 8.5540457e-39
0.029334757 0.026365826 0.461 7.2607775e-39
0.030920416 0.026365826 0.461 9.8422552e-39
0.032506075 0.026365826 0.461 7.8279587e-39
0.034091763 0.026365826 0.461 8.1045456e-39
0.035754815 0.02642302 0.46200001 6.902778e-39
0.037424739 0.026480213 0.463 4.5056916e-39
0.039017279 0.026480213 0.463 7.2639921e-39
0.040609818 0.026480213 0.463 7.4483834e-39
0.042202353 0.026480213 0.463 6.3391716e-39
0.043794893 0.026480213 0.463 7.8143016e-39
0.045387458 0.026480213 0.463 7.4530974e-39
0.046979997 0.026480213 0.463 6.8999236e-39
0.048677441 0.026537403 0.46399999 6.6211563e-39
0.050273418 0.026537403 0.46399999 4.5928524e-39
0.051981185 0.026594598 0.465 9.8576653e-39
0.053580601 0.026594598 0.465 1.0779622e-38
0.055298716 0.02665179 0.46599999 9.6750817e-39
0.057023682 0.026708985 0.46700001 1.0412647e-38
0.058755521 0.026766175 0.46799999 9.861261e-39
0.060494244 0.02682337 0.46900001 1.050663e-38
0.062107421 0.02682337 0.46900001 1.0323325e-38
0.06385646 0.026880562 0.47 1.3826759e-38
-0.034361769 0.023854541 0.44400001 1.5560413e-38
-0.032834582 0.023854541 0.44400001 1.1513291e-38
-0.031307399 0.023854541 0.44400001 8.7474221e-39
-0.029780198 0.023854541 0.44400001 1.5557639e-38
-0.028253013 0.023854541 0.44400001 1.4082509e-38
-0.026725829 0.023854541 0.44400001 1.3988528e-38
-0.025198627 0.023854541 0.44400001 1.0116311e-38
-0.023671443 0.023854541 0.44400001 1.4920943e-38
-0.022144258 0.023854541 0.44400001 1.289264e-38
-0.020709941 0.023961993 0.44600001 1.4279498e-38
-0.019261854 0.024069445 0.44800001 8.5633685e-39
-0.017760465 0.024123173 0.449 1.0025911e-38
-0.016216082 0.024123173 0.449 1.214641e-38
-0.014639009 0.024069445 0.44800001 1.1689724e-38
-0.013098065 0.024069445 0.44800001 7.264334e-39
-0.011531323 0.024015719 0.447 6.5318571e-39
-0.0099714473 0.023961993 0.44600001 6.9928353e-39
-0.008437383 0.023961993 0.44600001 6.5289606e-39
-0.0069033187 0.023961993 0.44600001 7.3587213e-39
-0.00536924 0.023961993 0.44600001 5.6974077e-39
-0.0038437746 0.024015719 0.447 7.9101028e-39
-0.0023114302 0.024069445 0.44800001 9.8465614e-39
-0.00076704676 0.023961993 0.44600001 6.2509318e-39
0.00076529785 0.023908267 0.44499999 9.48572e-39
0.0022959518 0.023908267 0.44499999 4.9681341e-39
0.0038179774 0.023854541 0.44400001 9.6621855e-39
0.0053451625 0.023854541 0.44400001 6.2509472e-39
0.006872348 0.023854541 0.44400001 5.6062701e-39
0.0083995331 0.023854541 0.44400001 6.3438309e-39
0.0099267187 0.023854541 0.44400001 6.8927237e-39
0.011453903 0.023854541 0.44400001 6.062963e-39
0.012981118 0.023854541 0.44400001 4.7794269e-39
0.014540979 0.023908267 0.44499999 8.0062739e-39
0.016071605 0.023908267 0.44499999 3.1263529e-39
0.017602229 0.023908267 0.44499999 6.6297813e-39
0.019175848 0.023961993 0.44600001 2.5724701e-39
0.020756347 0.024015719 0.447 3.5866192e-39
0.022343757 0.024069445 0.44800001 5.5148017e-39
0.023938013 0.024123173 0.449 5.3304104e-39
0.025482398 0.024123173 0.449 6.9892507e-39
0.02702678 0.024123173 0.449 5.7907076e-39
0.029271122 0.024714163 0.46000001 6.9834774e-39
0.030853342 0.024714163 0.46000001 8.1820206e-39
0.032435559 0.024714163 0.46000001 8.0109459e-39
0.034017809 0.024714163 0.46000001 8.1031415e-39
0.035677422 0.024767889 0.461 7.7311038e-39
0.037343912 0.024821615 0.46200001 5.3340174e-39
0.039017279 0.024875341 0.463 7.3554899e-39
0.040609818 0.024875341 0.463 8.1852506e-39
0.042202353 0.024875341 0.463 6.1583859e-39
0.043794893 0.024875341 0.463 9.846211e-39
0.045387458 0.024875341 0.463 8.5702307e-39
0.046979997 0.024875341 0.463 8.2936438e-39
0.048677441 0.024929067 0.46399999 8.4726022e-39
0.050273418 0.024929067 0.46399999 5.0613639e-39
0.051981185 0.024982795 0.465 9.4867247e-39
0.053580601 0.024982795 0.465 9.3023335e-39
0.055298716 0.025036521 0.46599999 9.3019832e-39
0.057023682 0.025090247 0.46700001 1.0500526e-38
0.058755521 0.025143974 0.46799999 9.5828762e-39
0.060494244 0.025197702 0.46900001 8.8453112e-39
0.062107421 0.025197702 0.46900001 8.9436697e-39
0.06385646 0.025251428 0.47 1.3553451e-38
-0.038855627 0.022265289 0.44299999 1.6226403e-38
-0.037416153 0.022315551 0.44400001 1.1616621e-38
-0.03588897 0.022315551 0.44400001 1.0684207e-38
-0.034361769 0.022315551 0.44400001 1.3173489e-38
-0.032834582 0.022315551 0.44400001 1.5656359e-38
-0.031236885 0.022265289 0.44299999 9.4792516e-39
-0.029713124 0.022265289 0.44299999 7.3532969e-39
-0.028189378 0.022265289 0.44299999 1.0211357e-38
-0.026665634 0.022265289 0.44299999 1.021496e-38
-0.025141872 0.022265289 0.44299999 8.2788517e-39
-0.023671443 0.022315551 0.44400001 9.5811176e-39
-0.022144258 0.022315551 0.44400001 1.3176747e-38
-0.020663507 0.022365808 0.44499999 1.2797877e-38
-0.019132867 0.022365808 0.44499999 1.3166659e-38
-0.017641798 0.02241607 0.44600001 9.1111347e-39
-0.016143849 0.02246633 0.447 1.1784808e-38
-0.014639009 0.02251659 0.44800001 9.1082733e-39
-0.013068828 0.02246633 0.447 7.4487519e-39
-0.011531323 0.02246633 0.447 6.5232251e-39
-0.0099714473 0.02241607 0.44600001 9.3812896e-39
-0.008437383 0.02241607 0.44600001 7.9125873e-39
-0.0069033187 0.02241607 0.44600001 8.3735655e-39
-0.00536924 0.02241607 0.44600001 5.4240452e-39
-0.0038437746 0.02246633 0.447 6.5303928e-39
-0.0023062706 0.02246633 0.447 8.091983e-39
-0.00076704676 0.02241607 0.44600001 5.8792878e-39
0.00076529785 0.022365808 0.44499999 6.9052962e-39
0.0022959518 0.022365808 0.44499999 4.7847967e-39
0.0038265765 0.022365808 0.44499999 5.3369195e-39
0.0053451625 0.022315551 0.44400001 5.3369195e-39
0.006872348 0.022315551 0.44400001 2.4809933e-39
0.0083995331 0.022315551 0.44400001 4.8780741e-39
0.0099267187 0.022315551 0.44400001 5.8832115e-39
0.011453903 0.022315551 0.44400001 6.1597942e-39
0.012981118 0.022315551 0.44400001 4.7808338e-39
0.014540979 0.022365808 0.44499999 1.1050137e-38
0.016071605 0.022365808 0.44499999 7.4523393e-39
0.017602229 0.022365808 0.44499999 1.1969925e-38
0.019132853 0.022365808 0.44499999 6.2592037e-39
0.020709913 0.02241607 0.44600001 7.7343338e-39
0.022293881 0.02246633 0.447 9.296605e-39
0.023938013 0.022566851 0.449 8.1902574e-39
0.025482398 0.022566851 0.449 1.0502383e-38
0.027147166 0.022667371 0.45100001 2.7579502e-39
0.028698428 0.022667371 0.45100001 4.410259e-39
0.030853342 0.023119712 0.46000001 4.410259e-39
0.032435559 0.023119712 0.46000001 6.0748502e-39
0.034017809 0.023119712 0.46000001 4.9685027e-39
0.035677422 0.023169972 0.461 6.2563394e-39
0.03726308 0.023169972 0.461 4.2280356e-39
0.039017279 0.023270493 0.463 6.340982e-39
0.040609818 0.023270493 0.463 6.1565908e-39
0.042202353 0.023270493 0.463 4.7772395e-39
0.043794893 0.023270493 0.463 6.8977361e-39
0.045387458 0.023270493 0.463 6.8084244e-39
0.047081463 0.023320753 0.46399999 6.7162288e-39
0.048782349 0.023371015 0.465 6.0675999e-39
0.050381768 0.023371015 0.465 5.0534634e-39
0.051981185 0.023371015 0.465 8.1013114e-39
0.053580601 0.023371015 0.465 9.5764415e-39
0.055298716 0.023421274 0.46599999 8.4772419e-39
0.057145786 0.023521794 0.46799999 8.4772419e-39
0.058755521 0.023521794 0.46799999 7.8358648e-39
0.060494244 0.023572056 0.46900001 1.1984668e-38
0.062107421 0.023572056 0.46900001 1.3922622e-38
0.06385646 0.023622315 0.47 1.3461644e-38
-0.03588897 0.020776536 0.44400001 1.5662766e-38
-0.034284376 0.020729743 0.44299999 8.2871152e-39
-0.032686677 0.02068295 0.442 1.3256711e-38
-0.031166373 0.02068295 0.442 1.2980124e-38
-0.029646052 0.02068295 0.442 6.6232918e-39
-0.028125746 0.02068295 0.442 8.0062263e-39
-0.02660544 0.02068295 0.442 6.6164619e-39
-0.025141872 0.020729743 0.44299999 5.9711009e-39
-0.023671443 0.020776536 0.44400001 3.032365e-39
-0.022144258 0.020776536 0.44400001 7.9187278e-39
-0.020663507 0.02082333 0.44499999 4.8701512e-39
-0.019132867 0.02082333 0.44499999 8.8345576e-39
-0.017602243 0.02082333 0.44499999 4.043273e-39
-0.016071618 0.02082333 0.44499999 6.9013305e-39
-0.014573655 0.020870125 0.44600001 1.0944675e-38
-0.013039591 0.020870125 0.44600001 1.0022719e-38
-0.011505526 0.020870125 0.44600001 7.0767772e-39
-0.0099714473 0.020870125 0.44600001 8.2753204e-39
-0.008437383 0.020870125 0.44600001 6.0675999e-39
-0.0069033187 0.020870125 0.44600001 6.6207667e-39
-0.0053812782 0.020916918 0.447 4.0439974e-39
-0.0038523737 0.020963712 0.44800001 5.4269319e-39
-0.0023011111 0.020870125 0.44600001 6.1587362e-39
-0.00076704676 0.020870125 0.44600001 4.4081038e-39
0.00076529785 0.02082333 0.44499999 6.9964212e-39
0.0022959518 0.02082333 0.44499999 8.1949644e-39
0.0038265765 0.02082333 0.44499999 8.0127031e-39
0.0053451625 0.020776536 0.44400001 1.0962963e-38
0.006872348 0.020776536 0.44400001 5.8911134e-39
0.0083995331 0.020776536 0.44400001 8.8413736e-39
0.0099267187 0.020776536 0.44400001 9.6643015e-39
0.011453903 0.020776536 0.44400001 9.1111277e-39
0.012981118 0.020776536 0.44400001 6.7154707e-39
0.014508303 0.020776536 0.44400001 1.3076962e-38
0.016035488 0.020776536 0.44400001 9.3876894e-39
0.017602229 0.02082333 0.44499999 1.2522341e-38
0.019132853 0.02082333 0.44499999 6.2559891e-39
0.020709913 0.020870125 0.44600001 6.0715978e-39
0.022293881 0.020916918 0.447 8.1870204e-39
0.023938013 0.021010507 0.449 5.789941e-39
0.025482398 0.021010507 0.449 8.7484619e-39
0.027147166 0.021104094 0.45100001 7.5499187e-39
0.028698428 0.021104094 0.45100001 5.420818e-39
0.030316763 0.021150887 0.45199999 7.4491219e-39
0.032435559 0.02152524 0.46000001 7.925597e-39
0.034017809 0.02152524 0.46000001 4.7909456e-39
0.035677422 0.021572033 0.461 7.6418102e-39
0.03726308 0.021572033 0.461 3.21642e-39
0.039017279 0.021665622 0.463 5.9743449e-39
0.040609818 0.021665622 0.463 5.5133668e-39
0.042202353 0.021665622 0.463 1.5619209e-39
0.043889478 0.021712415 0.46399999 3.9590045e-39
0.045583516 0.02175921 0.465 3.4022181e-39
0.047182932 0.02175921 0.465 5.1539351e-39
0.048782349 0.02175921 0.465 6.4392467e-40
0.050381768 0.02175921 0.465 9.2050876e-40
0.051981185 0.02175921 0.465 1.1799624e-38
0.053695831 0.021806004 0.46599999 1.1615233e-38
0.055417389 0.021852799 0.46700001 1.0597407e-38
0.057389997 0.021993181 0.47 1.2533515e-38
0.05888107 0.021946387 0.46900001 1.3921162e-38
0.060494244 0.021946387 0.46900001 1.4289944e-38
0.062107421 0.021946387 0.46900001 1.3737126e-38
-0.046579294 0.019237546 0.44400001 1.6225314e-38
-0.045052093 0.019237546 0.44400001 1.7235832e-38
-0.04352491 0.019237546 0.44400001 1.6406072e-38
-0.041997723 0.019237546 0.44400001 1.576069e-38
-0.040379371 0.019194217 0.44299999 1.6129472e-38
-0.038855627 0.019194217 0.44299999 1.52068e-38
-0.037416153 0.019237546 0.44400001 1.373167e-38
-0.035808135 0.019194217 0.44299999 1.1426398e-38
-0.034284376 0.019194217 0.44299999 9.7668765e-39
-0.03261273 0.019107563 0.44100001 8.3731997e-39
-0.031095862 0.019107563 0.44100001 1.1415656e-38
-0.029578982 0.019107563 0.44100001 3.1278173e-39
-0.028062114 0.019107563 0.44100001 3.0356217e-39
-0.02660544 0.01915089 0.442 5.6059407e-39
-0.025141872 0.019194217 0.44299999 5.790332e-39
-0.023671443 0.019237546 0.44400001 4.9609105e-39
-0.022144258 0.019237546 0.44400001 9.2941037e-39
-0.020663507 0.019280873 0.44499999 7.4465673e-39
-0.019132867 0.019280873 0.44499999 1.1042194e-38
-0.017602243 0.019280873 0.44499999 8.4664884e-39
-0.016071618 0.019280873 0.44499999 9.1118578e-39
-0.014540979 0.019280873 0.44499999 1.3716257e-38
-0.013010355 0.019280873 0.44499999 8.9220841e-39
-0.01147973 0.019280873 0.44499999 6.2494927e-39
-0.0099714473 0.019324202 0.44600001 6.6182752e-39
-0.008437383 0.019324202 0.44600001 3.8606852e-39
-0.0069187968 0.019367529 0.447 5.888989e-39
-0.0053933174 0.019410856 0.44800001 6.9902793e-39
-0.0038523737 0.019410856 0.44800001 9.9405395e-39
-0.0023011111 0.019324202 0.44600001 9.9416072e-39
-0.00076704676 0.019324202 0.44600001 7.5445209e-39
0.00076529785 0.019280873 0.44499999 8.3833185e-39
0.0022959518 0.019280873 0.44499999 1.1149187e-38
0.0038265765 0.019280873 0.44499999 8.5600895e-39
0.0053572012 0.019280873 0.44499999 1.2708893e-38
0.006872348 0.019237546 0.44400001 5.515152e-39
0.0083995331 0.019237546 0.44400001 8.0044312e-39
0.0099267187 0.019237546 0.44400001 8.2734539e-39
0.011453903 0.019237546 0.44400001 8.2734539e-39
0.012981118 0.019237546 0.44400001 5.7877887e-39
0.014508303 0.019237546 0.44400001 1.0028782e-38
0.016035488 0.019237546 0.44400001 7.8210839e-39
0.017602229 0.019280873 0.44499999 1.0679144e-38
0.019132853 0.019280873 0.44499999 6.9946233e-39
0.020709913 0.019324202 0.44600001 6.1648627e-39
0.022293881 0.019367529 0.447 8.6498132e-39
0.023938013 0.019454185 0.449 7.4512701e-39
0.025482398 0.019454185 0.449 9.3945557e-39
0.027147166 0.019540841 0.45100001 1.1699446e-38
0.028762061 0.019584168 0.45199999 7.0839351e-39
0.030316763 0.019584168 0.45199999 6.9917395e-39
0.03194198 0.019627497 0.45300001 8.2932907e-39
0.034017809 0.019930791 0.46000001 7.0025519e-39
0.035677422 0.019974118 0.461 8.6563097e-39
0.037343912 0.020017447 0.46200001 5.4294626e-39
0.039017279 0.020060774 0.463 8.5579539e-39
0.040609818 0.020060774 0.463 8.3735627e-39
0.042202353 0.020060774 0.463 5.0574207e-39
0.043889478 0.020104101 0.46399999 9.8515934e-39
0.045583516 0.02014743 0.465 6.5339591e-39
0.047182932 0.02014743 0.465 9.1154367e-39
0.048782349 0.02014743 0.465 4.627648e-40
0.050381768 0.02014743 0.465 9.4979323e-39
0.051981185 0.02014743 0.465 1.4749869e-38
0.053695831 0.020190757 0.46599999 1.4196695e-38
-0.046579294 0.017698534 0.44400001 1.4745106e-38
-0.044950623 0.017658671 0.44299999 1.373203e-38
-0.043426879 0.017658671 0.44299999 1.2625682e-38
-0.041903131 0.017658671 0.44299999 1.225724e-38
-0.040379371 0.017658671 0.44299999 1.1796262e-38
-0.038855627 0.017658671 0.44299999 1.1610454e-38
-0.037331879 0.017658671 0.44299999 1.105728e-38
-0.035808135 0.017658671 0.44299999 1.0965085e-38
-0.034206983 0.017618811 0.442 9.5821504e-39
-0.03261273 0.01757895 0.44100001 4.6864802e-39
-0.031095862 0.01757895 0.44100001 6.0694146e-39
-0.029578982 0.01757895 0.44100001 7.0872043e-39
-0.028062114 0.01757895 0.44100001 3.9525529e-39
-0.02660544 0.017618811 0.442 7.0774653e-39
-0.025141872 0.017658671 0.44299999 8.5525954e-39
-0.023671443 0.017698534 0.44400001 6.6186381e-39
-0.022144258 0.017698534 0.44400001 1.122842e-38
-0.020663507 0.017738394 0.44499999 1.0316518e-38
-0.019132867 0.017738394 0.44499999 1.0039931e-38
-0.017602243 0.017738394 0.44499999 1.0589884e-38
-0.016071618 0.017738394 0.44499999 5.8879072e-39
-0.014540979 0.017738394 0.44499999 8.1812695e-39
-0.013010355 0.017738394 0.44499999 6.8905321e-39
-0.01147973 0.017738394 0.44499999 5.3304104e-39
-0.0099714473 0.017778257 0.44600001 8.8338444e-39
-0.008437383 0.017778257 0.44600001 8.1052841e-39
-0.0069342759 0.01785798 0.44800001 8.4740666e-39
-0.0053933174 0.01785798 0.44800001 7.635269e-39
-0.0038437746 0.017818119 0.447 9.5713772e-39
-0.0023011111 0.017778257 0.44600001 9.200417e-39
-0.00076704676 0.017778257 0.44600001 6.8033601e-39
0.00076529785 0.017738394 0.44499999 5.975047e-39
0.0022959518 0.017738394 0.44499999 1.178337e-38
0.0038265765 0.017738394 0.44499999 7.3536556e-39
0.0053572012 0.017738394 0.44499999 1.3254166e-38
0.0068878261 0.017738394 0.44499999 6.3452854e-39
0.0084184511 0.017738394 0.44499999 8.189198e-39
0.009949076 0.017738394 0.44499999 9.9380311e-39
0.011453903 0.017698534 0.44400001 1.0030227e-38
0.012981118 0.017698534 0.44400001 7.0842728e-39
0.014508303 0.017698534 0.44400001 1.1233076e-38
0.016035488 0.017698534 0.44400001 1.0131773e-38
0.017602229 0.017738394 0.44499999 1.105373e-38
0.019132853 0.017738394 0.44499999 8.4744099e-39
0.020709913 0.017778257 0.44600001 6.2617148e-39
0.022293881 0.017818119 0.447 8.4658031e-39
0.023938013 0.017897842 0.449 7.7282381e-39
0.025482398 0.017897842 0.449 7.4552357e-39
0.027147166 0.017977564 0.45100001 8.9303658e-39
0.028762061 0.018017424 0.45199999 7.8276308e-39
0.030316763 0.018017424 0.45199999 3.8632187e-39
0.03194198 0.018057287 0.45300001 6.9024277e-39
0.034091763 0.018376179 0.461 6.4414495e-39
0.035754815 0.018416042 0.46200001 4.8719448e-39
0.037424739 0.018455902 0.463 4.2265852e-39
0.039017279 0.018455902 0.463 6.4345846e-39
0.040609818 0.018455902 0.463 7.2643453e-39
0.042202353 0.018455902 0.463 5.3382969e-39
0.043889478 0.018495765 0.46399999 1.1331003e-38
0.045485485 0.018495765 0.46399999 1.0411945e-38
0.047081463 0.018495765 0.46399999 1.3270009e-38
0.048782349 0.018535627 0.465 1.3001719e-38
0.050490119 0.018575488 0.46599999 1.4292458e-38
-0.046579294 0.016159521 0.44400001 1.0325801e-38
-0.044950623 0.016123125 0.44299999 1.1611896e-38
-0.043426879 0.016123125 0.44299999 1.1796287e-38
-0.041808542 0.016086731 0.442 1.1887038e-38
-0.040288221 0.016086731 0.442 1.1057278e-38
-0.038767915 0.016086731 0.442 1.1789836e-38
-0.037247609 0.016086731 0.442 1.2158618e-38
-0.035808135 0.016123125 0.44299999 1.1515735e-38
-0.034206983 0.016086731 0.442 9.8562135e-39
-0.03261273 0.016050335 0.44100001 6.435686e-39
-0.031095862 0.016050335 0.44100001 5.698121e-39
-0.029578982 0.016050335 0.44100001 1.0491981e-38
-0.028062114 0.016050335 0.44100001 6.6197648e-39
-0.02660544 0.016086731 0.442 8.556526e-39
-0.02508512 0.016086731 0.442 7.9111566e-39
-0.023618128 0.016123125 0.44299999 6.8001651e-39
-0.022194132 0.016195916 0.44499999 6.1547957e-39
-0.020709941 0.016232312 0.44600001 9.0203936e-39
-0.019175863 0.016232312 0.44600001 6.2545247e-39
-0.017602243 0.016195916 0.44499999 8.740602e-39
-0.016071618 0.016195916 0.44499999 4.6839943e-39
-0.014540979 0.016195916 0.44499999 5.9722023e-39
-0.013010355 0.016195916 0.44499999 6.7097674e-39
-0.011505526 0.016232312 0.44600001 5.7910327e-39
-0.0099938046 0.016268708 0.447 8.188119e-39
-0.0084752189 0.016305102 0.44800001 7.8222204e-39
-0.0069342759 0.016305102 0.44800001 9.1129592e-39
-0.0053933174 0.016305102 0.44800001 6.2480423e-39
-0.0038437746 0.016268708 0.447 9.8436649e-39
-0.0023062706 0.016268708 0.447 9.1085998e-39
-0.00076704676 0.016232312 0.44600001 8.555426e-39
0.0007670176 0.016232312 0.44600001 6.5318011e-39
0.0023011111 0.016232312 0.44600001 1.3354278e-38
0.0038351754 0.016232312 0.44600001 8.9292504e-39
0.0053572012 0.016195916 0.44499999 1.3170249e-38
0.0068878261 0.016195916 0.44499999 8.466501e-39
0.0084184511 0.016195916 0.44499999 7.9133272e-39
0.009949076 0.016195916 0.44499999 9.0179077e-39
0.011453903 0.016159521 0.44400001 7.8193645e-39
0.012981118 0.016159521 0.44400001 5.8832115e-39
0.014508303 0.016159521 0.44400001 6.8973564e-39
0.016035488 0.016159521 0.44400001 6.4403902e-39
0.017602229 0.016195916 0.44499999 5.3340426e-39
0.019132853 0.016195916 0.44499999 4.9684845e-39
0.020709913 0.016232312 0.44600001 3.3089631e-39
0.022293881 0.016268708 0.447 5.7903446e-39
0.023938013 0.016341498 0.449 5.2371708e-39
0.025482398 0.016341498 0.449 4.412815e-39
0.027147166 0.016414288 0.45100001 5.4269669e-39
0.028762061 0.016450683 0.45199999 5.6113484e-39
0.030383836 0.016487079 0.45300001 9.3913692e-39
0.03194198 0.016487079 0.45300001 1.2260602e-38
0.034239665 0.016851032 0.463 8.7571681e-39
0.035832204 0.016851032 0.463 8.7560121e-39
0.037424739 0.016851032 0.463 1.216725e-38
0.039017279 0.016851032 0.463 1.3828619e-38
0.040609818 0.016851032 0.463 1.4289597e-38
0.042202353 0.016851032 0.463 1.4749834e-38
0.043794893 0.016851032 0.463 1.4657638e-38
0.045485485 0.016887426 0.46399999 1.4566884e-38
0.047081463 0.016887426 0.46399999 1.4290297e-38
-0.046579294 0.014620531 0.44400001 1.106092e-38
-0.044950623 0.014587602 0.44299999 1.1427492e-38
-0.043426879 0.014587602 0.44299999 1.1704079e-38
-0.041808542 0.014554673 0.442 1.1888117e-38
-0.040288221 0.014554673 0.442 1.0228596e-38
-0.038767915 0.014554673 0.442 1.1979296e-38
-0.037247609 0.014554673 0.442 1.0688557e-38
-0.035808135 0.014587602 0.44299999 1.0781404e-38
-0.034284376 0.014587602 0.44299999 1.0781404e-38
-0.032686677 0.014554673 0.442 9.3034545e-39
-0.031095862 0.014521744 0.44100001 7.182955e-39
-0.029578982 0.014521744 0.44100001 1.2150042e-38
-0.028062114 0.014521744 0.44100001 9.4763691e-39
-0.02660544 0.014554673 0.442 6.7072198e-39
-0.02508512 0.014554673 0.442 7.3525878e-39
-0.023618128 0.014587602 0.44299999 6.4331777e-39
-0.022194132 0.01465346 0.44499999 4.9591238e-39
-0.020709941 0.01468639 0.44600001 6.6276261e-39
-0.019218858 0.014719319 0.447 4.3227353e-39
-0.017641798 0.01468639 0.44600001 7.1808124e-39
-0.016107734 0.01468639 0.44600001 4.1383567e-39
-0.014573655 0.01468639 0.44600001 6.2520234e-39
-0.013039591 0.01468639 0.44600001 8.4647185e-39
-0.011505526 0.01468639 0.44600001 5.5130136e-39
-0.010016163 0.014752246 0.44800001 7.172535e-39
-0.0084752189 0.014752246 0.44800001 9.573552e-39
-0.0069342759 0.014752246 0.44800001 1.2892595e-38
-0.0053933174 0.014752246 0.44800001 6.6251093e-39
-0.0038437746 0.014719319 0.447 8.7456088e-39
-0.0023062706 0.014719319 0.447 8.6487342e-39
-0.00076704676 0.01468639 0.44600001 8.6487342e-39
0.0007670176 0.01468639 0.44600001 4.7779569e-39
0.0023011111 0.01468639 0.44600001 8.9267533e-39
0.0038351754 0.01468639 0.44600001 6.3463869e-39
0.00536924 0.01468639 0.44600001 7.3605388e-39
0.0069033043 0.01468639 0.44600001 4.9702823e-39
0.0084184511 0.01465346 0.44499999 2.573196e-39
0.009949076 0.01465346 0.44499999 5.5148493e-39
0.011453903 0.014620531 0.44400001 5.8836319e-39
0.012981118 0.014620531 0.44400001 5.2367771e-39
0.014508303 0.014620531 0.44400001 6.0665377e-39
0.016035488 0.014620531 0.44400001 7.6407312e-39
0.017602229 0.01465346 0.44499999 5.0592536e-39
0.019132853 0.01465346 0.44499999 7.546002e-39
0.020709913 0.01468639 0.44600001 4.7801331e-39
0.022244006 0.01468639 0.44600001 7.3519068e-39
0.023938013 0.014785177 0.449 6.7065374e-39
0.025482398 0.014785177 0.449 6.7101275e-39
0.027147166 0.014851034 0.45100001 7.8164751e-39
0.028762061 0.014883962 0.45199999 7.4566581e-39
0.030383836 0.014916892 0.45300001 1.1052288e-38
0.032012489 0.014949821 0.454 1.5580348e-38
0.033574101 0.014949821 0.454 1.4934979e-38
0.035832204 0.015246184 0.463 1.493567e-38
0.037424739 0.015246184 0.463 1.4751278e-38
0.039017279 0.015246184 0.463 1.4382856e-38
0.040697522 0.015279112 0.46399999 1.4198465e-38
0.042202353 0.015246184 0.463 1.4105906e-38
0.043794893 0.015246184 0.463 1.4105906e-38
-0.046474382 0.013052077 0.44299999 1.465873e-38
-0.044950623 0.013052077 0.44299999 1.3089209e-38
-0.043426879 0.013052077 0.44299999 1.0692123e-38
-0.041903131 0.013052077 0.44299999 1.1611196e-38
-0.040379371 0.013052077 0.44299999 1.2348761e-38
-0.038767915 0.013022615 0.442 1.5486342e-38
-0.037247609 0.013022615 0.442 1.3458038e-38
-0.035808135 0.013052077 0.44299999 1.4377441e-38
-0.034284376 0.013052077 0.44299999 1.0228638e-38
-0.032834582 0.01308154 0.44400001 8.5644209e-39
-0.031166373 0.013022615 0.442 8.287834e-39
-0.029578982 0.012993152 0.44100001 7.2611026e-39
-0.028062114 0.012993152 0.44100001 1.0119162e-38
-0.02660544 0.013022615 0.442 3.9510787e-39
-0.02508512 0.013022615 0.442 4.8730322e-39
-0.023618128 0.013052077 0.44299999 6.4342469e-39
-0.022194132 0.013111003 0.44499999 6.2498556e-39
-0.020709941 0.013140467 0.44600001 8.4729974e-39
-0.019261854 0.013199392 0.44800001 8.9339756e-39
-0.017681355 0.013169929 0.447 1.1052285e-38
-0.016143849 0.013169929 0.447 1.0038133e-38
-0.014606331 0.013169929 0.447 7.5466564e-39
-0.013068828 0.013169929 0.447 7.0856825e-39
-0.011531323 0.013169929 0.447 7.3544333e-39
-0.010016163 0.013199392 0.44800001 9.2905416e-39
-0.0084752189 0.013199392 0.44800001 6.7151119e-39
-0.006949754 0.013228855 0.449 9.5731722e-39
-0.0053933174 0.013199392 0.44800001 3.8621551e-39
-0.0038523737 0.013199392 0.44800001 3.8621551e-39
-0.0023114302 0.013199392 0.44800001 5.6984965e-39
-0.00076876662 0.013169929 0.447 5.7906921e-39
0.0007670176 0.013140467 0.44600001 3.767049e-39
0.0023011111 0.013140467 0.44600001 6.2563296e-39
0.0038351754 0.013140467 0.44600001 6.9924751e-39
0.00536924 0.013140467 0.44600001 7.269062e-39
0.0069033043 0.013140467 0.44600001 7.5467377e-39
0.0084184511 0.013111003 0.44499999 4.0433038e-39
0.009949076 0.013111003 0.44499999 8.1812821e-39
0.0114797 0.013111003 0.44499999 7.8124996e-39
0.013010355 0.013111003 0.44499999 7.5362518e-39
0.014540979 0.013111003 0.44499999 6.983085e-39
0.016071605 0.013111003 0.44499999 9.8527103e-39
0.017602229 0.013111003 0.44499999 7.4556239e-39
0.019132853 0.013111003 0.44499999 9.9484834e-39
0.020709913 0.013140467 0.44600001 5.3387019e-39
0.022244006 0.013140467 0.44600001 9.2937379e-39
0.023831384 0.013169929 0.447 8.8327598e-39
0.025482398 0.013228855 0.449 7.7318072e-39
0.027147166 0.01328778 0.45100001 9.4835242e-39
0.028762061 0.013317242 0.45199999 8.1974545e-39
0.030450907 0.013376169 0.454 1.2438453e-38
0.032012489 0.013376169 0.454 1.4660159e-38
0.033574101 0.013376169 0.454 1.4106985e-38
-0.032686677 0.011490534 0.442 3.6805945e-40
-0.031166373 0.011490534 0.442 3.8714906e-39
-0.029578982 0.011464538 0.44100001 4.0439904e-39
-0.028062114 0.011464538 0.44100001 8.7459619e-39
-0.02660544 0.011490534 0.442 4.9663167e-39
-0.02508512 0.011490534 0.442 6.9946205e-39
-0.023671443 0.011542528 0.44400001 8.7412662e-39
-0.022194132 0.011568524 0.44499999 6.7129623e-39
-0.020756377 0.011620518 0.447 5.6084365e-39
-0.019261854 0.011646514 0.44800001 9.7572398e-39
-0.01772091 0.011646514 0.44800001 8.3739326e-39
-0.016179968 0.011646514 0.44800001 1.095541e-38
-0.014606331 0.011620518 0.447 5.8864401e-39
-0.013068828 0.011620518 0.447 1.0311822e-38
-0.011557121 0.011646514 0.44800001 5.1485597e-39
-0.010016163 0.011646514 0.44800001 6.2549073e-39
-0.0084941369 0.011672512 0.449 4.9627167e-39
-0.006949754 0.011672512 0.449 7.8207813e-39
-0.0053933174 0.011646514 0.44800001 6.3463869e-39
-0.0038523737 0.011646514 0.44800001 4.7790612e-39
-0.0023114302 0.011646514 0.44800001 7.9972342e-39
-0.00077048648 0.011646514 0.44800001 8.1816254e-39
0.00076873734 0.011620518 0.447 6.7987106e-39
0.0023062706 0.011620518 0.447 8.8270144e-39
0.0038437746 0.011620518 0.447 9.395695e-39
0.00536924 0.011594522 0.44600001 7.0908042e-39
0.0069033043 0.011594522 0.44600001 1.0593147e-38
0.008437369 0.011594522 0.44600001 5.5223869e-39
0.009949076 0.011568524 0.44499999 9.7554349e-39
0.0114797 0.011568524 0.44499999 9.7554349e-39
0.013010355 0.011568524 0.44499999 9.6610645e-39
0.014540979 0.011568524 0.44499999 6.8030014e-39
0.016071605 0.011568524 0.44499999 1.0776812e-38
0.017602229 0.011568524 0.44499999 7.5499649e-39
0.019132853 0.011568524 0.44499999 9.4878808e-39
0.020709913 0.011594522 0.44600001 3.7717518e-39
0.022244006 0.011594522 0.44600001 8.0930269e-39
0.023831384 0.011620518 0.447 6.9866794e-39
0.025482398 0.011672512 0.449 7.1693106e-39
0.027147166 0.011724504 0.45100001 8.8288319e-39
0.028762061 0.011750501 0.45199999 5.7931907e-39
0.030450907 0.011802494 0.454 1.5289341e-38
0.032012489 0.011802494 0.454 1.447577e-38
0.033648051 0.011828491 0.45500001 1.4106988e-38
-0.029578982 0.0099359248 0.44100001 8.5593608e-39
-0.028062114 0.0099359248 0.44100001 1.3076947e-38
-0.02660544 0.0099584544 0.442 7.1811207e-39
-0.025141872 0.009980985 0.44299999 4.4152785e-39
-0.023671443 0.010003516 0.44400001 7.1678322e-39
-0.022244006 0.010048577 0.44600001 6.7068611e-39
-0.020802813 0.010093637 0.44800001 6.0833926e-39
-0.019261854 0.010093637 0.44800001 1.2721478e-38
-0.01772091 0.010093637 0.44800001 1.5117199e-38
-0.016179968 0.010093637 0.44800001 1.5670373e-38
-0.014639009 0.010093637 0.44800001 1.5394114e-38
-0.013098065 0.010093637 0.44800001 1.5578505e-38
-0.011557121 0.010093637 0.44800001 1.8801642e-40
-0.01003852 0.010116167 0.449 3.0460809e-39
-0.0084941369 0.010116167 0.449 7.361636e-39
-0.006949754 0.010116167 0.449 7.8226142e-39
-0.0054053562 0.010116167 0.449 9.8534137e-39
-0.0038523737 0.010093637 0.44800001 6.6265667e-39
-0.0023114302 0.010093637 0.44800001 9.7561482e-39
-0.00077048648 0.010093637 0.44800001 9.5717569e-39
0.00077045715 0.010093637 0.44800001 8.2784972e-39
0.0023062706 0.010071106 0.447 8.0019103e-39
0.0038437746 0.010071106 0.447 1.1238181e-38
0.00536924 0.010048577 0.44600001 6.9971821e-39
0.0069033043 0.010048577 0.44600001 1.01329e-38
0.008437369 0.010048577 0.44600001 4.0479883e-39
0.009949076 0.010026045 0.44499999 8.5496919e-39
0.0114797 0.010026045 0.44499999 7.8121268e-39
0.012981118 0.010003516 0.44400001 8.2713071e-39
0.014508303 0.010003516 0.44400001 6.8883797e-39
0.016035488 0.010003516 0.44400001 7.5474314e-39
0.017562672 0.010003516 0.44400001 5.7957144e-39
0.019132853 0.010026045 0.44499999 7.8243966e-39
0.020709913 0.010048577 0.44600001 3.9521801e-39
0.022244006 0.010048577 0.44600001 5.5159031e-39
0.023831384 0.010071106 0.447 5.3315119e-39
0.025482398 0.010116167 0.449 3.4926537e-39
0.027147166 0.010161228 0.45100001 5.2443707e-39
0.028762061 0.010183758 0.45199999 3.4058559e-39
0.030450907 0.010228819 0.454 1.4192745e-38
0.032012489 0.010228819 0.454 1.4474691e-38
0.033574101 0.010228819 0.454 1.4382496e-38
-0.029578982 0.008407332 0.44100001 1.4377814e-38
-0.028062114 0.008407332 0.44100001 1.382464e-38
-0.025312135 0.0085026538 0.44600001 1.4471805e-38
-0.02377807 0.0085026538 0.44600001 1.5118266e-38
-0.022244006 0.0085026538 0.44600001 1.5487048e-38
-0.020802813 0.0085407812 0.44800001 1.5673951e-38
-0.019261854 0.0085407812 0.44800001 1.6134929e-38
-0.017760465 0.0085598463 0.449 1.585691e-38
-0.016179968 0.0085407812 0.44800001 1.585691e-38
-0.014639009 0.0085407812 0.44800001 1.5582115e-38
-0.013098065 0.0085407812 0.44800001 1.631968e-38
-0.011608714 0.0085789105 0.44999999 8.750313e-39
-0.010060878 0.0085789105 0.44999999 5.7078572e-39
-0.0085130548 0.0085789105 0.44999999 9.6701113e-39
-0.0069807102 0.0085979737 0.45100001 6.4432642e-39
-0.0054053562 0.0085598463 0.449 9.0265397e-39
-0.0038609728 0.0085598463 0.449 4.6933451e-39
-0.0023114302 0.0085407812 0.44800001 8.6422504e-39
-0.00077048648 0.0085407812 0.44800001 7.9046854e-39
0.00077045715 0.0085407812 0.44800001 7.8099758e-39
0.0023114302 0.0085407812 0.44800001 7.0724108e-39
0.0038437746 0.008521717 0.447 9.0222237e-39
0.00536924 0.0085026538 0.44600001 4.6890291e-39
0.0069033043 0.0085026538 0.44600001 9.2959436e-39
0.008437369 0.0085026538 0.44600001 4.4095752e-39
0.009949076 0.0084835887 0.44499999 5.4236977e-39
0.0114797 0.0084835887 0.44499999 5.9768715e-39
0.012981118 0.0084645245 0.44400001 5.3297014e-39
0.014508303 0.0084645245 0.44400001 4.2244328e-39
0.016035488 0.0084645245 0.44400001 6.1655913e-39
0.017562672 0.0084645245 0.44400001 5.1514394e-39
0.019089859 0.0084645245 0.44400001 7.457419e-39
0.020663477 0.0084835887 0.44499999 4.3227675e-39
0.022244006 0.0085026538 0.44600001 6.7133519e-39
0.023831384 0.008521717 0.447 7.6353082e-39
0.025482398 0.0085598463 0.449 6.8055475e-39
0.027147166 0.0085979737 0.45100001 1.0677764e-38
0.028762061 0.0086170379 0.45199999 8.38295e-39
0.030450907 0.0086551663 0.454 1.57586e-38
0.032012489 0.0086551663 0.454 1.4291016e-38
0.033574101 0.0086551663 0.454 1.4198821e-38
-0.011686107 0.0070658941 0.45300001 3.4058307e-39
-0.01012795 0.0070658941 0.45300001 2.3916788e-39
-0.0085508907 0.0070502958 0.45199999 6.8084244e-39
-0.0069961883 0.0070502958 0.45199999 5.5176856e-39
-0.0054173945 0.0070191002 0.44999999 7.3605416e-39
-0.0038609728 0.0070035025 0.449 3.9493033e-39
-0.0023165895 0.0070035025 0.449 5.4233474e-39
-0.00077048648 0.0069879042 0.44800001 5.2389561e-39
0.00077045715 0.0069879042 0.44800001 5.3293511e-39
0.0023114302 0.0069879042 0.44800001 4.0407646e-39
0.0038437746 0.0069723064 0.447 7.1819335e-39
0.00536924 0.0069567086 0.44600001 2.8487389e-39
0.0069033043 0.0069567086 0.44600001 8.7485459e-39
0.0084184511 0.0069411104 0.44499999 4.2309601e-39
0.009949076 0.0069411104 0.44499999 6.344547e-39
0.011453903 0.0069255126 0.44400001 7.7274814e-39
0.012981118 0.0069255126 0.44400001 8.370669e-39
0.014508303 0.0069255126 0.44400001 6.6189716e-39
0.016035488 0.0069255126 0.44400001 9.5811176e-39
0.017562672 0.0069255126 0.44400001 9.6733132e-39
0.019089859 0.0069255126 0.44400001 1.1055534e-38
0.020663477 0.0069411104 0.44499999 8.0130786e-39
0.022244006 0.0069567086 0.44600001 8.7434382e-39
0.023831384 0.0069723064 0.447 9.3888076e-39
0.025482398 0.0070035025 0.449 7.0842728e-39
0.027147166 0.007034698 0.45100001 1.0772098e-38
0.028762061 0.0070502958 0.45199999 8.1059777e-39
0.030383836 0.0070658941 0.45300001 1.6126998e-38
0.032012489 0.0070814919 0.454 1.4473973e-38
-0.011711903 0.0055078394 0.454 5.3480878e-39
-0.010150307 0.0055078394 0.454 9.2936917e-41
-0.0085698087 0.005495708 0.45300001 7.3641667e-39
-0.0069961883 0.0054835756 0.45199999 4.5982979e-39
-0.0054053562 0.0054471809 0.449 8.6556188e-39
-0.0038609728 0.0054471809 0.449 3.6770548e-39
-0.0023165895 0.0054471809 0.449 8.2763742e-39
-0.00077048648 0.0054350486 0.44800001 9.1983305e-39
0.00077045715 0.0054350486 0.44800001 8.923882e-39
0.0023062706 0.0054229172 0.447 6.5267956e-39
0.0038437746 0.0054229172 0.447 1.1885343e-38
0.00536924 0.0054107853 0.44600001 7.3677569e-39
0.0069033043 0.0054107853 0.44600001 1.3264312e-38
0.0084184511 0.0053986534 0.44499999 8.8389213e-39
0.009949076 0.0053986534 0.44499999 7.4559126e-39
0.011453903 0.005386522 0.44400001 9.2076295e-39
0.012981118 0.005386522 0.44400001 9.8468935e-39
0.014508303 0.005386522 0.44400001 6.8044377e-39
0.016035488 0.005386522 0.44400001 8.2874711e-39
0.017562672 0.005386522 0.44400001 8.6562536e-39
0.019089859 0.005386522 0.44400001 8.6519502e-39
0.020663477 0.0053986534 0.44499999 7.2690158e-39
0.022244006 0.0054107853 0.44600001 6.8019252e-39
0.023831384 0.0054229172 0.447 8.0926598e-39
0.025482398 0.0054471809 0.449 6.7100897e-39
0.027147166 0.0054714442 0.45100001 1.0213515e-38
0.028762061 0.0054835756 0.45199999 8.0127031e-39
0.030383836 0.005495708 0.45300001 1.6033723e-38
0.032012489 0.0055078394 0.454 1.4197749e-38
