# .PCD v0.7 - Point Cloud Data file format
VERSION 0.7
FIELDS x y z rgb
SIZE 4 4 4 4
TYPE F F F F
COUNT 1 1 1 1
WIDTH 984
HEIGHT 1
VIEWPOINT 0 0 0 1 0 0 0
POINTS 984
DATA ascii
0.011402309 0.046728157 0.442 3.3143385e-39
0.012922644 0.046728157 0.442 2.0250444e-39
0.01444295 0.046728157 0.442 2.7626095e-39
0.015963256 0.046728157 0.442 7.4605789e-39
0.017523117 0.046833873 0.44299999 7.183992e-39
0.019132853 0.047045313 0.44499999 6.9999539e-39
0.020709913 0.047151037 0.44600001 1.0779975e-38
0.022244006 0.047151037 0.44600001 1.7049339e-38
0.023831384 0.047256757 0.447 1.6588361e-38
0.00076357805 0.045400582 0.44400001 7.9161522e-39
0.0022907923 0.045400582 0.44400001 7.8239566e-39
0.0038179774 0.045400582 0.44400001 4.5053259e-39
0.0053572012 0.045502834 0.44499999 4.5975215e-39
0.006872348 0.045400582 0.44400001 3.7709979e-39
0.0083995331 0.045400582 0.44400001 3.6788022e-39
0.0099043604 0.045298327 0.44299999 3.0381048e-39
0.011402309 0.045196075 0.442 2.7615221e-39
0.012922644 0.045196075 0.442 3.5898492e-39
0.01444295 0.045196075 0.442 6.4479137e-39
0.015963256 0.045196075 0.442 7.6421283e-39
0.017483562 0.045196075 0.442 5.8904113e-39
0.019089859 0.045400582 0.44400001 5.1503212e-39
0.020709913 0.045605093 0.44600001 6.8098411e-39
0.022244006 0.045605093 0.44600001 1.5762553e-38
0.023831384 0.045707345 0.447 1.603914e-38
0.00076357805 0.043861572 0.44400001 6.9945645e-39
0.0022907923 0.043861572 0.44400001 5.2428741e-39
0.0038179774 0.043861572 0.44400001 5.6120126e-39
0.0053451625 0.043861572 0.44400001 5.4276213e-39
0.006872348 0.043861572 0.44400001 4.2301866e-39
0.0083616972 0.043663997 0.442 4.4145778e-39
0.0098820031 0.043663997 0.442 2.6707642e-39
0.011402309 0.043663997 0.442 3.3161336e-39
0.012922644 0.043663997 0.442 4.1404992e-39
0.01444295 0.043663997 0.442 3.5873255e-39
0.015963256 0.043663997 0.442 3.9535997e-39
0.017483562 0.043663997 0.442 4.0457953e-39
0.019046862 0.043762781 0.44299999 5.0592185e-39
0.020709913 0.044059146 0.44600001 4.8748273e-39
0.022293881 0.044157933 0.447 1.3458366e-38
0.023938013 0.044355508 0.449 1.6039844e-38
-0.0023269083 0.042989824 0.45100001 6.8083823e-39
-0.00077048648 0.042703863 0.44800001 7.4537419e-39
0.0007670176 0.042513225 0.44600001 4.2305313e-39
0.0022907923 0.04232258 0.44400001 6.4432194e-39
0.0038179774 0.04232258 0.44400001 5.6141622e-39
0.0053451625 0.04232258 0.44400001 4.0468603e-39
0.006872348 0.04232258 0.44400001 4.5053259e-39
0.0083616972 0.042131938 0.442 4.228739e-39
0.0098820031 0.042131938 0.442 3.9550388e-39
0.011402309 0.042131938 0.442 6.5365164e-39
0.012922644 0.042131938 0.442 4.1365434e-39
0.01444295 0.042131938 0.442 4.0443492e-39
0.015963256 0.042131938 0.442 4.5993292e-39
0.017483562 0.042131938 0.442 3.9539598e-39
0.019046862 0.042227257 0.44299999 6.6297658e-39
0.020709913 0.042513225 0.44600001 7.1829396e-39
0.022393631 0.042799186 0.449 1.2352374e-38
0.023938013 0.042799186 0.449 1.6408982e-38
-0.0023217488 0.041334718 0.44999999 6.9131925e-39
-0.00077048648 0.04115101 0.44800001 5.530258e-39
0.0007670176 0.040967301 0.44600001 6.6282987e-39
0.0023011111 0.040967301 0.44600001 6.9048814e-39
0.0038351754 0.040967301 0.44600001 4.8758909e-39
0.0053572012 0.040875442 0.44499999 4.138337e-39
0.006872348 0.040783592 0.44400001 3.7695601e-39
0.0083995331 0.040783592 0.44400001 3.5851717e-39
0.0098820031 0.040599879 0.442 3.4022181e-39
0.011402309 0.040599879 0.442 3.3100239e-39
0.012922644 0.040599879 0.442 3.3096694e-39
0.01444295 0.040599879 0.442 5.153582e-39
0.015963256 0.040599879 0.442 5.3372236e-39
0.017483562 0.040599879 0.442 4.6918611e-39
0.019046862 0.040691733 0.44299999 4.96952e-39
0.020849217 0.041242864 0.449 4.6929373e-39
0.022393631 0.041242864 0.449 1.2905561e-38
0.023938013 0.041242864 0.449 1.5948017e-38
-0.0023217488 0.03977491 0.44999999 7.840569e-39
-0.00077048648 0.03959813 0.44800001 8.8547209e-39
0.00077045715 0.03959813 0.44800001 9.9502294e-39
0.0023011111 0.039421357 0.44600001 6.4467955e-39
0.0038351754 0.039421357 0.44600001 5.1513974e-39
0.00536924 0.039421357 0.44600001 4.6904262e-39
0.0069033043 0.039421357 0.44600001 4.505679e-39
0.0083995331 0.039244577 0.44400001 3.7681252e-39
0.0099267187 0.039244577 0.44400001 3.3100239e-39
0.011402309 0.039067801 0.442 3.1256355e-39
0.012922644 0.039067801 0.442 3.4940606e-39
0.014508303 0.039244577 0.44400001 4.0472344e-39
0.015999371 0.039156187 0.44299999 3.956108e-39
0.017523117 0.039156187 0.44299999 3.4951298e-39
0.020849217 0.03968652 0.449 3.5866066e-39
0.022393631 0.03968652 0.449 1.1796317e-38
-0.0023217488 0.038215097 0.44999999 1.3180334e-38
-0.00077048648 0.038045254 0.44800001 1.2350574e-38
0.00077045715 0.038045254 0.44800001 1.2348761e-38
0.0023011111 0.03787541 0.44600001 9.5828917e-39
0.0038351754 0.03787541 0.44600001 7.2725877e-39
0.00536924 0.03787541 0.44600001 6.3506398e-39
0.0069033043 0.03787541 0.44600001 5.2450265e-39
0.0084184511 0.037790485 0.44499999 4.0465015e-39
0.009949076 0.037790485 0.44499999 3.5862563e-39
0.0114797 0.037790485 0.44499999 3.4940606e-39
0.012981118 0.037705567 0.44400001 2.3920291e-39
0.014508303 0.037705567 0.44400001 2.2076392e-39
0.016035488 0.037705567 0.44400001 3.1252781e-39
0.017562672 0.037705567 0.44400001 3.4940606e-39
-0.0023217488 0.036655311 0.44999999 1.3455458e-38
-0.00077220629 0.036573857 0.449 1.3178872e-38
0.00077045715 0.036492396 0.44800001 1.2627124e-38
0.0023062706 0.036410943 0.447 1.1797364e-38
0.0038351754 0.036329489 0.44600001 1.1149513e-38
0.00536924 0.036329489 0.44600001 8.1070567e-39
0.0069033043 0.036329489 0.44600001 6.9041709e-39
0.0084184511 0.036248028 0.44499999 5.1524736e-39
0.009949076 0.036248028 0.44499999 4.68935e-39
0.0114797 0.036248028 0.44499999 4.68935e-39
0.013010355 0.036248028 0.44499999 1.7488205e-39
0.014508303 0.036166575 0.44400001 1.7488205e-39
0.016035488 0.036166575 0.44400001 3.4022181e-39
0.017562672 0.036166575 0.44400001 3.1256355e-39
0.019261839 0.036492396 0.44800001 5.2471831e-39
-0.0023269083 0.035173491 0.45100001 1.3088475e-38
-0.00077220629 0.035017513 0.449 1.2904084e-38
0.00077217695 0.035017513 0.449 1.2904793e-38
0.0023114302 0.03493952 0.44800001 1.1890641e-38
0.0038437746 0.034861531 0.447 1.1612262e-38
0.00536924 0.034783542 0.44600001 1.0874697e-38
0.0069033043 0.034783542 0.44600001 9.2144721e-39
0.008437369 0.034783542 0.44600001 7.001777e-39
0.009949076 0.034705549 0.44499999 5.8911134e-39
0.0114797 0.034705549 0.44499999 4.5081902e-39
0.013010355 0.034705549 0.44499999 3.6784519e-39
0.014540979 0.034705549 0.44499999 3.6784519e-39
0.016107719 0.034783542 0.44600001 3.7709979e-39
0.01768134 0.034861531 0.447 3.3100239e-39
0.019261839 0.03493952 0.44800001 6.0798823e-39
-0.0023269083 0.033610236 0.45100001 1.3729544e-38
-0.00077392609 0.033535711 0.44999999 1.3268566e-38
0.00077217695 0.033461191 0.449 1.2719693e-38
0.0023114302 0.033386666 0.44800001 1.2166519e-38
0.0038437746 0.033312142 0.447 1.1611896e-38
0.0053812782 0.033312142 0.447 1.068994e-38
0.0069033043 0.033237621 0.44600001 9.3977787e-39
0.008437369 0.033237621 0.44600001 7.5538661e-39
0.0099714333 0.033237621 0.44600001 5.8911134e-39
0.011505498 0.033237621 0.44600001 3.5862479e-39
0.013039591 0.033237621 0.44600001 3.5859032e-39
0.014606331 0.033312142 0.447 3.2171206e-39
0.016216068 0.033461191 0.449 3.7706475e-39
0.017720895 0.033386666 0.44800001 2.848694e-39
0.019261839 0.033386666 0.44800001 1.1426863e-38
-0.0023269083 0.032046959 0.45100001 1.3358243e-38
-0.00077392609 0.031975903 0.44999999 1.4188004e-38
0.00077217695 0.031904846 0.449 1.2625708e-38
0.0023165895 0.031904846 0.449 1.1334969e-38
0.0038523737 0.031833787 0.44800001 1.0872148e-38
0.0053933174 0.031833787 0.44800001 9.2126266e-39
0.0069033043 0.031691674 0.44600001 7.825058e-39
0.008437369 0.031691674 0.44600001 5.6123685e-39
0.0099714333 0.031691674 0.44600001 4.9659327e-39
0.011505498 0.031691674 0.44600001 3.9517962e-39
0.013068828 0.03176273 0.447 2.1129339e-39
0.014639009 0.031833787 0.44800001 2.1129339e-39
0.016216068 0.031904846 0.449 2.5731876e-39
-0.00077392609 0.030416094 0.44999999 1.2984779e-38
0.00077217695 0.030348502 0.449 1.0964405e-38
0.0023165895 0.030348502 0.449 1.0411231e-38
0.0038609728 0.030348502 0.449 9.0293521e-39
0.0053812782 0.030213321 0.447 6.5400701e-39
0.0068878261 0.030078137 0.44499999 7.7260745e-39
0.0084184511 0.030078137 0.44499999 1.224366e-38
0.0099714333 0.030145729 0.44600001 1.1416777e-38
0.011505498 0.030145729 0.44600001 1.0679212e-38
0.013068828 0.030213321 0.447 8.6498132e-39
0.014639009 0.03028091 0.44800001 8.7420089e-39
0.016216068 0.030348502 0.449 8.8352835e-39
0.00077561644 0.028920431 0.45100001 7.2719235e-39
0.0023217488 0.028856305 0.44999999 6.5343584e-39
0.0038609728 0.028792182 0.449 6.9956925e-39
0.00536924 0.028599806 0.44600001 4.137628e-39
0.006872348 0.028471556 0.44400001 8.3718195e-39
0.0083995331 0.028471556 0.44400001 1.2705014e-38
0.0099267187 0.028471556 0.44400001 1.3354311e-38
-0.00077736576 0.027417835 0.45199999 8.5572673e-39
0.00077733624 0.027417835 0.45199999 5.4218816e-39
0.0023269083 0.027357176 0.45100001 5.6062701e-39
0.0038265765 0.026993223 0.44499999 8.7419851e-39
0.0053572012 0.026993223 0.44499999 5.9761232e-39
0.006872348 0.026932565 0.44400001 8.9267911e-39
0.0083995331 0.026932565 0.44400001 1.0494117e-38
0.0099267187 0.026932565 0.44400001 1.0397553e-38
-0.0038867698 0.025851091 0.45199999 1.2247964e-38
-0.0023320678 0.025851091 0.45199999 1.1313389e-38
-0.00077736576 0.025851091 0.45199999 1.0668019e-38
0.00077733624 0.025851091 0.45199999 9.2966148e-39
0.0023269083 0.025793901 0.45100001 7.4527022e-39
0.0038179774 0.025393553 0.44400001 8.185954e-39
0.0053451625 0.025393553 0.44400001 7.2639977e-39
0.006872348 0.025393553 0.44400001 8.9274946e-39
0.0083995331 0.025393553 0.44400001 8.8352989e-39
0.009949076 0.025450744 0.44499999 9.1957872e-39
-0.0054294332 0.024230624 0.45100001 1.2064651e-38
-0.0038781709 0.024230624 0.45100001 1.252563e-38
-0.0023269083 0.024230624 0.45100001 1.261567e-38
-0.00077564595 0.024230624 0.45100001 1.5750321e-38
0.00077561644 0.024230624 0.45100001 1.3085293e-38
0.0022959518 0.023908267 0.44499999 5.5252512e-39
0.0038179774 0.023854541 0.44400001 8.6473119e-39
0.0053451625 0.023854541 0.44400001 6.1580299e-39
0.006872348 0.023854541 0.44400001 8.4629039e-39
0.0083995331 0.023854541 0.44400001 1.1320968e-38
0.009949076 0.023908267 0.44499999 6.8984242e-39
-0.0054294332 0.022667371 0.45100001 1.0038877e-38
-0.0038781709 0.022667371 0.45100001 7.2730081e-39
-0.0023269083 0.022667371 0.45100001 1.1141995e-38
-0.00077048648 0.02251659 0.44800001 1.335469e-38
0.00076529785 0.022365808 0.44499999 1.0592781e-38
0.0022959518 0.022365808 0.44499999 4.0468911e-39
0.0038265765 0.022365808 0.44499999 9.0168287e-39
0.0053451625 0.022315551 0.44400001 7.5416987e-39
0.006872348 0.022315551 0.44400001 7.5373799e-39
0.0084184511 0.022365808 0.44499999 1.1317401e-38
0.009949076 0.022365808 0.44499999 1.0678107e-38
-0.0054414719 0.021150887 0.45199999 9.5660438e-39
-0.0038781709 0.021104094 0.45100001 1.0027022e-38
-0.0023269083 0.021104094 0.45100001 8.8324221e-39
-0.00077048648 0.020963712 0.44800001 7.5416832e-39
0.00076529785 0.02082333 0.44499999 6.2599576e-39
0.0022959518 0.02082333 0.44499999 2.3877411e-39
0.0038179774 0.020776536 0.44400001 5.607045e-39
0.0053451625 0.020776536 0.44400001 5.1460668e-39
0.006872348 0.020776536 0.44400001 4.2269566e-39
0.0083995331 0.020776536 0.44400001 3.9503697e-39
0.0099267187 0.020776536 0.44400001 1.0126385e-38
0.011453903 0.020776536 0.44400001 1.0679559e-38
-0.0038953689 0.019627497 0.45300001 1.1874865e-38
-0.0023372273 0.019627497 0.45300001 1.1132984e-38
-0.00077908568 0.019627497 0.45300001 1.0856397e-38
0.00076529785 0.019280873 0.44499999 1.0216088e-38
0.0022959518 0.019280873 0.44499999 5.1453283e-39
0.0038179774 0.019237546 0.44400001 8.4557334e-39
0.0053451625 0.019237546 0.44400001 7.2571902e-39
0.006872348 0.019237546 0.44400001 6.1554894e-39
0.0083995331 0.019237546 0.44400001 5.602324e-39
0.0099267187 0.019237546 0.44400001 9.0193146e-39
0.011453903 0.019237546 0.44400001 1.0771032e-38
0.012981118 0.019237546 0.44400001 1.2065042e-38
0.014540979 0.019280873 0.44499999 4.8737833e-39
-0.00077048648 0.01785798 0.44800001 1.2889383e-38
0.0007670176 0.017778257 0.44600001 1.1791327e-38
0.0022959518 0.017738394 0.44499999 6.3517847e-39
0.0038179774 0.017698534 0.44400001 1.0399009e-38
0.0053451625 0.017698534 0.44400001 9.1082705e-39
0.0068568694 0.017658671 0.44299999 7.4455317e-39
0.0083806152 0.017658671 0.44299999 6.7079667e-39
0.0099267187 0.017698534 0.44400001 7.6385144e-39
0.011453903 0.017698534 0.44400001 1.0957557e-38
0.012981118 0.017698534 0.44400001 1.206504e-38
0.014508303 0.017698534 0.44400001 9.8523445e-39
-0.0023320678 0.016450683 0.45199999 7.0759967e-39
-0.00077048648 0.016305102 0.44800001 1.11326e-38
0.00076873734 0.016268708 0.447 1.0218616e-38
0.0022959518 0.016195916 0.44499999 4.963465e-39
0.0038265765 0.016195916 0.44499999 9.2879828e-39
0.0053451625 0.016159521 0.44400001 8.9192003e-39
0.0068568694 0.016123125 0.44299999 6.8008714e-39
0.0083806152 0.016123125 0.44299999 7.0774583e-39
0.0099267187 0.016159521 0.44400001 7.273378e-39
0.011453903 0.016159521 0.44400001 7.6421605e-39
0.012981118 0.016159521 0.44400001 1.1971743e-38
0.014508303 0.016159521 0.44400001 9.4824606e-39
0.016035488 0.016159521 0.44400001 1.1967064e-38
-0.0023320678 0.014883962 0.45199999 6.1583592e-39
-0.00077220629 0.014785177 0.449 9.4773949e-39
0.00077045715 0.014752246 0.44800001 7.4595671e-39
0.0023062706 0.014719319 0.447 2.8497857e-39
0.0038265765 0.01465346 0.44499999 5.6081016e-39
0.0053451625 0.014620531 0.44400001 6.3456666e-39
0.0068568694 0.014587602 0.44299999 5.0531075e-39
0.0083806152 0.014587602 0.44299999 5.6062813e-39
0.0099043604 0.014587602 0.44299999 5.3322475e-39
0.011428106 0.014587602 0.44299999 3.9493131e-39
0.012981118 0.014620531 0.44400001 1.1880636e-38
0.014475626 0.014587602 0.44299999 9.8523319e-39
0.015999371 0.014587602 0.44299999 1.1601891e-38
-0.0023320678 0.013317242 0.45199999 1.0397913e-38
-0.00077392609 0.013258317 0.44999999 1.4546717e-38
0.00077217695 0.013228855 0.449 1.1790228e-38
0.0023114302 0.013199392 0.44800001 6.9038598e-39
0.0038265765 0.013111003 0.44499999 8.1884876e-39
0.0053451625 0.01308154 0.44400001 7.7275094e-39
0.0068568694 0.013052077 0.44299999 6.3391772e-39
0.0083616972 0.013022615 0.442 6.8001553e-39
0.0098820031 0.013022615 0.442 6.3503483e-39
0.011402309 0.013022615 0.442 2.8469144e-39
0.012922644 0.013022615 0.442 7.5467279e-39
0.01444295 0.013022615 0.442 9.021858e-39
0.015963256 0.013022615 0.442 1.0498408e-38
0.017483562 0.013022615 0.442 1.1143777e-38
-0.00077564595 0.011724504 0.45100001 1.306869e-38
0.00077217695 0.011672512 0.449 1.2343052e-38
0.0023114302 0.011646514 0.44800001 8.7474221e-39
0.0038351754 0.011594522 0.44600001 1.0311871e-38
0.0053451625 0.011542528 0.44400001 1.0772849e-38
0.0068568694 0.011516531 0.44299999 8.3739326e-39
0.0083616972 0.011490534 0.442 1.0033454e-38
0.0098820031 0.011490534 0.442 1.0500938e-38
0.011402309 0.011490534 0.442 6.2599394e-39
0.012922644 0.011490534 0.442 8.0991758e-39
0.01444295 0.011490534 0.442 7.3616108e-39
0.015963256 0.011490534 0.442 8.4643584e-39
0.017483562 0.011490534 0.442 1.1783401e-38
-0.002368184 0.010341471 0.45899999 1.1508246e-38
-0.00077564595 0.010161228 0.45100001 1.1969224e-38
0.00077389664 0.010138698 0.44999999 1.1789159e-38
0.0023114302 0.010093637 0.44800001 8.4701163e-39
0.0038351754 0.010048577 0.44600001 8.9199163e-39
0.0053451625 0.010003516 0.44400001 9.5652857e-39
0.0068568694 0.009980985 0.44299999 7.0745618e-39
0.0083616972 0.0099584544 0.442 9.1028586e-39
0.0098820031 0.0099584544 0.442 8.5616057e-39
0.011402309 0.0099584544 0.442 5.4269543e-39
0.012922644 0.0099584544 0.442 7.8232994e-39
0.01444295 0.0099584544 0.442 4.3198655e-39
0.015963256 0.0099584544 0.442 7.9951238e-39
0.017483562 0.0099584544 0.442 1.0668797e-38
0.019003868 0.0099584544 0.442 9.6654071e-39
-0.0039383639 0.0087314239 0.458 3.6863777e-39
-0.0023630245 0.0087314239 0.458 8.3667397e-39
-0.00077736576 0.0086170379 0.45199999 1.2607739e-38
0.00077389664 0.0085789105 0.44999999 1.2249424e-38
0.0023165895 0.0085598463 0.449 1.1235272e-38
0.0038351754 0.0085026538 0.44600001 1.0495171e-38
0.0053451625 0.0084645245 0.44400001 1.0863953e-38
0.006872348 0.0084645245 0.44400001 9.0186112e-39
0.0083806152 0.0084454603 0.44299999 1.030935e-38
0.0098820031 0.0084263962 0.442 1.1515446e-38
0.011402309 0.0084263962 0.442 8.0120123e-39
0.012922644 0.0084263962 0.442 9.21201e-39
0.01444295 0.0084263962 0.442 2.8505115e-39
0.015963256 0.0084263962 0.442 6.5250384e-39
0.017483562 0.0084263962 0.442 8.2767554e-39
0.019003868 0.0084263962 0.442 8.9296596e-39
-0.003929765 0.0071282857 0.45699999 5.2508251e-39
-0.0023578648 0.0071282857 0.45699999 7.6295629e-39
-0.00078252528 0.0070970901 0.45500001 9.4734755e-39
0.00077561644 0.007034698 0.45100001 7.1815425e-39
0.0023165895 0.0070035025 0.449 6.4439775e-39
0.0038523737 0.0069879042 0.44800001 6.2527297e-39
0.0053451625 0.0069255126 0.44400001 7.8200554e-39
0.006872348 0.0069255126 0.44400001 6.8055251e-39
0.0083995331 0.0069255126 0.44400001 7.5430901e-39
0.0098820031 0.0068943165 0.442 8.475161e-39
0.011402309 0.0068943165 0.442 6.3546615e-39
0.012922644 0.0068943165 0.442 8.7513948e-39
0.01444295 0.0068943165 0.442 2.6664832e-39
0.015963256 0.0068943165 0.442 6.9914059e-39
0.017483562 0.0068943165 0.442 7.2679928e-39
0.019003868 0.0068943165 0.442 1.0225068e-38
-0.003929765 0.0055442345 0.45699999 8.4780225e-39
-0.0023578648 0.0055442345 0.45699999 1.0396501e-38
-0.00078424515 0.0055321031 0.456 1.0396501e-38
0.00077733624 0.0054835756 0.45199999 1.0120248e-38
0.0023165895 0.0054471809 0.449 9.6592694e-39
0.0038609728 0.0054471809 0.449 7.0767142e-39
0.0053572012 0.0053986534 0.44499999 7.9986621e-39
0.006872348 0.005386522 0.44400001 6.2473319e-39
0.0083995331 0.005386522 0.44400001 6.1551362e-39
0.0099043604 0.0053743897 0.44299999 6.6287401e-39
0.011402309 0.0053622583 0.442 4.6926319e-39
0.012922644 0.0053622583 0.442 7.0882637e-39
0.01444295 0.0053622583 0.442 2.5713953e-39
0.015963256 0.0053622583 0.442 7.4588483e-39
0.017483562 0.0053622583 0.442 9.3027609e-39
0.019046862 0.0053743897 0.44299999 1.1052651e-38
0.020663477 0.0053986534 0.44499999 1.6584388e-38
-0.003929765 0.0039601615 0.45699999 7.9237795e-39
-0.0023578648 0.0039601615 0.45699999 1.1139464e-38
-0.00078424515 0.003951496 0.456 1.2153616e-38
0.00077733624 0.0039168335 0.45199999 1.1512533e-38
0.0023269083 0.0039081681 0.45100001 1.1420337e-38
0.0038695715 0.0038995026 0.44999999 7.5434251e-39
0.0053812782 0.0038735059 0.447 9.3873362e-39
0.006872348 0.0038475094 0.44400001 8.5497269e-39
0.0083995331 0.0038475094 0.44400001 7.8121619e-39
0.0099267187 0.0038475094 0.44400001 9.5779311e-39
0.011402309 0.0038301782 0.442 5.2447365e-39
0.012922644 0.0038301782 0.442 9.2041011e-39
0.01444295 0.0038301782 0.442 4.3177327e-39
0.015963256 0.0038301782 0.442 7.6421283e-39
0.017483562 0.0038301782 0.442 1.2344105e-38
0.019089859 0.0038475094 0.44400001 9.5800288e-39
0.020663477 0.0038561746 0.44499999 1.6033723e-38
0.022194132 0.0038561746 0.44499999 1.4290295e-38
-0.0039383639 0.002381287 0.458 4.7005422e-39
-0.0023578648 0.0023760877 0.45699999 9.1068383e-39
-0.00078252528 0.0023656893 0.45500001 9.3834252e-39
0.00077905605 0.0023552906 0.45300001 1.0308621e-38
0.0023320678 0.0023500912 0.45199999 1.1691556e-38
0.0038695715 0.0023396926 0.44999999 7.9114887e-39
0.0053812782 0.0023240948 0.447 1.0677358e-38
0.006872348 0.0023084967 0.44400001 9.6600121e-39
0.0083995331 0.0023084967 0.44400001 9.199034e-39
0.0099267187 0.0023084967 0.44400001 1.1330361e-38
0.011428106 0.0023032974 0.44299999 7.4581448e-39
0.012922644 0.0022980981 0.442 1.0870805e-38
0.01444295 0.0022980981 0.442 3.8639376e-39
0.015963256 0.0022980981 0.442 5.9764833e-39
0.017483562 0.0022980981 0.442 1.0125287e-38
0.019089859 0.0023084967 0.44400001 1.0222161e-38
0.020663477 0.0023136961 0.44499999 1.6214877e-38
0.022194132 0.0023136961 0.44499999 1.4291011e-38
0.02377807 0.0023188954 0.44600001 1.4198815e-38
-0.0023578648 0.00079203676 0.45699999 6.617178e-39
-0.00078252528 0.00078857056 0.45500001 7.262539e-39
0.00077905605 0.00078510429 0.45300001 6.9049865e-39
0.0023320678 0.00078337116 0.45199999 7.273769e-39
0.0038781709 0.00078163808 0.45100001 5.9728946e-39
0.0053812782 0.00077470561 0.447 8.0011942e-39
0.0068878261 0.00077123934 0.44499999 7.812515e-39
0.0083995331 0.00076950627 0.44400001 7.5359281e-39
0.0099267187 0.00076950627 0.44400001 8.5601736e-39
0.011428106 0.00076777308 0.44299999 5.3333265e-39
0.012922644 0.00076604 0.442 7.9148098e-39
0.01444295 0.00076604 0.442 3.9503977e-39
0.015999371 0.00076777308 0.44299999 6.8087481e-39
0.017523117 0.00076777308 0.44299999 1.1695116e-38
0.019089859 0.00076950627 0.44400001 1.0132849e-38
0.020663477 0.00077123934 0.44499999 1.5019218e-38
0.022244006 0.00077297253 0.44600001 1.4290295e-38
0.02377807 0.00077297253 0.44600001 1.4198099e-38
0.00077905605 -0.00078510429 0.45300001 1.0869736e-38
0.0023320678 -0.00078337116 0.45199999 9.6711931e-39
0.0038781709 -0.00078163808 0.45100001 5.9739946e-39
0.0053933174 -0.00077643868 0.44800001 7.6335159e-39
0.0068878261 -0.00077123934 0.44499999 6.1562279e-39
0.0084184511 -0.00077123934 0.44499999 5.1427934e-39
0.0099267187 -0.00076950627 0.44400001 6.2643058e-39
0.011453903 -0.00076950627 0.44400001 1.5623287e-39
0.012951881 -0.00076777308 0.44299999 6.8127754e-39
0.014475626 -0.00076777308 0.44299999 3.3093415e-39
0.016035488 -0.00076950627 0.44400001 4.6893668e-39
0.017562672 -0.00076950627 0.44400001 8.6537789e-39
0.019132853 -0.00077123934 0.44499999 6.4417971e-39
0.020709913 -0.00077297253 0.44600001 1.4831599e-38
0.022244006 -0.00077297253 0.44600001 1.4289944e-38
0.023831384 -0.00077470561 0.447 1.4105553e-38
0.00078249554 -0.0023656893 0.45500001 1.1881367e-38
0.0023320678 -0.0023500912 0.45199999 1.2618932e-38
0.0038781709 -0.0023448919 0.45100001 8.6548607e-39
0.0053933174 -0.0023292939 0.44800001 1.0498773e-38
0.0069033043 -0.0023188954 0.44600001 1.0399009e-38
0.0084184511 -0.0023136961 0.44499999 7.9097273e-39
0.0099267187 -0.0023084967 0.44400001 1.1516197e-38
0.011453903 -0.0023084967 0.44400001 6.353242e-39
0.012981118 -0.0023084967 0.44400001 1.1605131e-38
0.014508303 -0.0023084967 0.44400001 6.534371e-39
0.016035488 -0.0023084967 0.44400001 4.6861298e-39
0.017602229 -0.0023136961 0.44499999 7.4519987e-39
0.019132853 -0.0023136961 0.44499999 6.1605691e-39
0.020709913 -0.0023188954 0.44600001 1.5472328e-38
0.022244006 -0.0023188954 0.44600001 1.4382859e-38
0.023831384 -0.0023240948 0.447 1.4014076e-38
-0.00078940467 -0.0039774925 0.45899999 8.3750088e-39
0.00078593503 -0.0039601615 0.45699999 1.1696966e-38
0.0023372273 -0.003925499 0.45300001 1.0406227e-38
0.0038781709 -0.0039081681 0.45100001 7.7231612e-39
0.0054053562 -0.0038908371 0.449 9.8436607e-39
0.0069342609 -0.0038821714 0.44800001 9.6603554e-39
0.008437369 -0.0038648406 0.44600001 7.8164428e-39
0.009949076 -0.0038561746 0.44499999 1.0594579e-38
0.011453903 -0.0038475094 0.44400001 5.4316234e-39
0.012981118 -0.0038475094 0.44400001 1.0312574e-38
0.014508303 -0.0038475094 0.44400001 5.8871842e-39
0.016035488 -0.0038475094 0.44400001 5.6966706e-39
0.017602229 -0.0038561746 0.44499999 7.3561878e-39
0.019175848 -0.0038648406 0.44600001 8.8421457e-39
0.020709913 -0.0038648406 0.44600001 1.382071e-38
0.022244006 -0.0038648406 0.44600001 1.4198821e-38
0.023831384 -0.0038735059 0.447 1.3922234e-38
-0.00078940467 -0.0055684759 0.45899999 6.9931632e-39
0.00078593503 -0.0055442122 0.45699999 1.1974279e-38
0.0023527057 -0.0055320808 0.456 1.3172822e-38
0.0038781709 -0.0054714219 0.45100001 9.9481023e-39
0.0054053562 -0.0054471586 0.449 9.3027329e-39
0.0069342609 -0.0054350267 0.44800001 1.0675599e-38
0.008456286 -0.0054228953 0.447 5.9736218e-39
0.0099714333 -0.0054107634 0.44600001 1.0317992e-38
0.0114797 -0.0053986316 0.44499999 6.537971e-39
0.013010355 -0.0053986316 0.44499999 1.123596e-38
0.014540979 -0.0053986316 0.44499999 8.746678e-39
0.016107719 -0.0054107634 0.44600001 7.1743328e-39
0.017641785 -0.0054107634 0.44600001 8.0962891e-39
0.019175848 -0.0054107634 0.44600001 9.6736916e-39
0.020709913 -0.0054107634 0.44600001 1.308493e-38
0.022244006 -0.0054107634 0.44600001 1.4382496e-38
0.023831384 -0.0054228953 0.447 1.4013713e-38
-0.0023888217 -0.0072218738 0.463 7.1696385e-39
-0.00079112442 -0.00717508 0.46000001 6.8930516e-39
0.00078765483 -0.007143884 0.458 6.8088125e-39
0.0023527057 -0.0071126879 0.456 8.0073557e-39
0.0038867698 -0.0070502958 0.45199999 7.2708669e-39
0.0054173945 -0.0070191002 0.44999999 8.4694101e-39
0.0069497391 -0.0070035025 0.449 1.0766741e-38
0.0084752049 -0.0069879042 0.44800001 7.0789156e-39
0.0099714333 -0.0069567086 0.44600001 9.857364e-39
0.011505498 -0.0069567086 0.44600001 6.6305169e-39
0.013039591 -0.0069567086 0.44600001 8.4697506e-39
0.014573655 -0.0069567086 0.44600001 6.625838e-39
0.016107719 -0.0069567086 0.44600001 4.7783255e-39
0.017641785 -0.0069567086 0.44600001 4.7783255e-39
0.019175848 -0.0069567086 0.44600001 8.0952228e-39
0.020709913 -0.0069567086 0.44600001 1.3811352e-38
0.022244006 -0.0069567086 0.44600001 1.4381774e-38
0.023831384 -0.0069723064 0.447 1.3920796e-38
-0.0023888217 -0.0088267224 0.463 1.0214258e-38
-0.00079284434 -0.008788594 0.461 9.937671e-39
0.00079109438 -0.0087695299 0.46000001 8.8255627e-39
0.0023578648 -0.0087123364 0.45699999 1.2144605e-38
0.0038867698 -0.0086170156 0.45199999 7.1736518e-39
0.0054173945 -0.0085788881 0.44999999 6.9892606e-39
0.0069497391 -0.008559824 0.449 6.2509668e-39
0.0084752049 -0.0085407598 0.44800001 4.0407829e-39
0.0099937906 -0.0085216956 0.447 4.6979988e-39
0.011505498 -0.0085026314 0.44600001 3.0384775e-39
0.013039591 -0.0085026314 0.44600001 7.0871791e-39
0.014573655 -0.0085026314 0.44600001 6.8105922e-39
0.016107719 -0.0085026314 0.44600001 4.4098975e-39
0.017641785 -0.0085026314 0.44600001 4.0411206e-39
0.019175848 -0.0085026314 0.44600001 4.6043963e-39
0.020756347 -0.0085216956 0.447 1.2072242e-38
0.022293881 -0.0085216956 0.447 1.4289581e-38
0.023831384 -0.0085216956 0.447 1.3920799e-38
-0.0023888217 -0.010431593 0.463 9.571394e-39
-0.00079112442 -0.010364003 0.46000001 1.113872e-38
0.00079109438 -0.010364003 0.46000001 9.8451068e-39
0.0023630245 -0.010318941 0.458 1.4731475e-38
0.0039383639 -0.010318941 0.458 1.0031707e-38
0.0054173945 -0.010138698 0.44999999 7.7268158e-39
0.0069497391 -0.010116167 0.449 9.4665993e-39
0.0084752049 -0.010093637 0.44800001 7.6227049e-39
0.0099937906 -0.010071106 0.447 8.1870526e-39
0.011505498 -0.010048577 0.44600001 8.1870526e-39
0.013039591 -0.010048577 0.44600001 9.3848447e-39
0.014573655 -0.010048577 0.44600001 1.0859975e-38
0.016107719 -0.010048577 0.44600001 6.4396054e-39
0.017641785 -0.010048577 0.44600001 6.1630227e-39
0.019175848 -0.010048577 0.44600001 9.0258111e-39
0.020756347 -0.010071106 0.447 1.4096571e-38
0.022293881 -0.010071106 0.447 1.447325e-38
0.023831384 -0.010071106 0.447 1.4104467e-38
-0.00079112442 -0.011958452 0.46000001 7.355808e-39
0.00079109438 -0.011958452 0.46000001 7.9057672e-39
0.0023733433 -0.011958452 0.46000001 1.3253114e-38
0.0054294332 -0.011724481 0.45100001 9.7569049e-39
0.0069497391 -0.011672489 0.449 1.1319144e-38
0.0084752049 -0.011646492 0.44800001 7.81571e-39
0.010016148 -0.011646492 0.44800001 9.857364e-39
0.011531294 -0.011620495 0.447 1.0410538e-38
0.013039591 -0.011594499 0.44600001 1.0217855e-38
0.014573655 -0.011594499 0.44600001 1.0402246e-38
0.016143836 -0.011620495 0.447 5.4222501e-39
0.01768134 -0.011620495 0.447 6.2520108e-39
0.019218843 -0.011620495 0.447 7.6403038e-39
0.020756347 -0.011620495 0.447 1.4278389e-38
0.022293881 -0.011620495 0.447 1.4380338e-38
0.023831384 -0.011620495 0.447 1.4011555e-38
0.00079109438 -0.013552925 0.46000001 7.262588e-39
0.0023733433 -0.013552925 0.46000001 9.75187e-39
0.0054294332 -0.013287758 0.45100001 7.5391749e-39
0.0069497391 -0.013228833 0.449 9.3754939e-39
0.0084941229 -0.013228833 0.449 8.0847551e-39
0.010016148 -0.013199369 0.44800001 7.9093643e-39
0.011531294 -0.013169907 0.447 8.0937556e-39
0.013068828 -0.013169907 0.447 6.8923734e-39
0.014606331 -0.013169907 0.447 6.6157865e-39
0.016143836 -0.013169907 0.447 5.4236753e-39
0.01768134 -0.013169907 0.447 5.4236753e-39
0.019218843 -0.013169907 0.447 4.792665e-39
0.020756347 -0.013169907 0.447 1.3274654e-38
0.022293881 -0.013169907 0.447 1.3828603e-38
0.0054535107 -0.014916892 0.45300001 4.60149e-39
0.0069652172 -0.014818105 0.44999999 4.5071238e-39
0.0085130399 -0.014818105 0.44999999 4.5071238e-39
0.010016148 -0.014752246 0.44800001 5.6149231e-39
0.011557092 -0.014752246 0.44800001 6.0759012e-39
0.013068828 -0.014719319 0.447 6.1688353e-39
0.014606331 -0.014719319 0.447 1.492742e-38
0.016143836 -0.014719319 0.447 1.3827161e-38
0.01768134 -0.014719319 0.447 1.3919357e-38
0.019218843 -0.014719319 0.447 1.3736761e-38
0.020756347 -0.014719319 0.447 1.4197739e-38
0.022293881 -0.014719319 0.447 1.3644925e-38
0.005465549 -0.016523473 0.454 3.4097613e-39
0.0070271301 -0.016523473 0.454 3.4072404e-39
0.0085508758 -0.016450683 0.45199999 4.4213867e-39
0.010105577 -0.016450683 0.45199999 4.8855935e-39
0.011582889 -0.016341498 0.449 5.3465716e-39
0.013127302 -0.016341498 0.449 6.4547633e-39
0.014769713 -0.016450683 0.45199999 1.4199196e-38
0.016324416 -0.016450683 0.45199999 1.4105906e-38
0.005465549 -0.018097149 0.454 7.8355173e-39
0.0070271301 -0.018097149 0.454 7.2794512e-39
0.0085697938 -0.018057287 0.45300001 7.9248207e-39
0.010105577 -0.018017424 0.45199999 7.4641914e-39
0.01166028 -0.018017424 0.45199999 5.8968657e-39
0.013215011 -0.018017424 0.45199999 8.0210072e-39
0.014769713 -0.018017424 0.45199999 1.4105919e-38
0.016324416 -0.018017424 0.45199999 1.3737477e-38
0.005465549 -0.019670801 0.454 9.035487e-39
0.0070271301 -0.019670801 0.454 8.5741529e-39
0.0085508758 -0.019584145 0.45199999 8.0209792e-39
0.010105577 -0.019584145 0.45199999 7.8354977e-39
0.01166028 -0.019584145 0.45199999 6.268172e-39
0.013185775 -0.019540818 0.45100001 9.1273519e-39
0.014737037 -0.019540818 0.45100001 1.4290307e-38
0.016324416 -0.019584145 0.45199999 1.3737477e-38
0.005465549 -0.021244476 0.454 8.9432914e-39
0.0070116525 -0.021197682 0.45300001 9.1262533e-39
0.0085508758 -0.021150887 0.45199999 8.6652752e-39
0.010105577 -0.021150887 0.45199999 8.021684e-39
0.01166028 -0.021150887 0.45199999 6.8231408e-39
0.013185775 -0.021104094 0.45100001 1.0050377e-38
0.014737037 -0.021104094 0.45100001 1.3830398e-38
0.016324416 -0.021150887 0.45199999 1.3553446e-38
0.005465549 -0.022818128 0.454 9.9542161e-39
0.0069961739 -0.022717606 0.45199999 9.2187993e-39
0.0085508758 -0.022717606 0.45199999 8.4812342e-39
0.01008322 -0.022667348 0.45100001 8.1120888e-39
0.011634483 -0.022667348 0.45100001 6.82135e-39
0.013185775 -0.022667348 0.45100001 1.0878693e-38
0.014737037 -0.022667348 0.45100001 1.4382127e-38
0.016324416 -0.022717606 0.45199999 1.3553446e-38
0.005465549 -0.024391802 0.454 9.863468e-39
0.0069961739 -0.02428435 0.45199999 9.6797774e-39
0.0085508758 -0.02428435 0.45199999 8.3890386e-39
0.01008322 -0.024230624 0.45100001 8.5712691e-39
0.011634483 -0.024230624 0.45100001 7.5571171e-39
0.013185775 -0.024230624 0.45100001 1.1616977e-38
0.014737037 -0.024230624 0.45100001 1.4014064e-38
0.016324416 -0.02428435 0.45199999 1.3644925e-38
0.005465549 -0.025965456 0.454 1.0230087e-38
0.0070116525 -0.025908263 0.45300001 9.2187993e-39
0.0085508758 -0.025851069 0.45199999 8.4812342e-39
0.010105577 -0.025851069 0.45199999 7.8354977e-39
0.01166028 -0.025851069 0.45199999 7.0979327e-39
0.013215011 -0.025851069 0.45199999 1.2353501e-38
0.014769713 -0.025851069 0.45199999 1.3183262e-38
0.016324416 -0.025851069 0.45199999 1.3367988e-38
0.0054414719 -0.027417812 0.45199999 1.0045696e-38
0.0069961739 -0.027417812 0.45199999 8.8496636e-39
0.0085508758 -0.027417812 0.45199999 8.4808811e-39
0.010105577 -0.027417812 0.45199999 7.6514624e-39
0.01166028 -0.027417812 0.45199999 6.7295061e-39
0.013215011 -0.027417812 0.45199999 1.7238432e-38
0.014769713 -0.027417812 0.45199999 1.4656954e-38
0.016324416 -0.027417812 0.45199999 1.2447464e-38
0.0054414719 -0.028984554 0.45199999 9.7694591e-39
0.0069961739 -0.028984554 0.45199999 8.8496692e-39
0.0085508758 -0.028984554 0.45199999 8.3886911e-39
0.010105577 -0.028984554 0.45199999 7.5596199e-39
0.01166028 -0.028984554 0.45199999 8.8503587e-39
0.013215011 -0.028984554 0.45199999 1.8622072e-38
0.014769713 -0.028984554 0.45199999 1.8622072e-38
0.016324416 -0.028984554 0.45199999 1.5950538e-38
0.0054414719 -0.030551273 0.45199999 9.4935911e-39
0.0069961739 -0.030551273 0.45199999 8.5723607e-39
0.0085508758 -0.030551273 0.45199999 8.6645563e-39
0.010105577 -0.030551273 0.45199999 6.820973e-39
0.01166028 -0.030551273 0.45199999 1.2813689e-38
0.013215011 -0.030551273 0.45199999 1.8256157e-38
0.014769713 -0.030551273 0.45199999 1.7702983e-38
0.016396647 -0.030686457 0.454 1.8255075e-38
0.0054414719 -0.032118015 0.45199999 9.8609415e-39
0.0069961739 -0.032118015 0.45199999 8.8496692e-39
0.0085508758 -0.032118015 0.45199999 8.3886911e-39
0.010105577 -0.032118015 0.45199999 5.9019034e-39
0.01166028 -0.032118015 0.45199999 1.5305858e-38
0.013215011 -0.032118015 0.45199999 1.8348353e-38
0.014769713 -0.032118015 0.45199999 1.7702983e-38
0.0054535107 -0.033759262 0.45300001 9.8612946e-39
0.0069961739 -0.033684738 0.45199999 9.0340549e-39
0.0085508758 -0.033684738 0.45199999 8.2042942e-39
0.010105577 -0.033684738 0.45199999 6.7291501e-39
0.01166028 -0.033684738 0.45199999 1.7147256e-38
0.013215011 -0.033684738 0.45199999 1.8255791e-38
0.003929765 -0.035641428 0.45699999 9.769801e-39
0.005465549 -0.035407458 0.454 9.8619967e-39
0.0070116525 -0.035329469 0.45300001 9.4031933e-39
0.0085508758 -0.03525148 0.45199999 8.2046502e-39
0.010105577 -0.03525148 0.45199999 5.6278346e-39
0.01166028 -0.03525148 0.45199999 1.5769354e-38
0.013215011 -0.03525148 0.45199999 1.8071044e-38
0.003929765 -0.037225481 0.45699999 9.1273267e-39
0.0054775877 -0.03706257 0.45500001 9.1273267e-39
0.0070271301 -0.036981113 0.454 9.4957421e-39
0.0085508758 -0.036818199 0.45199999 8.2971989e-39
0.010105577 -0.036818199 0.45199999 8.4815706e-39
0.01166028 -0.036818199 0.45199999 1.7424547e-38
0.013215011 -0.036818199 0.45199999 1.8254722e-38
0.0039383639 -0.038894478 0.458 9.8612946e-39
0.0055016647 -0.038809553 0.45699999 9.5847077e-39
0.0070271301 -0.038554788 0.454 9.8620079e-39
0.0085697938 -0.038469866 0.45300001 9.1244428e-39
0.010127936 -0.038469866 0.45300001 8.6645045e-39
0.01166028 -0.03838494 0.45199999 1.4749416e-38
0.013215011 -0.03838494 0.45199999 1.8805725e-38
0.003929765 -0.040393606 0.45699999 1.0603164e-38
0.0054775877 -0.04021683 0.45500001 9.7734038e-39
0.0070426087 -0.04021683 0.45500001 9.4957421e-39
0.0085887117 -0.04012844 0.454 8.4815902e-39
0.010127936 -0.04004005 0.45300001 7.9294688e-39
0.011686077 -0.04004005 0.45300001 9.5889901e-39
0.013244249 -0.04004005 0.45300001 1.7789033e-38
0.014835065 -0.04012844 0.454 1.9356358e-38
0.0039125672 -0.041793972 0.45500001 1.2260149e-38
0.0054775877 -0.041793972 0.45500001 1.0231846e-38
0.0070271301 -0.041702114 0.454 9.2169902e-39
0.0085887117 -0.041702114 0.454 8.9404033e-39
0.010150293 -0.041702114 0.454 8.7581771e-39
0.011711874 -0.041702114 0.454 8.1128077e-39
0.013273484 -0.041702114 0.454 1.1337818e-38
0.014835065 -0.041702114 0.454 1.8897859e-38
0.016504994 -0.041977677 0.45699999 1.7701548e-38
0.0023423866 -0.043275788 0.454 1.1985397e-38
0.0039039678 -0.043275788 0.454 1.0413703e-38
0.005465549 -0.043275788 0.454 9.3073557e-39
0.0070271301 -0.043275788 0.454 8.8482049e-39
0.0085887117 -0.043275788 0.454 8.7560093e-39
0.010150293 -0.043275788 0.454 8.5730627e-39
0.011711874 -0.043275788 0.454 8.5730627e-39
0.013273484 -0.043275788 0.454 7.6528538e-39
0.014835065 -0.043275788 0.454 1.8255351e-38
0.016504994 -0.043561753 0.45699999 1.7701548e-38
0.0023423866 -0.04484944 0.454 1.0046035e-38
0.0039039678 -0.04484944 0.454 8.2035445e-39
0.005465549 -0.04484944 0.454 8.3879358e-39
0.0070271301 -0.04484944 0.454 8.4794224e-39
0.0085887117 -0.04484944 0.454 8.571618e-39
0.010150293 -0.04484944 0.454 8.4815762e-39
0.011711874 -0.04484944 0.454 8.2971849e-39
0.013273484 -0.04484944 0.454 5.89973e-39
0.014933094 -0.045145802 0.45699999 1.7608575e-38
0.016504994 -0.045145802 0.45699999 1.7701548e-38
0.018274674 -0.045639742 0.46200001 1.7609353e-38
0.0023423866 -0.046423115 0.454 8.9425543e-39
0.0039039678 -0.046423115 0.454 8.1102937e-39
0.005465549 -0.046423115 0.454 8.3868806e-39
0.0070271301 -0.046423115 0.454 8.019889e-39
0.0085887117 -0.046423115 0.454 8.2964758e-39
0.010150293 -0.046423115 0.454 8.5719739e-39
0.011711874 -0.046423115 0.454 7.9266045e-39
0.013302722 -0.04652537 0.45500001 6.913519e-39
0.015063801 -0.047138892 0.461 1.7608212e-38
0.016685575 -0.047241148 0.46200001 1.7793741e-38
0.018274674 -0.047241148 0.46200001 1.7517154e-38
0.00077905605 -0.047891051 0.45300001 9.1244428e-39
0.0023372273 -0.047891051 0.45300001 9.4932254e-39
0.0039039678 -0.047996767 0.454 8.2039313e-39
0.005465549 -0.047996767 0.454 8.01954e-39
0.0070271301 -0.047996767 0.454 7.9276933e-39
0.0086076297 -0.048102491 0.45500001 8.1120846e-39
0.01017265 -0.048102491 0.45500001 8.2031914e-39
0.011763468 -0.048208207 0.456 7.3734307e-39
0.013448905 -0.048631087 0.46000001 6.3596319e-39
0.015129154 -0.048948247 0.463 1.7607499e-38
0.016685575 -0.048842531 0.46200001 1.7701183e-38
0.018274674 -0.048842531 0.46200001 1.7424596e-38
0.00077905605 -0.049461257 0.45300001 9.4035465e-39
0.0023372273 -0.049461257 0.45300001 8.4815902e-39
0.0039039678 -0.049570441 0.454 7.7433091e-39
0.005465549 -0.049570441 0.454 7.7433091e-39
0.0070426087 -0.04967963 0.45500001 7.6514469e-39
0.0086076297 -0.04967963 0.45500001 7.6514469e-39
0.010195008 -0.049788814 0.456 7.8355047e-39
0.011789264 -0.049897999 0.45699999 6.6369615e-39
0.013448905 -0.05022556 0.46000001 6.4532695e-39
0.015096478 -0.050443932 0.46200001 1.7332354e-38
0.01672169 -0.050553117 0.463 1.7425668e-38
0.018314229 -0.050553117 0.463 1.7333472e-38
0.0023423866 -0.051144097 0.454 8.9404061e-39
0.0039039678 -0.051144097 0.454 8.4787203e-39
0.005465549 -0.051144097 0.454 8.2021334e-39
0.0070426087 -0.05125675 0.45500001 7.0982634e-39
0.0086265476 -0.051369399 0.456 7.4670459e-39
0.010217365 -0.051482052 0.45699999 7.7443713e-39
0.011815062 -0.051594704 0.458 8.5741319e-39
0.013448905 -0.05182001 0.46000001 7.4688732e-39
0.015063801 -0.051932663 0.461 1.7518197e-38
0.016649459 -0.051932663 0.461 1.7333469e-38
0.0023475462 -0.052833892 0.45500001 9.1255527e-39
0.0039125672 -0.052833892 0.45500001 8.4808741e-39
0.0054775877 -0.052833892 0.45500001 8.3886785e-39
0.0070426087 -0.052833892 0.45500001 8.482665e-39
0.0086265476 -0.052950006 0.456 9.3124256e-39
0.010217365 -0.053066123 0.45699999 1.096907e-38
0.011815062 -0.053182244 0.458 1.0600288e-38
0.013390432 -0.053182244 0.458 8.2982737e-39
0.014998448 -0.053298362 0.45899999 1.7978815e-38
0.016613342 -0.053414483 0.46000001 1.7333835e-38
0.018195562 -0.053414483 0.46000001 1.7149444e-38
0.0023578648 -0.054650176 0.45699999 9.6769188e-39
0.0039125672 -0.054411009 0.45500001 8.7578239e-39
0.0054775877 -0.054411009 0.45500001 8.3890414e-39
0.0070426087 -0.054411009 0.45500001 8.6649094e-39
0.0086265476 -0.054530591 0.456 9.4946701e-39
0.010195008 -0.054530591 0.456 1.0050012e-38
0.011789264 -0.054650176 0.45699999 8.6670772e-39
0.013390432 -0.054769762 0.458 9.219151e-39
0.014998448 -0.054889347 0.45899999 1.8069931e-38
0.016613342 -0.055008933 0.46000001 1.7333119e-38
0.018195562 -0.055008933 0.46000001 1.6964336e-38
0.0023578648 -0.056234248 0.45699999 9.8612946e-39
0.0039211661 -0.056111202 0.456 8.8493007e-39
0.0054775877 -0.055988152 0.45500001 8.3883225e-39
0.0070426087 -0.055988152 0.45500001 8.0213323e-39
0.0086265476 -0.056111202 0.456 8.1135279e-39
0.010195008 -0.056111202 0.456 8.4790734e-39
0.011789264 -0.056234248 0.45699999 8.0180953e-39
0.013390432 -0.056357302 0.458 9.8641687e-39
0.014965772 -0.056357302 0.458 1.806958e-38
0.016577227 -0.056480352 0.45899999 1.733275e-38
0.018195562 -0.056603406 0.46000001 1.7240555e-38
0.0023578648 -0.057818323 0.45699999 9.5872315e-39
0.0039211661 -0.057691809 0.456 9.1262533e-39
0.0054896264 -0.057691809 0.456 8.5730795e-39
0.0070580868 -0.057691809 0.456 8.3886785e-39
0.0086265476 -0.057691809 0.456 8.2042872e-39
0.010195008 -0.057691809 0.456 8.3872267e-39
0.011789264 -0.057818323 0.45699999 8.0184442e-39
0.013390432 -0.057944842 0.458 8.5734159e-39
0.014965772 -0.057944842 0.458 1.7885174e-38
0.016577227 -0.058071356 0.45899999 1.7148728e-38
0.018195562 -0.058197878 0.46000001 1.7056532e-38
0.0023578648 -0.059402373 0.45699999 9.7701752e-39
0.003929765 -0.059402373 0.45699999 9.1240897e-39
0.0055016647 -0.059402373 0.45699999 9.0318941e-39
0.0070580868 -0.059272394 0.456 8.3886757e-39
0.0086265476 -0.059272394 0.456 8.0198932e-39
0.010195008 -0.059272394 0.456 7.8362067e-39
0.011789264 -0.059402373 0.45699999 7.8362067e-39
0.013361194 -0.059402373 0.45699999 8.2046333e-39
0.014965772 -0.059532359 0.458 1.7792979e-38
0.016577227 -0.059662342 0.45899999 1.7056898e-38
0.018195562 -0.059792329 0.46000001 1.6872507e-38
-0.00079284434 -0.061520249 0.461 1.2348016e-38
0.00079109438 -0.061386801 0.46000001 1.0049283e-38
0.0023630245 -0.061119899 0.458 9.1273267e-39
0.003929765 -0.060986448 0.45699999 9.4013983e-39
0.0055016647 -0.060986448 0.45699999 8.9404201e-39
0.0070580868 -0.060853001 0.456 8.1117357e-39
0.0086265476 -0.060853001 0.456 8.2039313e-39
0.010217365 -0.060986448 0.45699999 8.019889e-39
0.011789264 -0.060986448 0.45699999 7.9276933e-39
0.013361194 -0.060986448 0.45699999 7.9280464e-39
0.014965772 -0.061119899 0.458 1.7516392e-38
0.016577227 -0.061253347 0.45899999 1.6872494e-38
0.018195562 -0.061386801 0.46000001 1.6780298e-38
-0.0055257427 -0.062844329 0.45899999 1.8157815e-38
-0.0039469632 -0.062844329 0.45899999 1.7051468e-38
-0.002368184 -0.062844329 0.45899999 1.7329107e-38
-0.00078940467 -0.062844329 0.45899999 1.6591542e-38
0.00079109438 -0.062981248 0.46000001 8.3936965e-39
0.0023630245 -0.062707417 0.458 8.1171096e-39
0.003929765 -0.062570497 0.45699999 9.2162783e-39
0.0055016647 -0.062570497 0.45699999 9.2162783e-39
0.0070735645 -0.062570497 0.45699999 8.481223e-39
0.0086454647 -0.062570497 0.45699999 8.3890274e-39
0.010217365 -0.062570497 0.45699999 8.480521e-39
0.011789264 -0.062570497 0.45699999 8.9414991e-39
0.013361194 -0.062570497 0.45699999 8.0213141e-39
0.014965772 -0.062707417 0.458 1.7056486e-38
0.016577227 -0.062844329 0.45899999 1.6780295e-38
0.018195562 -0.062981248 0.46000001 1.6595904e-38
-0.0086833164 -0.064435333 0.45899999 1.7052203e-38
-0.0070890584 -0.064294957 0.458 1.8342942e-38
-0.0055137035 -0.064294957 0.458 1.8433669e-38
-0.0039469632 -0.064435333 0.45899999 1.7696104e-38
-0.002368184 -0.064435333 0.45899999 1.7051451e-38
-0.00078940467 -0.064435333 0.45899999 1.7881212e-38
0.00078937464 -0.064435333 0.45899999 1.5393018e-38
0.0023630245 -0.064294957 0.458 9.4924981e-39
0.003929765 -0.064154573 0.45699999 8.6645045e-39
0.0055016647 -0.064154573 0.45699999 8.0191351e-39
0.0070735645 -0.064154573 0.45699999 8.2028355e-39
0.0086454647 -0.064154573 0.45699999 8.1106398e-39
0.010217365 -0.064154573 0.45699999 7.8387151e-39
0.011789264 -0.064154573 0.45699999 9.7748233e-39
0.013361194 -0.064154573 0.45699999 1.0326192e-38
0.014965772 -0.064294957 0.458 1.6226713e-38
0.01654111 -0.064294957 0.458 1.6502995e-38
0.01811645 -0.064294957 0.458 1.6042017e-38
-0.0086643975 -0.065882474 0.458 1.668195e-38
-0.0070890584 -0.065882474 0.458 1.6497558e-38
-0.0055137035 -0.065882474 0.458 1.677412e-38
-0.0039383639 -0.065882474 0.458 1.6497533e-38
-0.0023630245 -0.065882474 0.458 1.6312091e-38
-0.00078768481 -0.065882474 0.458 1.6496482e-38
0.00078765483 -0.065882474 0.458 1.6220255e-38
0.0023630245 -0.065882474 0.458 1.548269e-38
0.003929765 -0.065738626 0.45699999 1.3640203e-38
0.0055016647 -0.065738626 0.45699999 1.2810442e-38
0.0070735645 -0.065738626 0.45699999 1.2717543e-38
0.0086454647 -0.065738626 0.45699999 1.2901934e-38
0.010217365 -0.065738626 0.45699999 1.3642358e-38
0.011789264 -0.065738626 0.45699999 1.4933097e-38
0.013361194 -0.065738626 0.45699999 1.4839106e-38
0.014933094 -0.065738626 0.45699999 1.4378128e-38
0.01654111 -0.065882474 0.458 1.5395926e-38
0.01811645 -0.065882474 0.458 1.530373e-38
-0.010284453 -0.06776464 0.46000001 1.4472894e-38
-0.0086643975 -0.067470014 0.458 1.5669602e-38
-0.0070890584 -0.067470014 0.458 1.5116429e-38
-0.0055137035 -0.067470014 0.458 1.5667422e-38
-0.0039383639 -0.067470014 0.458 1.5483031e-38
-0.0023578648 -0.067322694 0.45699999 1.4747279e-38
-0.00078596489 -0.067322694 0.45699999 1.5300453e-38
0.00078593503 -0.067322694 0.45699999 1.5574873e-38
0.0023578648 -0.067322694 0.45699999 1.4837308e-38
0.003929765 -0.067322694 0.45699999 1.4101544e-38
0.0055016647 -0.067322694 0.45699999 1.3087392e-38
0.0070580868 -0.067175381 0.456 1.3086676e-38
0.0086265476 -0.067175381 0.456 1.3271067e-38
0.010195008 -0.067175381 0.456 1.3457241e-38
0.011763468 -0.067175381 0.456 1.327285e-38
0.013331958 -0.067175381 0.456 1.2718241e-38
0.014933094 -0.067322694 0.45699999 1.1980676e-38
0.016504994 -0.067322694 0.45699999 1.410301e-38
0.01811645 -0.067470014 0.458 1.493277e-38
-0.010284453 -0.069359094 0.46000001 1.2905943e-38
-0.0086643975 -0.069057532 0.458 1.5024236e-38
-0.0070890584 -0.069057532 0.458 1.4563258e-38
-0.0055137035 -0.069057532 0.458 1.4652917e-38
-0.003929765 -0.068906747 0.45699999 1.437633e-38
-0.0023578648 -0.068906747 0.45699999 1.4652207e-38
-0.00078596489 -0.068906747 0.45699999 1.4836598e-38
0.00078593503 -0.068906747 0.45699999 1.4377775e-38
0.0023527057 -0.068755969 0.456 1.3548014e-38
0.0039211661 -0.068755969 0.456 1.2810437e-38
0.0054775877 -0.068605192 0.45500001 1.2994828e-38
0.0070426087 -0.068605192 0.45500001 1.3178506e-38
0.0086076297 -0.068605192 0.45500001 1.308631e-38
0.01017265 -0.068605192 0.45500001 1.2534571e-38
0.011737672 -0.068605192 0.45500001 1.235018e-38
0.013302722 -0.068605192 0.45500001 1.1703379e-38
0.014900419 -0.068755969 0.456 1.0873618e-38
0.016504994 -0.068906747 0.45699999 1.3365445e-38
0.018076895 -0.068906747 0.45699999 1.493277e-38
-0.010239737 -0.070645072 0.458 1.1431514e-38
-0.0086643975 -0.070645072 0.458 1.1430026e-38
-0.0070890584 -0.070645072 0.458 1.133783e-38
-0.0055016647 -0.070490822 0.45699999 1.1612615e-38
-0.003929765 -0.070490822 0.45699999 1.0967246e-38
-0.0023578648 -0.070490822 0.45699999 1.1059098e-38
-0.00078424515 -0.070336573 0.456 1.1704467e-38
0.00078421528 -0.070336573 0.456 1.1150933e-38
0.0023527057 -0.070336573 0.456 1.1519716e-38
0.0039125672 -0.070182331 0.45500001 1.2349111e-38
0.0054775877 -0.070182331 0.45500001 1.2533502e-38
0.0070426087 -0.070182331 0.45500001 1.2440944e-38
0.0086076297 -0.070182331 0.45500001 1.1703379e-38
0.01017265 -0.070182331 0.45500001 1.1240583e-38
0.011737672 -0.070182331 0.45500001 1.1240583e-38
0.013302722 -0.070182331 0.45500001 9.8594926e-39
0.014867743 -0.070182331 0.45500001 8.4765581e-39
0.016468879 -0.070336573 0.456 1.3457312e-38
0.018076895 -0.070490822 0.45699999 1.4840247e-38
-0.01021738 -0.072074898 0.45699999 1.5305165e-38
-0.0086265625 -0.071917184 0.456 1.5302998e-38
-0.0070581017 -0.071917184 0.456 1.4288846e-38
-0.0055016647 -0.072074898 0.45699999 1.4011896e-38
-0.003929765 -0.072074898 0.45699999 1.3643113e-38
-0.0023578648 -0.072074898 0.45699999 1.391971e-38
-0.00078424515 -0.071917184 0.456 1.3550927e-38
0.00078421528 -0.071917184 0.456 1.3827151e-38
0.0023475462 -0.07175947 0.45500001 1.4103738e-38
0.0039039678 -0.071601756 0.454 1.4195568e-38
0.005465549 -0.071601756 0.454 1.3826786e-38
0.0070271301 -0.071601756 0.454 1.3274667e-38
0.0085887117 -0.071601756 0.454 1.2444906e-38
0.010150293 -0.071601756 0.454 1.1984294e-38
0.011711874 -0.071601756 0.454 1.207649e-38
0.013273484 -0.071601756 0.454 1.2446388e-38
